ncols 463
nrows 31
xllcorner    245070
yllcorner    136450
cellsize     2
NODATA_value -9999
8.63 8.66 8.712 8.64 8.775 8.757 8.93 9.255 9.68 10.025 10.105 10.59 10.562 10.672 10.665 10.237 10.122 10.227 10.408 10.825 11.12 11.533 11.932 12.575 12.403 12.215 11.878 11.675 11.79 11.755 11.542 11.535 11.675 12.108 12.618 12.82 12.243 11.812 11.702 11.475 11.66 11.49 11 10.583 10.172 10.092 10.052 9.925 9.885 10.03 10.52 11.458 12.267 13.005 13.507 13.325 12.688 11.807 11.142 10.743 10.253 10.205 10.405 10.903 11.57 12.032 12.718 13.705 14.76 15.915 16.423 16.75 17.135 17.653 17.923 18.312 18.698 18.533 18.52 18.615 18.84 18.413 17.505 16.952 16.1 16.675 16 15.48 15.36 14.88 13.725 12.905 11.997 11.485 11.238 11.267 11.122 10.62 10.398 10.105 9.767 9.642 9.635 9.722 9.98 10.253 10.29 10.23 10.435 10.78 11.005 11.38 11.247 10.663 10.747 10.847 10.57 10.225 10.153 10.198 9.923 9.64 9.545 9.497 9.48 9.323 9.167 9.182 9.23 9.235 9.225 9.265 9.26 9.233 9.173 9.118 9.157 9.188 9.233 9.31 9.34 9.37 9.475 9.64 9.675 9.625 9.592 9.615 9.625 9.653 9.698 9.725 9.702 9.76 9.782 9.792 9.988 9.93 9.735 9.74 9.738 9.632 9.575 9.587 9.575 9.663 9.805 10.003 10.208 10.525 10.785 11.25 11.74 11.712 11.577 11.69 11.85 12.275 12.483 12.6 12.882 13.093 12.922 13.173 13.898 14.105 14.12 14.528 14.773 15.135 16.138 17.425 18.642 19.715 20.747 21.407 21.615 21.298 20.917 20.705 20.52 20.49 20.378 20.47 20.86 21.35 21.688 21.84 22.048 21.802 21.827 21.892 22.062 22.325 22.728 22.95 23.458 23.5 22.015 21.392 21.983 22.923 22.743 22.64 22.618 22.23 22.71 23.278 23.645 23.64 21.99 20.9 21.085 21.73 22.118 22.103 22.08 21.865 21.462 22.403 22.888 23.3 23.44 22.905 21.995 21.36 21.48 21.6 21.07 20.698 20.757 21.278 21.302 20.335 19.728 19.17 18.913 18.63 18.925 19.395 19.725 19.528 17.935 16.585 16.565 15.95 14.948 14.175 13.542 13.165 12.775 12.405 12.1 11.82 11.747 11.727 11.707 11.608 11.477 11.318 11.182 11.045 10.98 10.953 10.823 10.67 10.602 10.535 10.462 10.37 10.288 10.247 10.227 10.212 10.2 10.158 10.11 10.123 10.125 9.967 9.875 9.885 10.033 10.165 10.025 9.967 9.95 9.922 9.94 9.953 9.997 9.987 9.962 9.96 9.952 9.975 9.955 9.932 9.903 9.88 9.89 9.882 9.88 9.882 9.885 9.76 9.177 9.3 9.913 9.868 9.847 9.863 9.875 9.875 9.872 9.895 9.868 9.86 9.877 9.882 9.882 9.905 9.8 9.775 9.783 9.763 9.812 9.925 9.855 9.807 9.807 9.827 9.823 9.833 9.767 9.807 9.823 9.823 9.837 9.795 9.807 9.87 9.875 9.88 9.892 9.882 9.882 9.8 9.78 9.882 10.068 10.03 10.285 10.608 10.875 10.91 10.812 10.278 9.965 9.913 9.997 10.01 9.958 9.94 9.972 10.038 10.158 10.185 10.023 9.965 9.93 9.925 9.92 9.917 9.907 9.91 9.913 9.917 9.932 9.957 9.968 9.99 9.997 10.025 10.065 10.08 10.09 10.115 10.218 10.44 10.575 10.78 10.805 10.85 10.935 10.99 11.3 11.608 11.708 11.295 11.795 12.185 12.137 11.887 11.345 10.868 10.403 10.14 10.102 10.16 10.347 10.3 10.035 9.977 9.948 9.935 9.977 10.085 10.25 10.61 11.015 11.395 12.095 12.398 12.422 12.295 12.11 12.335 12.455 12.483 11.873 11.698 12.005 12.128 11.998 11.502 11.125 10.748 10.597 10.57 10.458 10.235 10.205
8.445 8.375 8.45 8.51 8.63 8.632 8.73 8.995 9.307 9.648 9.785 9.92 10.127 10.622 10.988 10.615 10.332 10.087 10.17 10.503 10.953 11.562 12.33 12.868 13.22 13.312 12.968 12.452 12.07 11.815 11.762 11.555 11.74 11.988 12.685 13.488 12.882 12.403 12.245 12.345 12.233 11.515 11.253 10.59 10.19 10.017 9.88 9.73 9.84 9.925 10.375 11.635 12.648 13.852 13.932 13.743 13.39 12.747 12.19 11.475 10.815 10.67 10.637 10.88 11.19 11.608 12.097 13.123 14.055 14.837 16.073 16.663 17.22 17.66 18.075 18.42 18.737 18.97 18.865 18.778 18.892 18.435 17.295 16.66 15.828 15.77 15.75 15.42 15.47 14.29 13.425 12.778 11.965 11.517 11.302 11.283 11.047 10.712 10.57 10.54 9.922 9.733 9.735 9.825 10.03 10.195 10.295 10.18 10.31 10.73 10.96 10.965 11.005 10.48 10.575 10.62 10.19 10.04 10.203 10.458 10.038 9.77 9.61 9.545 9.483 9.387 9.288 9.137 9.062 9.1 9.2 9.222 9.245 9.27 9.153 9.12 9.18 9.227 9.292 9.335 9.358 9.425 9.587 9.727 9.733 9.69 9.648 9.672 9.682 9.665 9.682 9.725 9.682 9.783 9.74 9.802 9.91 9.863 9.75 9.733 9.725 9.667 9.59 9.635 9.805 9.885 10.017 10.145 10.333 10.465 10.658 10.98 11.432 11.615 11.743 12.035 12.16 12.233 12.488 12.835 13.205 13.292 13.165 13.29 13.885 13.88 13.727 14.1 14.403 14.94 15.847 17.142 18.048 18.683 19.663 20.925 22.23 22.837 22.538 22.123 21.855 21.78 21.733 21.8 22.118 22.55 22.885 23.007 23.2 23.13 23.045 23.068 23.228 23.103 23.233 23.385 23.965 24.16 23.632 22.757 23.583 23.395 23.327 23.58 23.228 22.845 22.955 23.403 23.71 23.755 23.452 21.9 21.272 21.56 22.365 22.603 22.215 21.853 21.438 21.845 22.597 23.038 23.253 23.163 22.62 22.58 22.118 22.163 21.79 20.612 20.45 20.823 21.173 20.452 20.062 19.98 19.71 19.465 19.685 20.022 20.438 20.235 18.763 17.605 16.485 15.72 14.79 13.975 13.56 13.108 12.682 12.33 12.05 11.898 11.85 11.828 11.705 11.627 11.43 11.28 11.163 11.087 11.005 10.935 10.8 10.688 10.648 10.538 10.435 10.347 10.295 10.255 10.22 10.2 10.175 10.15 10.113 10.148 10.042 9.91 9.913 9.983 10.155 10.057 9.995 9.983 9.945 9.925 9.938 9.96 10.012 9.99 9.972 9.993 9.99 9.987 9.977 9.948 9.917 9.908 9.887 9.89 9.875 9.875 9.888 9.847 9.455 8.977 9.917 9.905 9.88 9.89 9.898 9.888 9.88 9.872 9.87 9.87 9.855 9.855 9.837 9.9 9.922 9.825 9.78 9.78 9.753 9.795 9.917 9.855 9.827 9.843 9.823 9.81 9.8 9.81 9.8 9.818 9.812 9.805 9.81 9.91 9.903 9.892 9.875 9.843 9.805 9.838 9.935 9.837 9.88 10.145 10.215 10.613 10.855 10.807 10.737 10.345 9.972 9.872 10.145 10.08 9.97 9.955 9.975 9.985 10.012 10.017 9.962 9.93 9.915 9.91 9.907 9.91 9.903 9.923 9.93 9.94 9.967 9.985 10.003 10.023 10.033 10.025 10.05 10.11 10.087 10.1 10.175 10.337 10.552 10.712 10.792 11.195 11.9 11.92 11.863 11.868 11.712 11.257 11.495 11.762 11.59 11.212 10.705 10.418 10.218 10.113 10.077 10.05 10.085 10.015 9.94 9.922 9.917 9.938 9.96 10.048 10.247 10.61 11.15 11.792 12.452 12.85 13.1 13.048 12.27 12.233 12.335 12.523 12.427 11.98 12.087 12.29 12.23 11.575 11.153 10.74 10.528 10.642 10.773 10.57 10.305
8.288 8.35 8.382 8.415 8.512 8.51 8.58 8.682 8.847 9.17 9.34 9.693 10.403 11.023 10.89 10.3 9.953 9.89 9.852 10.26 10.83 11.227 11.775 12.762 13.767 13.575 13.125 13.105 12.618 12.15 11.852 11.775 11.885 12.13 12.837 13.333 13.323 12.898 12.7 12.752 12.33 11.695 11.288 10.815 10.44 10.1 9.887 9.665 9.825 10.21 11.167 12.225 14.225 15.205 15.365 14.467 14.1 13.767 12.995 12.248 11.708 11.055 10.948 10.77 10.972 11.488 11.93 12.753 13.905 14.81 15.613 16.483 17.127 17.647 17.942 18.342 18.722 18.812 18.795 18.81 18.895 18.405 17.555 16.752 15.663 15.88 15.323 15.503 15.46 14.122 13.182 12.432 11.96 11.767 11.835 11.878 11.408 10.642 10.815 10.747 9.98 9.818 9.74 9.825 9.99 10.188 10.172 10.092 10.087 10.408 10.568 10.658 10.66 10.22 10.235 10.337 10.193 10.142 10.49 10.677 10.37 9.915 9.64 9.575 9.622 9.577 9.663 9.493 9.342 9.29 9.292 9.283 9.323 9.283 9.14 9.115 9.177 9.233 9.283 9.345 9.398 9.497 9.655 9.725 9.72 9.675 9.675 9.727 9.712 9.717 9.837 9.722 9.715 9.722 9.722 9.835 9.917 9.79 9.775 9.835 9.793 9.773 9.815 9.972 10.073 10.19 10.415 10.595 10.608 10.71 10.905 11.04 11.42 11.7 11.94 12.165 12.352 12.39 12.55 12.885 13.177 13.368 13.5 13.868 14 13.877 13.483 13.698 13.962 14.79 15.585 16.683 17.835 18.302 18.968 20.29 21.567 23.042 23.78 23.695 23.24 22.932 23.025 23.097 23.485 24.045 24.472 24.528 24.72 24.59 24.378 24.342 24.312 24.345 24.165 23.888 24.005 24.3 24.26 23.93 24.263 23.868 23.368 23.382 23.318 23.125 23.185 23.278 23.287 23.55 24.13 23.432 22.248 21.657 22.397 22.99 22.862 22.225 21.795 22.372 22.748 22.898 23.192 23.097 23.003 22.692 22.807 22.675 21.788 21.16 20.932 21.033 21.612 20.823 20.365 20.188 20.038 20.087 20.247 20.787 20.847 20.368 18.615 17.3 16.737 15.632 14.938 14.615 13.69 13.01 12.753 12.408 12.08 12.007 11.948 11.85 11.66 11.49 11.342 11.24 11.167 11.05 10.977 10.92 10.835 10.75 10.625 10.505 10.45 10.37 10.302 10.265 10.2 10.19 10.182 10.15 10.12 10.11 9.972 9.905 9.93 10.108 10.175 10.025 9.983 9.958 9.922 9.94 9.94 9.972 9.972 9.96 9.965 10 9.983 9.948 9.958 9.96 9.92 9.903 9.89 9.892 9.878 9.9 9.898 9.863 9.715 9.455 9.845 9.91 9.898 9.885 9.885 9.892 9.9 9.887 9.877 9.885 9.86 9.84 9.84 9.868 9.885 9.923 9.868 9.78 9.74 9.72 9.792 9.925 9.898 9.84 9.835 9.835 9.81 9.815 9.83 9.823 9.82 9.837 9.812 9.89 9.907 9.885 9.872 9.835 9.885 9.935 10.005 10.01 9.86 9.89 10.2 10.35 10.64 10.685 10.538 10.202 9.98 9.898 9.995 10.028 9.975 9.958 9.977 9.983 9.952 9.95 9.958 9.94 9.923 9.915 9.915 9.927 9.95 9.962 9.958 9.983 10.012 10.057 10.065 10.052 10.052 10.05 10.068 10.062 10.065 10.083 10.163 10.345 10.635 10.887 11.105 11.722 12.202 12.205 11.972 11.545 11.245 10.927 10.91 10.958 10.812 10.62 10.525 10.42 10.257 10.135 10.08 10.035 10.003 9.965 9.915 9.898 9.915 9.915 9.972 10.083 10.22 10.605 11.28 12.155 12.935 13.337 13.302 13.028 12.545 12.262 12.375 12.467 12.568 12.62 12.18 12.41 12.245 11.688 11.392 10.972 10.648 10.673 10.983 11.052 10.663
8.212 8.312 8.372 8.403 8.42 8.513 8.453 8.465 8.58 8.823 9.15 9.71 10.587 10.76 10.297 9.785 9.333 9.182 9.148 9.118 9.792 10.462 11.43 12.2 13.205 12.87 12.295 12.243 12.5 12.507 12.155 12.093 12.235 12.44 12.932 13.27 13.007 12.815 12.863 12.757 12.318 11.953 11.788 11.305 10.702 10.39 10.132 10.18 10.382 11.4 12.498 13.76 15.06 16.173 16.438 15.622 14.892 14.295 13.73 12.927 12.423 11.57 11.328 11.015 11.09 11.595 12.235 13.04 14.135 15.023 15.7 16.278 16.82 17.4 17.882 18.325 18.537 18.73 18.635 18.645 18.702 18.28 17.243 16.177 15.488 15.273 15.27 15.432 15.38 14.198 12.96 12.195 11.917 11.858 12.142 12.557 11.475 10.59 10.495 10.3 9.962 9.792 9.71 9.785 10.02 10.175 10.26 10.345 10.298 10.403 10.648 10.642 10.385 10.12 10.04 10.167 10.115 10.065 10.31 10.73 10.77 9.99 9.86 9.81 10.057 10.092 10.185 10.007 9.733 9.52 9.44 9.4 9.382 9.288 9.127 9.118 9.163 9.23 9.28 9.38 9.452 9.545 9.738 9.75 9.715 9.64 9.677 9.74 9.727 9.773 9.828 9.762 9.738 9.693 9.77 9.78 9.87 9.878 9.775 9.965 9.965 10.137 10.198 10.292 10.507 10.632 10.963 11.2 11.108 11.193 11.372 11.475 11.79 12.203 12.44 12.533 12.602 12.62 12.645 12.84 13.203 13.45 13.58 14.368 14.11 13.552 13.333 13.465 13.743 14.538 15.548 16.515 17.495 18.08 18.495 19.635 21.042 22.695 23.955 24.81 24.495 24.138 24.155 24.167 24.685 25.373 25.68 25.9 26.073 26.06 25.82 25.538 25.375 25.515 25.317 24.945 24.757 24.517 24.41 24.048 24.048 23.785 23.51 23.175 23.11 23.208 23.392 23.557 23.548 23.842 24.57 24.785 23.823 22.392 22.388 23.073 23.328 23.092 22.612 22.385 22.47 22.522 22.698 22.193 22.12 22.57 22.75 22.94 22.592 21.845 21.552 21.602 21.962 21.455 20.923 20.57 20.417 20.528 20.81 20.783 20.18 19.722 18.51 17.42 16.562 15.26 15.252 14.722 13.972 13.01 12.583 12.387 12.142 12.115 11.985 11.865 11.645 11.432 11.305 11.212 11.16 11.045 10.908 10.828 10.8 10.765 10.675 10.55 10.5 10.398 10.315 10.265 10.215 10.172 10.17 10.145 10.15 10.042 9.917 9.9 9.983 10.235 10.083 10.03 9.98 9.962 9.95 9.945 9.983 9.99 9.965 9.97 9.97 9.985 10.007 9.96 9.972 9.97 9.935 9.903 9.9 9.9 9.885 9.887 9.87 9.855 9.898 9.335 9.265 9.957 9.898 9.88 9.882 9.892 9.903 9.9 9.885 9.88 9.868 9.83 9.843 9.855 9.868 9.868 9.875 9.903 9.807 9.702 9.71 9.785 9.9 9.865 9.833 9.825 9.805 9.795 9.852 9.823 9.837 9.88 9.808 9.855 9.887 9.858 9.833 9.875 9.913 9.97 9.968 10.182 10.095 9.985 9.955 10.09 10.395 10.368 10.37 10.052 10.005 9.962 9.97 10.025 10.003 9.983 10.007 10.033 10.04 10.007 9.998 9.955 9.932 9.927 9.948 9.952 9.962 10 10.023 10.055 10.087 10.118 10.137 10.115 10.095 10.092 10.097 10.097 10.115 10.11 10.13 10.335 10.805 11.337 11.868 12.105 12.21 12.155 11.632 11.08 10.76 10.625 10.575 10.595 10.562 10.512 10.497 10.452 10.3 10.148 10.065 10.017 9.977 9.945 9.903 9.887 9.88 9.948 9.983 10.078 10.132 10.54 11.18 12.033 13.14 13.61 13.577 12.88 12.538 12.352 12.45 12.472 12.505 12.657 12.318 12.38 12.033 11.828 11.632 11.328 10.99 10.91 11.267 11.42 11.26
8.203 8.265 8.33 8.385 8.432 8.455 8.493 8.38 8.4 8.602 8.895 9.523 10.102 10.132 9.783 9.305 8.852 8.727 8.727 8.847 8.983 9.625 10.755 11.542 12.39 11.892 11.282 11.355 11.743 12.422 12.78 12.85 12.488 12.555 12.887 13.07 13.113 13.023 13.355 12.92 12.545 12.52 12.185 11.97 11.512 11.35 11.257 11.262 11.613 12.632 13.68 15.015 16.405 17.557 17.577 16.677 15.717 14.727 14.01 13.59 13.04 12.333 11.84 11.503 11.635 12.175 12.818 13.557 14.347 15.247 15.78 15.965 16.702 17.202 17.675 18.068 18.467 18.858 18.968 19.005 18.705 18.138 16.977 15.8 15.24 15.208 15.148 15.012 14.907 13.888 12.98 12.198 11.793 11.975 12.295 12.323 11.3 10.743 10.43 11.275 9.94 9.875 9.767 9.825 10.04 10.28 10.46 10.685 10.96 10.828 10.71 10.568 10.253 10.01 10.085 10.165 9.943 9.887 10.03 10.24 10.23 9.972 10.03 10.113 10.41 10.533 10.833 10.792 10.095 9.592 9.47 9.45 9.342 9.203 9.118 9.142 9.185 9.24 9.305 9.395 9.452 9.595 9.792 9.837 9.788 9.64 9.675 9.778 9.87 9.792 9.762 9.8 9.755 9.79 9.835 9.855 9.778 9.88 9.885 10.003 10.185 10.485 10.7 10.92 11.18 11.312 11.425 11.693 11.93 11.745 11.825 11.858 11.993 12.375 12.557 12.64 12.915 13.04 12.888 12.938 13.1 13.265 13.543 14.03 14.18 13.703 13.507 13.597 13.912 14.47 15.68 16.632 17.358 17.958 18.487 19.235 20.597 22.228 23.753 25.228 25.79 25.247 24.985 25.003 25.403 25.972 26.425 26.715 27.07 27.283 26.895 26.493 26.37 26.858 26.57 25.892 25.892 25.483 25.122 24.69 24.155 24.327 24.425 23.635 23.388 23.392 23.628 23.908 23.993 24.157 24.698 24.945 24.6 23.47 22.725 23.12 23.612 23.535 23.09 23.195 22.362 22.382 22.925 23.08 22.323 22.245 22.295 22.693 22.705 22.452 22.243 22.315 22.095 21.665 21.455 20.978 20.763 20.533 20.41 19.728 19.19 18.663 18.083 17.317 16.552 15.358 15.315 14.323 13.698 13.2 12.425 12.23 12.188 12.188 12.038 11.86 11.615 11.413 11.323 11.267 11.185 11.045 10.892 10.818 10.785 10.727 10.695 10.575 10.503 10.435 10.315 10.257 10.23 10.205 10.163 10.137 10.128 9.97 9.895 9.91 10.128 10.198 10.035 10 9.962 9.962 9.96 9.967 9.985 10.01 9.983 10 9.998 9.977 9.987 9.977 10 10.007 9.962 9.922 9.91 9.915 9.892 9.898 9.88 9.858 9.823 9.423 9.575 9.93 9.9 9.87 9.89 9.91 9.913 9.9 9.885 9.89 9.885 9.845 9.833 9.852 9.88 9.868 9.843 9.833 9.903 9.842 9.72 9.677 9.785 9.89 9.86 9.79 9.76 9.78 9.82 9.835 9.825 9.842 9.775 9.775 9.795 9.815 9.898 9.88 9.93 10.017 10.08 10.155 10.202 10.155 10.087 9.932 9.958 10.068 10.115 9.99 10 9.967 9.948 10.015 10.003 10.002 10.07 10.14 10.14 10.05 9.995 9.975 9.943 9.92 9.932 9.938 9.967 10.035 10.095 10.122 10.153 10.145 10.165 10.172 10.17 10.158 10.185 10.257 10.24 10.155 10.145 10.292 10.86 11.503 12.312 12.487 12.125 11.938 11.172 10.628 10.547 10.52 10.483 10.488 10.485 10.468 10.475 10.445 10.312 10.153 10.038 9.99 9.965 9.935 9.923 9.89 9.892 9.95 10.01 10.065 10.035 10.392 11.003 11.807 12.682 13.32 13.227 13.09 12.765 12.523 12.315 12.158 12.13 12.218 12.395 12.552 12.868 12.855 12.123 11.795 11.502 11.368 11.693 11.792 11.613
8.137 8.195 8.307 8.355 8.368 8.413 8.455 8.432 8.453 8.525 8.665 9.198 9.86 9.835 9.912 9.398 8.89 8.608 8.61 8.738 8.89 9.398 10.352 11.118 11.48 11.065 10.753 11.16 11.655 12.458 13.262 13.19 12.993 12.863 12.972 13.267 13.693 13.875 13.542 13.215 12.948 12.792 12.63 12.45 12.823 12.67 12.673 12.825 13.132 14.132 15.323 16.24 17.435 18.64 18.688 17.285 16.177 15.025 14.532 14.057 13.59 13.095 12.628 12.335 12.52 13.14 13.79 14.243 14.845 15.387 15.845 15.915 16.44 16.968 17.455 17.98 18.475 18.9 19.38 19.682 19.432 18.153 17.007 15.953 15.26 15.292 14.972 14.68 14.613 14.062 12.71 12.083 12.077 12.145 12.623 12.512 11.507 11.145 10.32 10.15 10.413 10.26 9.913 9.92 10.08 10.365 10.592 10.855 11.048 10.892 10.7 10.392 9.945 10.032 10.37 10.18 9.95 9.785 9.828 9.962 9.89 10.007 10.188 9.995 10.153 10.302 10.69 11.07 10.55 9.53 9.465 9.41 9.328 9.235 9.208 9.2 9.233 9.265 9.352 9.385 9.413 9.645 9.98 10.042 9.82 9.667 9.67 9.762 9.922 9.868 9.792 9.807 9.757 9.79 9.82 9.965 9.877 9.952 10.073 10.382 10.8 11.118 11.517 11.613 11.852 12.118 12.285 12.655 12.865 12.46 12.427 12.33 12.257 12.392 12.502 12.592 12.845 12.948 13.005 13.002 12.93 13.003 13.167 13.69 14.03 14.005 13.9 13.872 14.108 14.753 15.993 16.853 17.327 17.86 18.3 18.868 19.862 21.503 23.24 25.198 26.4 26.215 25.763 25.962 26.145 26.278 26.618 26.84 27.188 27.708 27.49 27.208 27.09 27.415 26.903 26.725 26.573 26.495 26.125 25.368 24.94 24.948 24.77 24.603 24.147 23.65 23.84 24.065 24.033 24.298 24.827 24.788 24.59 24.022 23.36 23.245 23.44 23.767 23.638 23.475 22.845 22.91 23.27 23.73 23.193 22.365 22.068 22.08 22.395 22.69 22.478 22.255 21.605 20.99 20.775 20.847 20.483 19.775 19.097 18.483 17.945 17.562 17.077 16.712 16.228 15.467 14.215 13.788 13.245 12.562 12.323 12.295 12.343 12.245 11.99 11.792 11.53 11.395 11.295 11.26 11.212 11.04 10.955 10.908 10.812 10.71 10.685 10.575 10.43 10.36 10.295 10.247 10.205 10.193 10.158 10.163 10.047 9.917 9.887 10 10.257 10.065 10.025 9.983 9.997 9.975 9.967 10 9.98 9.983 9.985 9.99 10.005 9.995 9.99 9.967 9.96 9.96 9.945 9.93 9.917 9.92 9.905 9.895 9.87 9.858 9.858 9.613 9.198 9.663 9.95 9.903 9.908 9.922 9.91 9.91 9.895 9.882 9.878 9.863 9.84 9.86 9.86 9.863 9.845 9.847 9.85 9.887 9.825 9.7 9.715 9.865 9.915 9.828 9.775 9.812 9.835 9.802 9.828 9.8 9.743 9.745 9.807 9.882 9.917 9.9 9.958 9.96 10.085 10.05 10.025 10.032 10.128 10.135 9.97 9.918 9.92 9.993 10.052 9.985 9.955 10.017 10.015 10.028 10.068 10.128 10.13 10.05 9.98 9.945 9.938 9.925 9.927 9.95 10.002 10.07 10.093 10.125 10.135 10.132 10.155 10.19 10.252 10.315 10.352 10.52 10.462 10.337 10.25 10.293 10.693 11.403 12.208 12.253 11.623 11.222 10.77 10.59 10.565 10.523 10.472 10.452 10.45 10.448 10.458 10.425 10.318 10.165 10.038 9.997 9.97 9.943 9.955 9.908 9.95 9.96 10.052 10.09 10.105 10.358 10.825 11.43 12.13 12.892 13.387 13.88 13.665 12.945 12.257 12.337 12.427 12.533 12.702 12.99 13.257 13.155 12.587 12.455 12.302 12.358 12.297 12.267 11.847
8.168 8.173 8.243 8.335 8.345 8.398 8.435 8.458 8.67 8.84 8.835 8.898 9.385 9.773 10.113 10.35 9.528 8.86 8.725 8.863 9.045 9.59 10.395 11.005 11.38 11.238 11.145 11.52 12.18 12.868 13.727 13.43 13.22 13.007 13.085 13.083 13.435 13.765 14.057 13.792 13.63 13.443 13.453 13.345 13.432 13.632 13.85 13.927 14.252 15.215 16.525 17.472 18.493 19.548 19.385 17.945 16.76 15.578 14.962 14.645 14.32 13.842 13.35 13.32 13.265 13.745 14.245 14.765 15.065 15.425 15.802 16.055 16.615 17.085 17.538 18.03 18.55 19.115 19.688 19.528 19.177 18.458 17.358 16.587 15.342 14.882 14.435 14.257 14.21 13.755 12.538 12.318 12.378 12.413 12.802 12.847 11.672 11.233 10.59 10.655 10.795 10.88 10.315 10.04 10.065 10.235 10.555 10.745 10.948 10.83 10.59 10.21 9.948 10.148 10.403 10.315 10.068 9.842 9.7 9.688 9.762 9.845 9.792 9.672 9.69 9.85 10.062 10.255 9.812 9.443 9.457 9.398 9.34 9.238 9.24 9.245 9.278 9.33 9.385 9.38 9.422 9.747 10.208 10.182 9.91 9.702 9.68 9.743 9.737 9.865 9.908 9.827 9.735 9.748 9.907 10.083 10.125 10.21 10.262 10.69 11.105 11.535 11.965 12.292 12.342 12.665 12.863 13.02 13.073 13.03 12.823 12.802 12.583 12.432 12.533 12.548 12.72 12.835 12.802 12.852 12.823 12.798 12.975 13.33 13.717 13.83 14.048 14.217 14.483 15.137 16.39 16.892 17.31 17.743 18.185 18.845 19.86 21.128 22.667 24.635 25.978 26.65 26.778 26.663 26.78 26.665 26.773 27.042 27.183 27.56 28.03 27.868 27.427 27.548 27.5 27.54 27.462 27.3 26.692 26.185 25.675 25.873 25.817 25.423 24.815 24.222 24.05 24.253 24.202 24.435 24.728 24.815 24.565 24.105 23.718 23.638 23.565 23.525 23.715 23.923 23.562 23.708 24.255 24.45 24.03 22.493 22.028 22.103 22.215 22.307 22.177 21.417 20.49 20.005 19.817 19.858 19.435 18.775 17.935 17.325 16.825 16.347 15.885 15.905 15.6 14.85 13.815 13.267 12.765 12.318 12.382 12.438 12.325 12.168 11.943 11.702 11.483 11.295 11.2 11.243 11.193 11.033 10.965 10.915 10.837 10.722 10.66 10.587 10.443 10.358 10.29 10.245 10.198 10.17 10.15 10.125 9.985 9.9 9.91 10.158 10.182 10.045 10.015 9.993 10.023 9.995 9.987 10.052 10.015 9.97 9.967 10 10.015 10.002 9.993 9.97 9.952 9.938 9.94 9.922 9.885 9.895 9.915 9.88 9.86 9.843 9.837 9.735 9.235 9.215 9.958 9.892 9.9 9.903 9.88 9.875 9.903 9.895 9.892 9.882 9.86 9.852 9.86 9.845 9.865 9.863 9.858 9.903 9.872 9.765 9.665 9.757 9.927 9.887 9.8 9.8 9.8 9.82 9.852 9.835 9.773 9.755 9.828 9.88 9.905 9.915 9.922 9.935 10.068 10.028 9.975 10.1 10.173 10.27 10.165 10.245 10.145 9.962 9.95 9.987 10.015 10.028 10.045 10.068 10.085 10.118 10.138 10.105 10.033 9.993 9.948 9.93 9.948 9.985 10.048 10.07 10.08 10.122 10.1 10.105 10.13 10.185 10.417 10.538 10.51 10.47 10.37 10.355 10.323 10.337 10.602 11.438 12.135 11.842 11.118 10.677 10.585 10.583 10.583 10.552 10.48 10.44 10.432 10.432 10.438 10.413 10.318 10.163 10.043 9.975 9.96 9.945 9.96 9.93 9.92 10.003 10.092 10.142 10.177 10.432 10.89 11.565 12.387 13.097 13.695 13.935 13.568 12.957 12.4 12.585 12.717 12.77 12.885 12.86 12.882 13.025 13.057 13.135 13.025 12.837 12.663 12.3 11.798
8.165 8.165 8.217 8.275 8.325 8.385 8.452 8.545 8.77 9.033 9.102 8.997 9.21 9.627 10.283 10.663 10.055 9.432 9.265 9.36 9.525 9.962 10.512 11.195 11.767 11.77 11.895 12.365 13.078 13.632 13.972 13.695 13.267 12.955 12.905 12.872 12.965 13.148 13.09 13.218 13.788 14.105 13.852 13.99 14.48 14.958 14.69 14.748 15.167 15.88 16.785 17.745 18.69 19.448 19.56 18.53 17.642 16.875 15.835 15.247 15.01 14.715 14.208 14.145 14.012 14.125 14.21 14.585 15.05 15.462 15.887 16.243 16.562 17.183 17.757 18.237 18.72 19.052 19.125 19.25 18.165 18.108 17.627 16.785 15.33 14.465 13.73 13.63 13.495 13.148 12.637 12.455 12.46 12.42 12.77 12.69 11.435 11.048 10.66 10.76 10.882 10.795 10.485 10.427 10.205 10.1 10.148 10.283 10.608 10.62 10.302 10.17 9.967 10.062 10.315 10.23 10.06 9.86 9.765 9.648 9.718 9.685 9.625 9.585 9.472 9.403 9.46 9.477 9.39 9.42 9.448 9.41 9.337 9.24 9.22 9.292 9.302 9.375 9.39 9.385 9.528 9.882 10.285 10.148 9.823 9.755 9.7 9.685 9.675 9.827 9.96 9.983 9.85 9.868 10.087 10.212 10.425 10.445 10.587 10.97 11.663 12.23 12.288 12.342 12.42 12.542 12.68 12.67 12.722 12.778 12.783 12.78 12.62 12.448 12.392 12.528 12.665 12.765 12.635 12.703 12.705 12.665 12.757 13.07 13.302 13.642 13.885 14.118 14.7 15.47 16.667 16.868 17.295 17.673 18.095 18.743 19.722 21.192 22.948 24.423 25.595 26.443 27.028 27.288 27.185 26.795 26.712 26.96 27.23 27.755 28.472 27.805 27.493 27.323 27.153 27.478 27.98 28.05 27.658 26.85 26.49 26.632 26.677 26.397 25.765 25.165 24.585 24.472 24.625 24.767 24.757 24.577 24.375 24.175 23.788 23.935 23.717 23.485 23.625 23.81 24.05 24.34 24.292 24.585 24.145 22.855 22.29 21.753 21.368 20.955 20.7 20.368 19.695 19.17 18.89 18.667 18.235 17.575 17.025 16.39 15.89 15.378 15.002 15.1 14.49 13.915 13.618 13.615 12.495 12.273 12.47 12.408 12.288 12.003 11.75 11.56 11.435 11.298 11.225 11.2 11.097 10.972 10.932 10.907 10.807 10.743 10.642 10.535 10.462 10.37 10.288 10.225 10.188 10.155 10.16 10.045 9.922 9.9 10.02 10.235 10.062 10.03 9.98 10 10.01 9.997 10.017 10.048 10.045 10.035 9.975 9.955 10.02 9.99 10.005 9.97 9.96 9.94 9.962 9.925 9.887 9.885 9.898 9.87 9.855 9.825 9.823 9.802 9.48 9.323 10.085 9.885 9.878 9.882 9.868 9.837 9.845 9.845 9.878 9.89 9.88 9.845 9.852 9.85 9.847 9.847 9.872 9.903 9.855 9.82 9.663 9.632 9.863 9.95 9.86 9.815 9.807 9.797 9.833 9.845 9.79 9.773 9.875 9.895 9.917 9.927 9.977 9.962 10.028 10.015 10.017 10.343 10.27 10.222 10.28 10.358 10.3 10.255 10.235 10.042 10.048 10.06 10.11 10.12 10.097 10.13 10.155 10.092 10.048 10.05 10.04 9.985 10.012 10.052 10.092 10.11 10.12 10.115 10.102 10.108 10.13 10.185 10.345 10.458 10.457 10.355 10.233 10.16 10.23 10.328 10.555 11.365 11.945 11.46 10.693 10.517 10.538 10.555 10.568 10.56 10.485 10.427 10.415 10.415 10.415 10.403 10.328 10.188 10.048 9.983 9.98 9.97 9.995 9.98 10.015 10.08 10.095 10.165 10.302 10.628 11.385 12.358 13.415 13.997 13.845 13.532 13.217 12.773 12.542 12.792 12.985 13.185 13.21 12.83 12.733 13.028 13.205 13.41 13.22 12.885 12.51 12.193 11.837
8.16 8.182 8.235 8.253 8.315 8.4 8.455 8.533 8.568 8.62 8.755 8.935 9.247 9.865 10.61 11.102 10.6 10.262 9.825 9.583 9.573 9.935 10.59 11.12 11.592 12.045 12.467 13.033 13.792 13.75 13.6 13.127 12.653 12.703 12.698 12.637 12.67 12.925 13.153 13.485 14.005 14.273 14.512 14.64 14.82 15.175 15.26 15.347 14.985 15.243 16.085 16.763 17.997 18.958 19.055 18.927 18.3 17.695 16.932 16.215 15.635 15.25 14.89 14.76 14.582 14.512 14.672 14.99 15.408 15.92 16.283 16.715 17.095 17.377 17.858 18.405 18.847 19.177 19.07 18.362 17.753 17.315 16.843 16.36 15.227 14.265 13.727 13.25 13.087 12.927 12.85 13.255 13.45 13.49 13.047 12.15 11.1 10.847 10.715 10.922 11.387 11.222 10.927 11.195 10.538 10.03 9.868 9.852 10.05 10.205 10.15 9.945 9.932 10.125 10.18 10.032 9.847 9.72 9.62 9.587 9.655 9.757 9.8 9.658 9.515 9.395 9.363 9.387 9.422 9.45 9.495 9.443 9.32 9.185 9.217 9.285 9.315 9.382 9.395 9.435 9.665 10.1 10.395 10.095 9.812 9.71 9.693 9.677 9.695 9.81 9.968 10.14 10.07 10.092 10.497 10.665 10.818 10.952 10.997 11.425 12.08 12.275 12.18 12.238 12.32 12.262 12.36 12.423 12.458 12.52 12.605 12.66 12.512 12.382 12.302 12.505 12.622 12.702 12.677 12.68 12.565 12.54 12.637 12.86 13.108 13.36 13.722 13.938 14.67 15.78 16.442 16.565 17.045 17.415 17.993 18.83 19.903 21.5 23.237 24.21 25.4 26.11 26.655 27.28 27.562 27.452 27.185 27.215 27.315 27.827 28.325 27.72 27.562 27.63 27.517 27.4 27.77 28.017 28.11 27.593 27.257 27.228 27.235 27.005 26.602 26.013 25.235 25.055 24.987 24.763 24.82 24.59 23.85 23.667 23.698 23.807 23.608 23.49 23.458 23.685 24.09 24.312 24.557 24.592 24.015 23.1 22.245 21.642 20.93 20.363 19.737 19.085 18.59 18.14 18.052 17.85 17.46 17.06 16.612 16.315 15.898 15.04 14.85 14.542 13.948 13.738 13.52 12.695 12.305 12.36 12.475 12.407 12.24 11.977 11.757 11.597 11.415 11.25 11.22 11.128 11.057 10.977 10.878 10.868 10.825 10.738 10.637 10.54 10.427 10.37 10.32 10.257 10.18 10.158 10.11 9.975 9.923 9.945 10.153 10.15 10.055 10.028 9.993 9.99 9.972 9.955 10.003 10.035 10.017 10.02 10.01 9.95 9.918 9.965 9.985 9.96 9.96 9.948 9.948 9.927 9.895 9.885 9.88 9.87 9.858 9.828 9.823 9.83 9.66 9.148 9.642 9.903 9.88 9.888 9.865 9.798 9.795 9.783 9.797 9.837 9.872 9.84 9.835 9.855 9.868 9.86 9.888 9.887 9.833 9.82 9.715 9.605 9.745 9.958 9.935 9.847 9.835 9.858 9.9 9.85 9.805 9.767 9.885 9.917 9.908 9.948 10.048 10.092 10.078 10.085 10.062 10.155 10.175 10.18 10.28 10.29 10.31 10.318 10.542 10.403 10.155 10.122 10.155 10.158 10.132 10.13 10.155 10.118 10.083 10.08 10.105 10.118 10.128 10.163 10.185 10.188 10.17 10.14 10.122 10.13 10.16 10.182 10.24 10.295 10.295 10.24 10.075 9.87 10.048 10.315 10.498 11.137 11.743 11.233 10.62 10.52 10.51 10.525 10.538 10.55 10.503 10.415 10.392 10.39 10.403 10.398 10.35 10.222 10.077 10.023 10.02 10.038 10.055 10.055 10.118 10.227 10.335 10.41 10.642 11.38 12.38 13.557 13.92 14.03 14.09 13.61 13.077 12.762 12.86 13.298 13.533 14.012 14.04 13.575 13.2 13.285 13.472 13.552 13.333 12.903 12.59 12.267 12.06
8.188 8.16 8.238 8.283 8.375 8.448 8.48 8.503 8.552 8.573 8.677 8.892 9.38 9.898 10.578 11.345 10.87 10.37 9.903 9.422 9.315 9.675 10.585 11.205 11.61 12.137 12.615 13.092 13.325 13.125 12.84 12.58 12.255 12.27 12.307 12.42 12.615 12.93 13.222 13.72 14.15 14.533 14.743 14.828 15.38 15.715 15.665 15.347 14.773 14.597 15.113 15.847 17.195 18.16 18.183 17.888 18.017 18.002 17.41 16.757 16.045 15.693 15.535 15.398 15.61 15.363 15.408 15.802 16.375 16.688 17.108 17.362 17.68 17.89 18.213 18.588 18.96 19.532 19.19 18.065 17.295 16.39 15.882 15.505 15.04 14.637 14.198 13.642 13.413 13.302 13.227 13.985 14.142 14.267 12.852 11.757 10.903 10.885 10.847 10.975 11.37 11.87 11.395 11.252 10.608 10.312 10.235 10.227 10.108 9.99 9.903 9.812 9.913 10.108 10.048 9.835 9.722 9.685 9.597 9.577 9.747 10.142 9.825 9.53 9.6 9.675 9.51 9.448 9.45 9.468 9.497 9.45 9.307 9.238 9.24 9.29 9.345 9.388 9.417 9.497 9.837 10.3 10.267 9.95 9.783 9.705 9.675 9.658 9.703 9.788 9.958 10.112 10.273 10.31 10.75 10.863 11.153 11.202 11.37 11.745 12.212 12.22 11.917 11.905 11.858 11.79 11.98 12.2 12.312 12.475 12.587 12.653 12.72 12.497 12.458 12.435 12.477 12.483 12.515 12.465 12.422 12.475 12.605 12.715 12.943 13.255 13.472 13.825 14.47 15.503 15.958 16.372 16.783 17.195 17.84 18.843 19.915 21.188 22.237 23.327 24.44 25.46 26.257 26.945 27.333 27.695 27.75 27.655 27.69 27.798 27.685 27.622 27.443 27.845 27.765 27.467 28.157 28.253 28.385 28.075 27.74 27.333 27.173 27.23 27.095 26.865 25.76 25.22 24.735 24.193 24.327 24.222 23.74 23.717 23.605 23.7 23.455 23.423 23.403 23.5 23.74 24.095 24.355 24.16 23.54 23.175 22.577 21.785 21.298 20.575 19.45 18.347 17.845 17.587 17.467 17.263 16.54 16.535 16.065 15.693 15.14 14.655 14.695 14.48 13.975 13.56 13.177 12.698 12.38 12.443 12.413 12.238 12.1 11.898 11.76 11.595 11.4 11.167 11.102 11.075 11.032 10.967 10.93 10.91 10.843 10.773 10.672 10.535 10.435 10.382 10.325 10.253 10.18 10.167 10.057 9.945 9.927 10.023 10.2 10.015 10.023 10.02 10.03 9.962 9.938 9.922 9.97 10.015 9.983 9.967 9.993 9.967 9.92 9.875 9.925 9.935 9.905 9.913 9.91 9.932 9.913 9.907 9.865 9.858 9.85 9.855 9.835 9.825 9.795 9.352 9.097 9.843 9.872 9.878 9.873 9.83 9.833 9.83 9.812 9.798 9.812 9.83 9.827 9.845 9.85 9.863 9.887 9.865 9.825 9.815 9.773 9.59 9.632 9.92 9.945 9.86 9.865 9.858 9.892 9.927 9.818 9.788 9.887 9.94 10.01 10.16 10.297 10.3 10.235 10.19 10.083 10.155 10.148 10.2 10.238 10.33 10.497 10.53 10.592 10.44 10.3 10.217 10.198 10.222 10.165 10.132 10.142 10.153 10.142 10.153 10.182 10.205 10.247 10.267 10.3 10.29 10.237 10.195 10.177 10.18 10.19 10.192 10.195 10.215 10.24 10.185 9.948 9.727 9.845 10.31 10.55 10.953 11.727 11.477 10.75 10.595 10.535 10.517 10.52 10.532 10.483 10.408 10.395 10.395 10.42 10.427 10.378 10.27 10.15 10.092 10.115 10.105 10.085 10.11 10.27 10.665 10.9 11.052 11.48 12.28 13.163 13.845 14.193 14.445 14.255 13.57 13.075 13.005 13.448 14.03 14.608 14.755 14.887 14.385 14 13.812 13.998 13.858 13.595 13.398 13.028 12.658 12.46
8.163 8.19 8.247 8.3 8.403 8.502 8.58 8.752 9.065 8.967 8.878 8.927 9.392 10.005 10.597 10.59 9.93 9.665 9.735 9.267 9.188 9.932 10.82 12.29 12.733 12.993 13.343 13.387 13.315 12.905 12.495 12.085 11.868 11.61 11.717 11.743 11.95 12.195 12.66 13.085 13.47 13.783 14.347 14.613 15.175 15.682 15.568 15.262 14.642 14.17 14.54 15.012 16.16 17.175 17.378 17.275 17.638 17.965 17.853 17.4 16.952 16.81 16.835 16.505 16.58 16.517 16.52 16.865 17.087 17.43 17.94 18.185 18.125 18.15 18.505 18.93 19.142 19.523 18.7 18.295 17.923 16.908 16.148 15.495 15.283 14.923 14.427 14.182 13.892 13.767 13.61 13.818 13.98 14.105 12.927 11.52 10.97 11.003 11.185 11.497 11.587 11.877 11.823 11.325 11.023 10.562 10.472 10.79 10.565 9.818 9.735 9.84 9.983 10.025 9.878 9.765 9.715 9.673 9.547 9.505 9.695 10.042 9.755 9.525 9.845 10.118 9.94 9.675 9.483 9.458 9.442 9.378 9.297 9.245 9.257 9.328 9.387 9.41 9.403 9.538 9.76 10.173 10.208 9.917 9.715 9.755 9.72 9.688 9.757 9.795 9.865 10.04 10.208 10.472 10.73 10.945 11.125 11.118 11.358 11.67 12.078 12.203 11.785 11.608 11.542 11.63 11.773 12 12.23 12.307 12.542 12.587 12.757 12.775 12.698 12.648 12.53 12.417 12.387 12.387 12.378 12.38 12.517 12.668 12.892 13.102 13.403 13.727 14.365 15.087 15.562 16.015 16.51 17.147 17.612 18.655 19.64 20.568 21.612 22.623 23.535 24.62 25.583 26.3 26.88 27.29 27.605 27.66 27.9 27.997 27.63 27.333 27.118 27.375 27.373 27.3 27.595 27.917 28.163 28.425 27.917 27.308 27.118 27 27.11 27.183 25.993 24.942 24.423 24.292 23.95 24.193 24.17 23.892 23.53 23.51 23.425 23.302 23.243 23.228 23.275 23.27 23.475 23.452 23.04 22.728 22.403 21.683 21.075 20.343 19.275 18.31 17.778 17.18 16.833 16.445 16.1 16.03 15.44 15.432 14.82 14.453 14.645 14.558 13.865 13.462 13.085 12.55 12.368 12.46 12.267 11.948 11.887 11.88 11.72 11.523 11.337 11.158 11.085 11.028 10.948 10.898 10.89 10.847 10.773 10.688 10.628 10.542 10.413 10.355 10.34 10.253 10.175 10.102 10.007 9.948 9.97 10.15 10.083 10.013 10.003 10.015 9.988 9.948 9.915 9.9 9.915 9.925 9.925 9.95 9.932 9.932 9.935 9.92 9.87 9.892 9.9 9.89 9.88 9.89 9.882 9.877 9.85 9.847 9.847 9.83 9.823 9.818 9.833 9.54 8.965 9.792 9.882 9.88 9.878 9.87 9.85 9.852 9.847 9.823 9.8 9.81 9.812 9.798 9.852 9.873 9.875 9.87 9.847 9.83 9.827 9.618 9.557 9.882 9.975 9.878 9.852 9.87 9.923 9.94 9.78 9.82 9.93 10.06 10.215 10.312 10.497 10.467 10.432 10.342 10.222 10.227 10.3 10.26 10.227 10.345 10.585 10.642 10.535 10.435 10.355 10.33 10.267 10.26 10.217 10.177 10.155 10.205 10.233 10.255 10.27 10.302 10.378 10.38 10.382 10.38 10.333 10.283 10.27 10.247 10.247 10.227 10.215 10.25 10.285 10.2 9.908 9.715 9.83 10.408 10.748 10.835 11.328 11.47 11.2 10.727 10.62 10.56 10.533 10.53 10.477 10.425 10.41 10.413 10.445 10.523 10.462 10.337 10.253 10.208 10.202 10.207 10.245 10.347 10.688 11.202 11.472 11.792 12.312 12.333 12.583 13.267 13.812 14.265 14.085 13.568 13.325 13.547 14.25 14.913 15.14 15.17 14.84 14.32 13.805 13.693 13.818 14.23 14.29 13.985 13.355 13.07 12.903
8.202 8.253 8.265 8.347 8.45 8.552 8.562 8.753 9.267 9.12 9.01 9.215 9.512 10.078 10.248 9.645 9.24 9.29 9.305 9.358 9.915 10.55 11.217 12.645 13.773 14.115 14.227 14.11 13.765 13.047 12.39 12 11.665 11.525 11.385 11.385 11.523 11.79 12.26 12.98 13.36 13.415 13.557 14.135 14.667 15.193 15.39 15.062 14.488 13.993 14.21 14.842 15.46 16.177 16.802 17.65 18.195 18.22 17.788 17.87 18.067 17.825 17.522 17.375 17.235 17.583 17.833 17.888 17.843 18.033 18.485 18.743 18.705 18.538 18.567 18.975 19.075 19.228 18.733 18.43 18.43 17.533 17.06 15.783 15.257 14.93 14.835 15.095 14.653 14.467 13.845 13.4 13.57 13.372 12.305 11.448 10.99 11.012 11.438 11.802 12.017 11.932 12.092 12 11.73 11.01 10.898 11.222 10.717 9.77 9.635 9.92 10.033 9.882 9.755 9.76 9.715 9.57 9.503 9.475 9.493 9.608 9.693 9.743 10.145 10.45 10.462 10.085 9.67 9.448 9.465 9.368 9.305 9.29 9.297 9.347 9.4 9.455 9.443 9.54 9.705 9.923 9.983 9.882 9.765 9.74 9.733 9.73 9.743 9.79 9.86 9.925 10.113 10.613 10.788 11.028 11.185 11.167 11.735 12.19 11.977 11.72 11.467 11.413 11.507 11.63 11.762 11.865 11.988 12.17 12.465 12.497 12.47 12.448 12.55 12.507 12.467 12.247 12.217 12.212 12.35 12.42 12.462 12.585 12.812 13.005 13.24 13.568 14.045 14.782 14.98 15.405 15.833 16.403 17.055 18.167 19.355 20.267 21.182 22.155 22.965 23.945 24.663 25.305 25.99 26.368 26.67 26.923 27.355 27.675 27.608 27.045 26.882 27.41 26.997 26.39 26.48 26.95 27.382 27.39 27.642 27.48 27.13 26.933 27.017 27.183 26.587 25.218 25.142 25.163 24.283 24.307 24.433 23.925 23.495 23.295 23.225 23.155 23.08 23.038 23.163 23.013 23.125 23.015 22.698 22.183 21.827 21.298 21.017 20.235 19.288 18.308 17.815 17.025 16.452 16.007 15.968 15.745 15.467 15.48 15.093 14.278 14.128 14 13.525 13.175 12.812 12.457 12.343 12.41 12.215 11.99 11.993 11.96 11.788 11.615 11.403 11.255 11.115 11.077 10.965 10.878 10.84 10.81 10.747 10.67 10.552 10.505 10.42 10.345 10.257 10.21 10.19 10.08 9.975 9.948 10.068 10.195 10.035 10.007 9.972 9.995 9.962 9.94 9.882 9.915 9.925 9.92 9.93 9.932 9.938 9.943 9.923 9.927 9.898 9.823 9.842 9.863 9.858 9.855 9.827 9.82 9.818 9.818 9.82 9.818 9.807 9.807 9.823 9.68 9.08 9.453 9.905 9.87 9.872 9.84 9.845 9.852 9.858 9.833 9.827 9.81 9.815 9.77 9.79 9.828 9.887 9.905 9.898 9.88 9.868 9.655 9.515 9.863 10.015 9.892 9.86 9.892 9.9 9.962 9.79 9.863 9.993 10.083 10.188 10.35 10.525 10.545 10.597 10.51 10.448 10.425 10.438 10.438 10.347 10.46 10.608 10.665 10.51 10.5 10.505 10.413 10.352 10.318 10.323 10.26 10.23 10.26 10.307 10.36 10.413 10.475 10.548 10.525 10.503 10.467 10.407 10.35 10.325 10.345 10.358 10.302 10.278 10.305 10.273 10.035 9.802 9.738 10.01 10.727 11.005 10.858 10.975 11.445 11.78 11.332 10.898 10.605 10.568 10.54 10.49 10.438 10.42 10.417 10.523 10.74 10.88 10.788 10.67 10.6 10.56 10.75 10.863 11.163 11.535 11.583 11.86 12.092 12.068 11.96 12.033 12.448 12.73 13.17 13.807 13.497 13.443 13.952 14.565 15.077 14.965 14.493 14.227 13.812 13.43 13.483 13.42 13.845 14.703 14.74 13.91 13.425 13.248
8.235 8.222 8.265 8.4 8.615 8.767 8.67 8.702 8.945 9.075 8.94 8.948 9.247 9.757 9.585 9.09 8.82 9.02 9.3 9.57 10.073 10.475 11.325 12.75 13.71 14.418 14.51 14.083 13.712 13.095 12.658 12.435 11.783 11.6 11.358 11.37 11.48 11.743 12.182 12.727 13.307 13.387 13.462 13.773 14.575 14.977 15.023 14.625 14.295 14.455 14.602 14.913 15.247 15.92 16.577 17.34 18.188 18.165 17.823 18.003 18.407 18.153 17.795 17.86 17.522 17.715 18.378 18.833 18.95 18.952 18.983 19.163 19.095 18.778 18.645 18.467 18.253 18.233 18.362 18.138 18.075 17.345 16.403 15.755 15.502 15.165 15.19 15.423 14.913 14.108 13.195 13.09 13.023 13.095 12.047 11.37 11.025 11.108 11.382 11.922 12.323 12.398 12.33 11.855 11.56 10.915 10.903 11.023 10.495 9.952 9.618 9.872 9.983 9.825 9.778 9.702 9.648 9.565 9.5 9.443 9.425 9.52 9.76 10.365 10.632 10.87 10.673 10.375 9.827 9.545 9.432 9.368 9.3 9.325 9.35 9.382 9.415 9.517 9.498 9.565 9.705 9.823 9.863 9.868 9.807 9.747 9.757 9.738 9.745 9.81 9.825 9.797 10.01 10.463 10.762 11.21 11.47 11.423 11.483 11.602 11.525 11.358 11.288 11.29 11.417 11.557 11.685 11.833 11.798 11.863 11.955 12.108 12.073 12.21 12.198 12.2 12.253 12.09 12.11 12.135 12.32 12.312 12.387 12.555 12.717 12.895 13.18 13.47 13.84 14.318 14.597 14.943 15.288 15.843 16.67 17.69 18.943 20.05 20.88 21.645 22.463 23.155 23.83 24.487 25.075 25.45 25.737 26.205 26.785 27.263 27.538 26.798 26.33 26.415 26.1 25.392 25.483 25.587 26.032 26.028 26.587 27.57 27.595 27.47 26.837 26.847 26.62 26.12 25.7 25.515 24.9 24.71 24.57 24.167 23.795 23.573 23.423 23.333 23.105 22.823 22.83 22.967 22.88 22.627 22.405 22.285 21.407 20.932 20.962 20.405 19.32 18.302 17.462 16.64 16.862 16.32 16.017 15.887 15.69 15.333 15.03 14.275 13.943 13.695 13.792 14.122 13.1 12.55 12.46 12.535 12.363 12.2 12.18 12.175 12.125 11.927 11.67 11.337 11.15 11.083 10.995 10.943 10.892 10.843 10.747 10.67 10.533 10.458 10.378 10.285 10.19 10.182 10.15 10.038 9.977 10.005 10.198 10.08 10.048 10.023 10.015 9.965 9.925 9.923 9.892 9.925 9.92 9.927 9.955 9.932 9.913 9.925 9.93 9.925 9.895 9.89 9.798 9.802 9.86 9.87 9.833 9.81 9.798 9.79 9.807 9.812 9.812 9.81 9.8 9.775 9.38 9.042 9.855 9.858 9.847 9.83 9.818 9.837 9.845 9.855 9.833 9.82 9.845 9.802 9.765 9.773 9.797 9.88 9.915 9.917 9.898 9.66 9.5 9.827 10.01 9.913 9.903 9.932 9.92 9.903 9.823 9.948 10.015 10.155 10.365 10.505 10.635 10.712 10.733 10.675 10.637 10.818 10.708 10.653 10.753 10.745 10.727 10.695 10.642 10.573 10.58 10.592 10.445 10.378 10.385 10.335 10.327 10.368 10.378 10.438 10.513 10.612 10.693 10.68 10.63 10.565 10.507 10.438 10.398 10.382 10.4 10.39 10.352 10.345 10.182 9.73 9.688 9.785 10.31 10.99 11.172 10.892 10.765 11.145 11.613 11.622 11.165 10.65 10.613 10.573 10.575 10.56 10.645 10.9 11.095 11.048 11.127 11.315 11.538 11.665 11.75 12.02 12.137 11.993 12.07 12.118 12.165 12.425 12.188 11.515 11.712 11.988 12.265 12.818 13.528 13.275 13.545 13.962 14.425 14.622 14.248 13.722 13.318 13.017 12.925 13.04 13.22 13.51 14.082 14.62 14.363 13.91 13.66
8.215 8.22 8.302 8.51 8.837 9.083 8.885 8.783 8.798 8.898 8.76 8.795 8.795 8.818 8.985 8.975 9.035 9.185 9.465 9.693 10.05 10.52 11.562 12.96 13.575 14.085 14.247 13.66 13.475 13.227 12.528 12.468 12.285 11.828 11.55 11.583 11.455 11.637 11.955 12.335 12.765 12.985 13.188 13.717 14.365 15 14.61 14.378 14.355 14.685 14.852 15.05 15.115 15.343 15.925 16.842 17.603 17.767 17.69 17.657 17.975 17.938 17.983 17.858 17.692 17.935 18.2 18.93 19.7 19.355 19.058 19.175 18.865 18.968 18.975 18.413 17.72 17.513 17.615 17.53 17.39 17.372 16.562 16.145 15.84 15.56 15.565 15.532 15.073 13.802 12.815 12.658 12.778 13.02 12.162 11.497 11.142 11.21 11.325 11.935 12.233 12.375 12.085 11.805 11.42 10.685 10.525 10.67 10.48 10.095 9.7 9.828 10.025 9.898 9.78 9.63 9.58 9.535 9.455 9.475 9.465 9.435 9.863 10.358 10.743 11.03 10.642 10.225 9.96 9.63 9.455 9.355 9.328 9.358 9.395 9.443 9.46 9.525 9.502 9.658 9.852 10.023 10.097 9.93 9.812 9.757 9.753 9.747 9.725 9.792 9.71 9.705 9.997 10.347 10.81 11.278 11.458 11.525 11.533 11.475 11.307 11.282 11.333 11.288 11.35 11.465 11.595 11.717 11.63 11.663 11.773 11.945 11.878 11.922 11.932 11.975 11.995 11.935 11.967 12.025 12.09 12.21 12.36 12.477 12.613 12.797 13.087 13.408 13.865 14.273 14.623 14.837 15.097 15.657 16.423 17.43 18.365 19.283 20.013 20.81 21.405 22.347 23.17 23.853 24.458 24.85 25.397 25.923 26.45 27.06 27.147 26.7 26.035 25.455 24.995 24.78 24.96 24.96 25.033 25.05 25.568 26.767 27.657 27.61 26.815 26.47 26.397 26.425 26.235 25.78 25.16 24.6 24.495 24.278 24.06 24.122 23.653 23.398 23.108 22.575 22.517 22.71 22.702 22.49 22.305 21.985 21.327 20.587 20.5 20.208 19.388 18.04 17.688 17.093 16.865 16.273 15.73 15.59 15.5 15.113 14.57 14.255 14 13.837 14.952 16.597 15.21 12.828 12.727 12.613 12.382 12.205 12.14 12.195 12.32 12.227 11.993 11.45 11.19 11.08 10.993 10.94 10.903 10.845 10.663 10.507 10.368 10.328 10.27 10.23 10.205 10.235 10.108 9.972 9.967 10.097 10.193 10.097 10.108 10.05 10.015 9.967 9.932 9.915 9.892 9.903 9.917 9.943 9.945 9.917 9.88 9.913 9.932 9.938 9.913 9.907 9.84 9.78 9.778 9.845 9.855 9.84 9.805 9.802 9.785 9.802 9.79 9.792 9.8 9.82 9.58 8.887 9.717 9.865 9.83 9.833 9.82 9.82 9.837 9.86 9.852 9.835 9.84 9.845 9.795 9.775 9.78 9.833 9.923 9.948 9.9 9.682 9.602 9.878 10.015 9.93 9.932 9.97 9.99 9.917 9.882 10.01 10.097 10.445 10.733 10.783 10.712 10.765 10.837 10.763 10.807 10.915 10.903 10.898 10.913 10.95 10.753 10.658 10.725 10.655 10.802 10.657 10.517 10.432 10.432 10.422 10.432 10.455 10.443 10.467 10.52 10.648 10.79 10.78 10.775 10.712 10.658 10.59 10.505 10.472 10.465 10.448 10.435 10.425 10.227 9.4 9.52 9.913 10.382 10.965 11.15 10.837 10.615 10.745 11.115 11.247 10.977 10.712 10.672 10.7 10.825 10.845 10.972 11.202 11.108 10.93 10.985 11.153 11.545 12.012 12.267 12.245 12.302 12.32 12.425 12.52 12.575 12.72 12.73 11.795 11.627 11.797 12.113 12.82 13.003 13.017 13.77 14.32 14.347 13.94 13.377 12.858 12.295 12.057 11.972 12.24 12.53 12.917 13.245 13.773 14.375 14.327 14.035
8.288 8.275 8.465 9.173 9.227 8.97 8.845 8.738 8.682 8.613 8.667 8.688 8.717 8.812 8.998 9.208 9.495 9.445 9.797 9.927 10.185 10.97 12.077 13.267 13.688 14.167 13.622 13.245 12.863 12.548 12.248 12.31 12.275 12.032 11.648 11.427 11.46 11.465 11.743 12.028 12.285 12.49 13.012 13.76 14.28 14.688 14.695 14.672 14.632 14.833 14.93 14.912 14.965 15.09 15.42 16.23 16.843 17.05 16.868 16.798 17.273 17.6 17.92 18.035 18.065 17.927 18.247 18.6 19.215 19.052 18.573 18.528 18.475 18.74 18.153 17.818 17.07 16.778 16.977 17.13 17.185 17.468 16.95 16.722 16.343 16.245 15.903 15.573 15.252 14.19 13 12.868 12.887 13.15 12.562 11.903 11.71 11.29 11.115 11.4 11.667 11.658 11.71 11.855 11.375 10.562 10.503 10.585 10.347 10.078 9.735 9.767 10.043 9.988 9.775 9.65 9.613 9.51 9.44 9.443 9.47 9.448 9.565 10.158 10.72 10.965 10.583 10.413 9.96 9.64 9.46 9.347 9.33 9.328 9.41 9.448 9.46 9.49 9.555 9.762 10.04 10.218 10.132 9.873 9.77 9.762 9.75 9.77 9.78 9.825 9.69 9.665 9.923 10.21 10.762 11.057 11.225 11.47 11.748 11.78 11.552 11.41 11.36 11.35 11.363 11.453 11.513 11.627 11.627 11.695 11.675 11.79 11.88 11.852 11.953 11.93 11.932 11.943 12.01 12.077 12.113 12.158 12.27 12.443 12.578 12.753 12.935 13.347 14.13 14.46 14.735 14.952 15.135 15.575 16.188 17.02 17.83 18.642 19.333 19.987 20.81 21.83 22.87 23.66 24.462 24.985 25.515 25.97 26.535 26.98 26.85 26.53 26.022 25.478 24.878 24.49 24.528 24.53 24.595 24.635 24.725 25.507 26.362 26.875 26.948 26.673 26.585 26.415 26.333 25.763 25.155 24.763 24.415 24.09 23.987 24.138 23.93 23.622 23.235 22.392 22.068 22.28 22.47 22.31 21.833 21.61 21.057 20.76 20.585 20.205 19.538 18.355 17.88 17.423 17.065 16.202 15.608 15.225 15.057 14.807 14.905 14.757 14.347 14.235 14.688 16.167 14.882 12.92 12.807 12.585 12.25 12.2 12.175 12.185 12.278 12.25 11.958 11.53 11.205 11.073 10.98 10.865 10.755 10.653 10.528 10.4 10.305 10.29 10.257 10.243 10.21 10.177 10.042 9.98 10.035 10.222 10.198 10.145 10.125 10.052 10.015 9.965 9.935 9.88 9.88 9.915 9.95 9.935 9.908 9.913 9.91 9.913 9.927 9.917 9.913 9.863 9.83 9.812 9.795 9.77 9.79 9.823 9.805 9.8 9.77 9.78 9.798 9.795 9.8 9.8 9.682 9.05 9.48 9.828 9.805 9.82 9.843 9.837 9.837 9.86 9.855 9.858 9.865 9.868 9.805 9.792 9.818 9.868 9.89 9.927 9.96 9.783 9.735 9.938 10.005 9.922 9.908 9.955 9.983 9.932 9.927 10.12 10.405 10.908 11.142 11.18 10.952 10.872 10.852 10.858 10.863 10.938 10.988 11.062 11.09 10.965 10.788 10.67 10.663 10.665 10.778 10.722 10.61 10.507 10.483 10.48 10.503 10.53 10.505 10.448 10.355 10.533 10.762 10.858 10.903 10.88 10.818 10.743 10.655 10.6 10.578 10.535 10.515 10.533 10.535 10.193 10.073 10.153 10.305 10.775 10.955 10.812 10.64 10.625 10.667 10.807 10.717 10.627 10.517 10.58 10.498 10.483 10.602 10.7 10.735 10.747 10.818 10.87 11.118 11.628 11.89 12.023 12.22 12.515 12.74 12.795 12.908 12.972 13.075 12.275 11.865 12.007 12.422 12.773 12.577 13.208 13.988 14.18 13.93 13.378 12.833 12.222 11.693 11.435 11.315 11.39 11.717 12.065 12.637 13.465 14.14 14.255 14.227
8.345 8.48 8.882 9.72 9.483 9.105 8.95 8.755 8.66 8.648 8.727 8.73 8.727 8.962 9.025 9.505 10.015 9.985 10.238 10.762 11.378 11.91 12.843 13.253 13.445 13.618 13.278 12.86 12.39 12.113 12.042 12.122 12.023 11.727 11.595 11.467 11.56 11.575 11.682 11.908 12.03 12.327 12.79 13.41 13.83 14.42 14.892 15.385 15.483 15.938 15.927 16.007 16.132 15.465 15.613 16.103 16.448 16.56 16.24 16.53 16.97 17.388 18.052 18.548 18.31 18.212 18.72 18.68 18.64 18.47 18.455 18.365 18.228 18 17.483 16.948 16.698 16.483 16.717 16.688 16.552 16.592 16.6 16.62 16.22 16.255 16.17 15.835 15.27 14.395 13.19 12.693 12.658 12.615 12.21 12.235 12.233 11.807 11.092 11.03 11.467 11.698 11.778 11.938 11.578 10.958 10.693 10.533 10.32 9.965 9.837 9.83 9.998 9.91 9.712 9.645 9.628 9.565 9.475 9.435 9.443 9.55 9.605 9.7 10.055 10.593 10.568 10.128 9.827 9.725 9.467 9.36 9.32 9.337 9.39 9.45 9.472 9.515 9.613 9.748 9.983 10.017 9.858 9.765 9.755 9.735 9.727 9.778 9.812 9.792 9.693 9.785 10.007 10.08 10.693 10.89 11.028 11.333 11.825 12.06 11.898 11.872 11.653 11.78 11.52 11.485 11.555 11.642 11.703 11.825 11.767 11.948 11.958 11.988 12.05 12.042 12.065 12.07 12.167 12.18 12.215 12.22 12.347 12.512 12.56 12.685 12.983 13.642 14.445 15.012 15.12 15.085 15.342 15.6 16.075 16.743 17.375 17.965 18.653 19.415 20.385 21.528 22.49 23.448 24.36 25.235 25.835 26.502 27.083 27.292 26.927 26.34 25.962 25.682 24.993 24.385 24.002 23.805 23.92 24.31 24.67 24.932 25.33 25.97 26.778 26.625 26.688 26.35 26.315 26.122 25.355 24.743 24.43 23.993 24 24.235 24.075 24.045 23.542 22.605 21.6 21.847 21.945 22.12 21.535 21.472 21.28 20.985 20.785 20.693 20.015 19.215 18.7 17.967 17.577 16.748 15.985 15.75 15.465 15.347 15.483 15.525 15 14.285 14.398 13.613 13.158 13.052 12.955 12.483 12.17 12.093 12.047 12.073 11.98 11.96 11.73 11.365 11.07 10.945 10.818 10.725 10.653 10.595 10.547 10.47 10.415 10.337 10.262 10.23 10.225 10.105 10.007 10.052 10.177 10.225 10.155 10.127 10.108 10.05 9.983 9.958 9.938 9.895 9.922 9.917 9.943 9.945 9.907 9.9 9.903 9.865 9.865 9.877 9.898 9.905 9.868 9.87 9.87 9.812 9.747 9.762 9.8 9.812 9.782 9.78 9.788 9.792 9.8 9.807 9.743 9.255 9.17 9.842 9.847 9.825 9.818 9.83 9.855 9.872 9.872 9.86 9.852 9.833 9.823 9.802 9.812 9.895 9.917 9.953 10 9.845 9.86 9.993 9.99 9.925 9.97 9.985 10 9.94 10.047 10.278 10.705 11.222 11.385 11.48 11.375 11.177 11.193 11.108 11.073 11.052 11.068 11.122 11.123 10.925 10.802 10.755 10.705 10.708 10.757 10.747 10.682 10.6 10.538 10.533 10.548 10.642 10.608 10.19 9.722 10.095 10.727 10.89 10.965 10.962 10.923 10.88 10.818 10.773 10.727 10.67 10.615 10.63 10.68 10.708 10.632 10.435 10.288 10.54 10.765 10.83 10.773 10.675 10.525 10.545 10.555 10.38 10.29 10.263 10.165 10.182 10.188 10.33 10.535 10.708 10.81 10.887 10.96 11.285 11.627 11.775 12.077 12.517 12.852 12.965 13.142 13.09 13.033 12.73 12.585 12.988 12.775 12.403 12.44 13.29 13.98 13.8 13.403 13.118 12.77 11.93 11.452 11.118 10.97 11.012 11.217 11.557 12.092 13.372 14.087 14.245 14.265
8.542 8.855 9.26 9.49 9.375 9.253 8.932 8.812 8.747 8.745 8.725 8.765 8.72 8.892 9.095 9.493 9.985 10.342 11.477 12.805 13.512 13.423 13.4 13.52 13.632 13.405 12.823 12.498 12.215 11.812 11.677 11.792 11.778 11.562 11.578 11.753 11.86 11.93 11.843 11.913 12.238 12.51 13.148 14.092 14.79 15.18 16.023 16.47 16.752 17.1 17.295 17.615 17.555 16.522 16.057 15.892 16.275 16.183 15.985 16.493 17.265 17.778 18.182 18.507 18.462 18.413 18.597 18.417 18.47 18.435 18.432 18.462 18.45 17.87 17.14 16.452 16.312 16.153 16.445 16.597 16.458 16.368 16.38 16.073 15.817 15.925 15.997 15.76 15.165 13.977 13.167 12.577 12.312 12.18 12.132 12.337 12.735 11.938 11.292 11.092 11.458 11.98 12.128 11.793 11.45 10.84 10.767 10.54 10.182 9.93 9.858 9.872 9.887 9.847 9.773 9.673 9.653 9.65 9.545 9.445 9.52 9.5 9.472 9.472 9.648 10.278 10.26 9.773 9.67 9.677 9.483 9.37 9.34 9.343 9.365 9.438 9.523 9.595 9.648 9.717 9.91 9.847 9.757 9.767 9.837 9.833 9.783 9.788 9.823 9.785 9.725 9.807 10.04 10.09 10.312 10.398 10.78 11.225 11.605 12.017 11.908 11.562 11.632 11.952 11.823 11.675 11.682 11.745 11.9 11.95 11.965 12.11 12.262 12.217 12.323 12.23 12.123 12.112 12.198 12.22 12.245 12.342 12.387 12.515 12.628 12.823 13.283 14.34 14.858 15.333 15.802 15.89 15.568 15.847 16.105 16.48 17.087 17.628 18.368 19.218 20.177 21.263 22.092 22.962 23.858 24.65 25.358 26.215 26.915 27.288 26.722 26.108 25.903 25.722 25.05 24.493 23.845 23.702 23.802 24.15 24.333 24.55 24.825 25.53 26.048 26.39 26.513 26.28 26.175 26.36 25.612 24.79 24.208 24.205 24.06 24.062 23.888 24.153 23.79 23.153 21.52 21.365 21.56 21.71 21.733 21.535 21.327 21.392 21.245 21.028 20.665 19.895 19.16 18.618 18.263 17.46 16.708 16.312 15.99 15.898 15.948 15.998 15.515 14.535 14.39 14.113 13.358 13.335 13.292 12.453 12.092 11.925 11.76 11.705 11.583 11.4 11.25 11.045 10.917 10.863 10.73 10.667 10.655 10.642 10.578 10.45 10.403 10.305 10.243 10.227 10.21 10.075 10.05 10.118 10.238 10.202 10.12 10.108 10.045 10.023 9.99 9.965 9.917 9.903 9.92 9.917 9.948 9.932 9.905 9.915 9.913 9.922 9.887 9.865 9.88 9.865 9.872 9.865 9.837 9.815 9.78 9.763 9.743 9.778 9.8 9.802 9.79 9.778 9.775 9.797 9.78 9.495 8.965 9.9 9.863 9.847 9.823 9.84 9.86 9.885 9.885 9.858 9.85 9.847 9.845 9.845 9.828 9.882 9.93 9.975 10.005 9.917 9.952 10.038 10 9.983 10.01 10.02 9.97 10.003 10.32 10.597 10.855 11.18 11.542 11.693 11.5 11.38 11.395 11.408 11.323 11.188 11.03 10.997 11.02 10.9 10.78 10.843 10.78 10.785 10.802 10.752 10.688 10.64 10.6 10.602 10.625 10.778 10.875 10.34 9.84 10.327 10.838 10.922 10.952 10.96 10.965 10.955 10.93 10.907 10.855 10.792 10.712 10.675 10.68 10.68 10.7 10.587 10.315 10.533 10.837 10.983 10.892 10.642 10.38 10.307 10.267 10.215 10.245 10.267 10.14 10.078 10.11 10.173 10.283 10.41 10.56 10.69 10.88 11.14 11.488 11.487 11.792 12.062 12.427 12.747 12.905 12.845 12.825 12.745 12.927 12.98 12.722 12.488 12.552 13.485 14.025 13.773 13.302 12.993 12.655 12 11.562 11.1 10.79 10.778 11.057 11.507 12.288 13.562 14.11 14.238 14.278
8.75 9.182 9.688 9.962 9.81 9.392 9.113 8.882 8.778 8.775 8.725 8.71 8.765 8.952 9.19 9.565 9.875 10.525 12.2 13.227 13.762 13.82 13.868 14.243 14.46 13.958 13.142 12.81 12.335 11.953 11.612 11.457 11.66 11.98 12.06 12.19 12.137 12.235 12.323 12.533 12.76 13.13 13.745 14.677 15.517 16.32 17.212 17.87 18.132 18.493 18.818 19.103 19.185 18.042 16.993 16.23 15.875 15.83 16.587 17.092 17.767 18.302 18.92 18.592 18.335 18.327 18.577 18.468 18.253 18.452 18.32 18.403 18.315 17.413 16.695 16.163 16 16.062 16.397 17.007 16.92 16.443 16.333 15.898 15.637 15.842 15.708 15.485 14.762 13.56 12.828 12.335 11.993 11.917 12.115 12.26 12.602 12.1 11.815 11.517 11.863 12.15 12.198 11.602 11.1 10.552 10.495 10.315 10.157 9.953 9.823 9.807 9.778 9.823 9.757 9.722 9.663 9.67 9.555 9.472 9.52 9.5 9.35 9.278 9.275 9.44 9.425 9.46 9.67 9.67 9.467 9.385 9.35 9.375 9.368 9.435 9.515 9.565 9.602 9.738 9.84 9.788 9.805 9.837 9.903 10.012 10.09 10.023 9.932 9.86 9.788 9.828 9.93 10.193 10.078 10.2 10.535 10.927 11.525 11.703 11.83 11.762 11.818 12.265 12.11 11.878 11.842 11.953 12.11 12.265 12.358 12.44 12.52 12.532 12.515 12.465 12.31 12.22 12.247 12.307 12.352 12.417 12.573 12.675 12.855 13.163 13.715 14.63 15.453 15.915 16.225 16.275 16.118 15.977 16.32 16.538 17.03 17.645 18.355 19.182 20.177 21.165 21.985 22.737 23.64 24.368 25.052 25.845 26.74 27.08 26.48 25.712 25.63 25.63 25.24 24.87 24.378 23.935 23.642 23.825 23.917 24.292 24.882 25.29 25.555 26 26.077 26.057 26.04 26.295 26.04 24.872 24.233 23.935 23.862 23.68 23.59 24.07 24.247 23.865 21.835 21.097 21.263 21.445 21.802 21.8 21.715 21.555 21.45 21.138 20.855 19.868 19.195 18.627 18.255 17.91 17.29 16.885 16.615 16.642 16.615 16.323 15.85 15.03 14.648 14.302 13.565 13.435 13.07 12.288 12.025 11.842 11.57 11.363 11.202 11.06 11.04 10.962 10.925 10.93 10.835 10.715 10.635 10.63 10.532 10.39 10.345 10.293 10.225 10.243 10.148 10.105 10.097 10.195 10.2 10.165 10.142 10.065 10.01 10.028 9.995 9.985 9.938 9.882 9.93 9.932 9.913 9.915 9.908 9.907 9.915 9.895 9.925 9.872 9.845 9.812 9.807 9.815 9.783 9.76 9.753 9.77 9.762 9.735 9.76 9.785 9.775 9.783 9.778 9.812 9.818 9.71 9.177 9.168 9.842 9.858 9.812 9.838 9.868 9.898 9.887 9.882 9.895 9.93 9.97 9.905 9.865 9.885 9.93 9.977 10 9.952 9.997 10.075 10.055 10.083 10.073 10.017 10.007 10.092 10.568 11.002 10.948 11.08 11.443 11.852 11.852 11.49 11.56 11.507 11.39 11.198 11.04 10.983 10.94 10.932 10.81 10.9 10.86 10.852 10.847 10.798 10.745 10.667 10.602 10.59 10.615 10.762 11.003 10.868 10.597 10.717 10.845 10.913 10.913 10.93 10.96 10.985 10.97 10.962 10.932 10.885 10.815 10.722 10.688 10.677 10.693 10.64 10.333 10.562 10.92 11.062 10.917 10.545 10.222 10.137 10.105 10.04 10.132 10.115 10.065 10.035 10.073 10.15 10.205 10.273 10.385 10.54 10.74 11.005 11.227 11.42 11.497 11.528 11.875 12.323 12.425 12.4 12.323 12.448 12.828 12.907 12.863 12.658 12.79 13.375 13.738 13.52 13.045 12.655 12.33 11.96 11.34 10.788 10.635 10.702 11.09 11.655 12.467 13.455 14.157 14.225 14.27
8.757 9.087 9.625 10.137 10.07 9.738 9.523 9.042 8.932 8.845 8.818 8.858 9.003 9.16 9.39 9.632 9.96 10.627 12.335 13.177 13.712 14.198 14.637 14.887 15.025 14.685 14.048 13.267 12.9 12.458 12.015 11.837 11.95 12.438 12.453 12.76 13.01 13.347 13.91 14.25 14.448 14.557 14.645 15.32 16.392 17.365 18.06 18.665 19.085 19.39 19.858 20.085 20.315 19.595 18.352 17.763 17.23 17.163 18.085 18.165 18.37 18.69 19.115 18.603 18.182 18.173 17.987 18.08 18.182 18.252 18.392 18.308 18.01 16.993 16.38 16.12 15.935 15.96 16.395 17.055 17.167 16.735 16.337 15.895 15.665 15.577 15.09 14.698 13.997 13.005 12.368 12.115 11.852 11.965 12.32 12.542 13.062 12.283 11.993 11.945 12.25 12.217 11.938 11.63 11.193 10.587 10.51 10.568 10.3 10.105 10.038 9.958 9.778 9.727 9.69 9.655 9.66 9.67 9.608 9.575 9.523 9.515 9.417 9.295 9.222 9.312 9.385 9.52 9.547 9.62 9.48 9.37 9.385 9.385 9.38 9.458 9.503 9.528 9.595 9.69 9.702 9.757 9.85 9.892 9.952 10.125 10.257 10.188 9.907 9.81 9.767 9.845 9.948 10.153 10.055 10.132 10.467 10.93 11.363 11.427 11.642 11.632 12.113 12.702 12.695 12.323 12.365 12.252 12.375 12.493 12.823 12.965 12.845 12.903 12.773 12.63 12.467 12.413 12.423 12.487 12.582 12.648 12.788 12.872 13.128 13.635 14.298 15.012 15.708 16.275 16.67 16.772 16.603 16.38 16.542 16.923 17.275 17.932 18.645 19.132 20.005 20.97 21.908 22.715 23.532 24.392 25.103 25.743 26.5 27.007 26.41 25.9 25.79 25.73 25.372 24.978 24.667 24.24 23.78 23.868 24.067 24.37 24.65 24.94 25.138 25.542 25.583 25.403 25.475 25.585 25.608 24.955 24.228 23.91 23.743 23.485 23.288 23.278 23.943 24.142 22.23 21.042 21.112 21.135 21.44 21.37 21.358 21.255 21.208 20.975 20.3 19.45 18.7 18.205 17.795 17.592 17.468 17.083 17.038 16.948 16.728 16.298 15.49 15.113 14.805 14.163 13.53 13.423 13.198 12.477 11.92 11.693 11.48 11.325 11.16 11.065 11.06 11.035 10.965 10.932 10.795 10.648 10.592 10.542 10.422 10.35 10.32 10.283 10.25 10.238 10.1 10.062 10.12 10.26 10.142 10.115 10.097 10.042 9.975 9.967 9.995 9.977 9.948 9.927 9.952 9.958 9.932 9.943 9.938 9.94 9.962 9.93 9.915 9.87 9.852 9.825 9.815 9.812 9.823 9.797 9.765 9.75 9.76 9.75 9.77 9.785 9.805 9.83 9.82 9.842 9.833 9.83 9.583 8.925 9.495 9.898 9.868 9.858 9.89 9.908 9.913 9.92 9.945 10.028 10.05 10.07 9.965 9.93 9.983 10.048 10.023 9.95 10.055 10.15 10.285 10.422 10.327 10.225 10.128 10.252 10.783 11.02 10.988 11.148 11.635 12.132 12.22 11.645 11.562 11.533 11.38 11.2 11.033 10.965 10.988 10.997 10.88 11.035 10.927 10.86 10.863 10.885 10.84 10.765 10.682 10.62 10.583 10.645 10.87 11.087 10.938 10.792 10.807 10.865 10.87 10.892 10.925 10.955 10.967 10.967 10.955 10.955 10.94 10.858 10.765 10.722 10.695 10.635 10.335 10.56 10.915 11.045 10.788 10.378 10.25 10.282 10.18 10.09 10.122 10.102 10.097 10.128 10.188 10.215 10.468 10.533 10.535 10.552 10.53 10.743 11.007 11.157 11.297 11.408 11.578 11.85 11.917 11.833 11.593 12.092 12.712 12.925 12.868 12.632 12.845 13.23 13.448 13.195 12.783 12.46 11.93 11.41 11.003 10.685 10.503 10.58 10.945 11.602 12.52 13.507 14.177 14.185 14.235
8.95 9.165 9.685 10.255 10.06 9.788 9.465 9.24 9.212 9.127 9.057 9.093 9.273 9.568 9.733 9.812 10.205 10.775 11.693 13.12 14.005 14.725 15.605 16.033 15.905 15.52 15.108 14.423 13.958 13.667 13.525 13.358 13.302 13.375 13.398 13.555 13.925 14.667 15.373 15.663 15.767 15.96 16.075 16.503 17.868 18.722 19.212 19.612 19.888 20.14 20.568 20.89 21.125 20.728 20.025 19.423 19.083 19.235 19.515 19.983 19.763 19.247 18.898 18.403 18.125 17.818 17.882 18.038 18.015 18.122 18.25 18.46 17.522 16.833 16.415 16.015 15.795 15.818 16.24 16.585 16.962 16.815 16.44 16.042 15.632 15.542 14.727 14.083 13.312 12.7 12.13 11.94 11.958 11.887 12.49 12.825 13.318 12.773 12.597 12.57 12.345 11.797 11.427 11.198 11.023 10.805 10.578 10.81 10.65 10.433 10.358 10.33 9.985 9.733 9.698 9.658 9.625 9.632 9.655 9.542 9.548 9.51 9.42 9.358 9.257 9.25 9.385 9.47 9.498 9.49 9.4 9.375 9.42 9.387 9.448 9.507 9.52 9.53 9.577 9.65 9.698 9.83 9.94 9.93 9.972 10.01 10.033 9.977 9.805 9.76 9.828 9.845 9.835 9.955 10.005 10.28 10.575 11.07 11.645 11.705 11.545 11.578 12.283 12.8 12.913 12.805 12.61 12.6 12.635 12.765 13.36 13.495 13.157 13.012 12.975 12.89 12.9 12.642 12.578 12.695 13.085 12.977 12.917 13.065 13.372 14.06 14.935 15.573 16.11 16.722 17.077 17.17 17.01 16.76 16.818 17.177 17.7 18.34 18.97 19.438 20.095 20.862 21.815 22.657 23.565 24.305 24.923 25.73 26.185 26.243 25.855 25.85 25.965 25.645 25.48 25.247 25.142 25.09 24.71 24.18 24.075 24.36 24.767 25.038 25.352 25.55 25.292 25.103 25.05 25.157 25.025 24.61 24.042 23.69 23.448 23.222 23.045 23.06 23.257 23.118 22.925 21.272 20.903 20.845 20.965 20.835 20.817 20.94 20.897 20.795 20.193 19.192 18.177 17.86 17.7 17.427 17.298 17.038 17.075 16.905 16.49 15.648 14.97 14.448 14.33 13.967 13.9 14.153 13.775 13.13 11.927 11.69 11.512 11.448 11.24 11.08 10.9 10.915 10.852 10.775 10.685 10.575 10.505 10.448 10.403 10.318 10.285 10.253 10.273 10.17 10.08 10.088 10.257 10.24 10.15 10.09 10.083 10.083 10.068 10.003 9.99 9.965 9.948 9.935 9.962 9.95 9.958 9.952 9.952 9.938 9.952 9.967 9.943 9.95 9.993 9.983 9.872 9.818 9.805 9.805 9.783 9.773 9.797 9.805 9.82 9.802 9.818 9.862 9.837 9.823 9.847 9.86 9.805 9.347 9.823 9.932 9.913 9.91 9.908 9.9 9.925 9.965 10.023 10.092 10.233 10.37 10.217 10.017 10.012 10.125 9.995 9.967 10.3 10.495 10.78 11.033 10.722 10.39 10.15 10.292 10.637 10.837 11.012 11.477 11.948 12.615 12.458 11.97 11.698 11.618 11.345 11.212 11.095 11.078 11.068 11.057 11.005 11.087 10.943 10.88 10.895 10.898 10.825 10.727 10.685 10.618 10.552 10.58 10.735 11.1 11.275 11.245 10.94 10.83 10.835 10.847 10.865 10.895 10.93 10.94 10.945 10.993 11.068 11.078 11.035 10.988 10.903 10.72 10.36 10.523 10.833 10.92 10.573 10.22 10.425 10.472 10.355 10.267 10.225 10.185 10.17 10.135 10.047 10.165 10.585 10.71 10.635 10.675 10.705 10.7 10.76 10.96 11.235 11.352 11.42 11.567 11.685 11.672 11.23 11.515 12.39 12.682 12.767 12.517 12.677 13.085 12.935 12.577 12.405 12.06 11.85 11.467 10.915 10.58 10.435 10.585 10.807 11.333 12.255 13.327 13.998 14.012 14.023
9.22 9.27 10.083 10.488 10.227 10.057 9.855 9.72 9.688 9.677 9.663 9.68 9.845 10.035 10.177 10.222 10.46 10.87 11.415 12.415 13.747 15.03 15.847 16.542 16.908 16.782 16.312 15.83 15.253 14.87 14.77 14.78 14.78 14.797 14.945 14.85 14.868 15.095 16.022 16.638 17.03 17.495 17.612 18.215 19.302 19.878 20.18 20.417 20.693 20.888 21.035 21.382 21.425 20.712 20.513 20.033 20.132 20.09 19.815 20.057 19.86 19.622 19.077 18.208 17.765 17.763 17.802 17.908 17.788 17.853 17.76 17.99 17.403 16.913 16.483 16.062 15.905 15.735 15.925 16.028 16.132 16.157 16.102 15.925 15.712 14.7 14.052 13.542 13.302 12.613 11.915 11.863 11.95 12.31 12.685 12.98 12.88 13.12 12.74 12.408 12.443 12.023 11.2 10.878 10.927 10.845 10.725 10.985 10.995 10.725 10.602 10.493 10.145 9.807 9.785 9.765 9.745 9.69 9.645 9.538 9.6 9.535 9.488 9.285 9.235 9.273 9.283 9.387 9.432 9.41 9.365 9.41 9.42 9.415 9.48 9.517 9.523 9.512 9.583 9.69 9.823 10.14 10.128 9.925 9.868 9.78 9.745 9.76 9.77 9.775 9.93 9.79 9.818 9.837 10.047 10.507 10.812 11.375 11.618 11.325 11.118 11.405 11.727 12.097 12.485 12.885 12.995 12.672 12.438 12.62 13.118 13.262 13 12.892 12.783 12.618 12.52 12.568 12.673 12.868 13.323 13.26 13.182 13.305 13.74 14.448 15.358 15.915 16.452 17.165 17.57 17.327 17.282 17.18 17.298 17.49 18.003 18.628 19.247 19.62 20.167 21.045 21.792 22.625 23.4 24.267 25.08 25.923 26.45 26.38 26.26 26.29 26.015 25.29 25.495 25.38 25.442 25.448 25.048 24.255 23.965 24.05 24.5 25.153 25.345 25.068 24.688 24.763 24.767 24.77 24.62 24.493 24.075 23.522 23.212 22.96 22.805 22.875 23.028 22.92 22.538 21.455 20.657 20.56 20.747 20.78 20.475 20.657 20.568 20.455 19.89 18.792 18.045 17.75 17.615 17.44 17.065 17 17.09 16.97 16.285 15.342 14.67 14.195 14.21 14.205 14.188 14.11 13.83 12.9 12.07 11.755 11.54 11.665 11.323 10.983 10.825 10.823 10.712 10.632 10.545 10.443 10.42 10.425 10.39 10.345 10.292 10.28 10.26 10.175 10.13 10.245 10.425 10.26 10.165 10.108 10.075 10.097 10.068 10.015 9.962 9.975 9.995 9.953 9.97 9.972 9.975 9.995 9.993 10.015 9.997 9.99 10.035 10.03 10.02 10.065 9.94 9.868 9.868 9.842 9.85 9.833 9.84 9.837 9.835 9.812 9.805 9.802 9.84 9.865 9.85 9.852 9.858 9.648 8.94 9.737 9.925 9.898 9.91 9.895 9.96 10.017 10.065 10.142 10.525 10.695 10.427 10.055 9.972 10.052 9.915 10.025 10.802 11.093 11.118 10.872 10.562 10.363 10.095 10.302 10.483 10.68 11.045 11.66 12.35 12.77 12.36 12.083 11.835 11.55 11.32 11.292 11.225 11.13 11.08 11.06 11.035 11.052 10.952 10.972 11 10.988 10.837 10.705 10.698 10.625 10.46 10.41 10.493 10.747 11.047 11.158 10.997 10.775 10.77 10.795 10.81 10.833 10.875 10.922 10.95 11.003 11.1 11.185 11.233 11.235 11.203 10.932 10.488 10.505 10.787 10.775 10.35 10.115 10.512 10.705 10.585 10.477 10.368 10.275 10.188 10.11 10.048 10.137 10.315 10.488 10.53 10.7 10.828 10.858 10.74 10.735 11.007 11.182 11.312 11.415 11.55 11.405 11.32 11.715 12.102 12.443 12.555 12.425 12.488 12.27 11.698 11.265 11.273 11.545 11.61 11.32 10.913 10.59 10.52 10.58 10.94 11.448 12.148 13.25 13.61 13.63 13.328
8.958 9.592 10.415 10.802 10.45 10.3 10.12 10.13 10.135 10.177 10.285 10.328 10.347 10.542 10.67 10.658 10.95 11.042 11.283 11.955 12.798 13.88 15.5 16.382 16.985 17.028 16.907 16.38 16.015 16.09 16.188 16.15 16.423 16.513 16.385 16.365 16.222 16.868 17.635 18.33 18.775 19.263 19.632 20.115 20.647 20.74 21.132 21.375 21.555 21.747 21.78 21.862 21.292 20.645 20.35 20.153 20.337 20.438 19.783 19.647 19.368 19.387 19.25 18.355 17.952 17.91 17.765 17.782 17.86 18.032 17.593 17.085 16.965 16.788 16.415 16.003 15.905 15.87 15.818 15.625 15.52 15.545 15.547 15.45 15.305 15.06 14.408 13.582 12.93 12.417 11.913 11.935 12.092 12.538 12.795 13.095 12.773 12.608 12.095 11.628 11.908 11.845 11.625 11.257 10.988 10.802 10.747 10.878 10.852 10.935 10.67 10.448 10.235 9.945 9.818 9.81 9.87 9.753 9.597 9.545 9.61 9.477 9.525 9.295 9.337 9.288 9.343 9.395 9.37 9.415 9.403 9.398 9.413 9.43 9.467 9.455 9.485 9.523 9.547 9.722 10.012 10.483 10.39 9.945 9.807 9.642 9.632 9.708 9.828 9.925 9.917 9.792 9.887 9.9 10.18 10.81 11.002 11.167 10.962 10.762 10.675 10.868 11 11.438 11.93 12.423 12.565 12.065 12.04 12.273 12.485 12.587 12.587 12.745 12.455 12.225 12.257 12.557 12.89 13.15 13.42 13.458 13.547 13.663 14.118 14.812 15.73 16.455 17.03 17.525 17.435 17.327 17.36 17.392 17.522 17.798 18.312 18.83 19.565 20.05 20.335 20.997 21.802 22.565 23.37 24.245 25.04 25.85 26.647 27.195 27.31 26.68 26.013 25.135 25.125 24.983 25.122 25.243 25.007 24.513 24.483 24.78 25.447 25.59 25.058 24.948 25.108 24.765 24.622 24.47 24.423 24.39 24.298 23.608 23.222 22.87 22.868 22.89 22.968 22.81 22.222 21.347 20.54 20.362 20.522 20.382 20.108 20.195 19.943 19.765 19.217 18.267 17.89 17.755 17.6 17.34 17.035 16.948 16.845 16.923 16.27 15.35 14.618 14.48 14.278 14.547 14.17 13.977 13.66 12.962 12.625 11.788 11.63 11.99 11.453 10.975 10.65 10.8 10.688 10.59 10.493 10.425 10.417 10.398 10.37 10.298 10.265 10.285 10.193 10.182 10.24 10.49 10.41 10.245 10.21 10.15 10.085 10.073 10.073 10.028 9.995 9.993 9.98 9.99 9.988 10.023 10.062 10.073 10.083 10.068 10.073 10.092 10.097 10.097 10.043 10.055 9.993 9.987 9.988 10 10.005 9.932 9.905 9.882 9.877 9.86 9.837 9.833 9.91 9.85 9.938 9.87 9.837 9.835 9.255 9.265 9.938 9.907 9.927 9.958 10.017 10.02 10.033 10.24 10.632 10.693 10.472 10.142 9.977 9.972 9.863 9.995 10.762 11.34 11.202 10.798 10.517 10.203 10.04 10.275 10.46 10.65 11.222 11.74 12.262 12.495 12.3 12.085 11.64 11.288 11.227 11.238 11.253 11.212 11.158 11.087 11.06 11.115 11.13 11.097 11.07 11.045 10.88 10.717 10.688 10.55 10.253 10.165 10.16 10.26 10.497 10.62 10.642 10.65 10.71 10.747 10.767 10.78 10.812 10.868 10.915 10.985 11.068 11.14 11.208 11.267 11.39 11.193 10.702 10.65 10.788 10.63 10.122 9.98 10.45 10.948 10.923 10.8 10.52 10.36 10.32 10.22 10.15 10.23 10.37 10.455 10.422 10.568 10.833 10.802 10.665 10.843 10.905 10.948 11.097 11.225 11.29 11.378 11.343 11.628 11.88 12.185 12.385 12.297 12.267 12.055 11.28 11.017 11.14 11.538 12.062 11.905 11.033 10.693 10.632 10.8 11.155 11.735 12.533 13.43 13.312 12.993 12.545
9.09 9.608 10.403 10.743 10.625 10.365 10.31 10.305 10.262 10.265 10.305 10.65 10.842 11.023 11.02 11.025 11.333 11.227 11.31 11.87 12.635 13.38 14.363 15.257 15.682 15.557 15.477 15.305 15.483 16.08 16.638 17.305 17.63 17.67 18.052 18.042 17.86 18.11 18.835 19.775 20.455 20.945 21.28 21.32 21.397 21.44 21.61 21.847 22.195 22.653 22.745 22.452 21.725 21.06 20.722 20.655 20.448 20.355 19.885 19.522 19.05 18.807 19.15 18.577 18.15 18.153 18.163 18.233 18.557 18.535 17.65 16.765 16.45 16.212 16.03 16.083 15.89 15.77 15.812 15.67 15.453 15.278 15.205 15.097 14.87 14.795 14.293 13.587 12.767 12.403 12.015 11.993 12.167 12.42 12.693 12.815 12.415 11.953 11.74 11.377 11.257 11.407 11.65 11.75 11.188 11.007 11.273 11.432 10.975 10.655 10.597 10.413 10.43 10.173 9.835 9.87 9.913 9.727 9.59 9.535 9.523 9.62 9.49 9.405 9.302 9.358 9.392 9.415 9.425 9.475 9.438 9.422 9.425 9.458 9.51 9.49 9.483 9.49 9.587 9.858 10.358 10.835 10.432 9.95 9.705 9.58 9.575 9.675 9.783 9.885 9.938 9.94 10.03 9.94 10.273 10.873 10.845 10.673 10.48 10.265 10.25 10.352 10.507 10.943 11.333 11.943 11.73 11.57 11.592 11.885 11.975 12.085 12.08 12.075 12.042 12.062 12.202 12.608 13.253 13.585 13.855 13.792 13.892 14.128 14.573 15.073 15.65 16.382 17.145 17.65 17.33 17.27 17.375 17.542 17.665 17.983 18.532 19.077 19.565 20.21 20.737 21.26 21.925 22.753 23.398 24.112 24.827 25.548 26.3 26.958 27.523 26.935 26.415 25.648 25.198 24.903 25.055 25.247 25.298 25.493 25.815 26.333 26.458 26.128 26.077 26.212 26.208 25.63 25.25 24.68 24.602 24.475 24.37 23.972 23.425 23.017 22.965 22.767 22.682 22.452 22.052 21.075 20.513 20.272 20.145 20.01 19.78 19.682 19.37 19.048 18.608 18.16 17.978 17.853 17.688 17.23 16.895 16.615 16.612 16.625 16.23 15.63 14.915 14.41 14.167 14.045 13.87 13.755 13.667 13.222 12.587 12.033 11.858 11.79 11.377 10.653 10.485 10.663 10.62 10.56 10.43 10.375 10.36 10.382 10.33 10.283 10.307 10.262 10.202 10.233 10.465 10.525 10.285 10.205 10.188 10.153 10.077 10.047 10.065 10.07 10.04 10.01 10.012 10.083 10.102 10.128 10.163 10.165 10.175 10.23 10.305 10.215 10.225 10.188 10.165 10.128 10.033 10.043 10.03 10.068 10.165 10.007 9.962 9.922 9.89 9.905 9.872 9.855 9.92 9.642 9.718 9.905 9.833 9.863 9.542 8.993 9.9 9.925 9.965 9.993 10.04 10.035 10.045 10.262 10.483 10.423 10.295 10.13 9.983 9.94 9.83 9.882 10.417 10.905 10.453 10.438 10.595 10.198 10.06 10.413 10.497 10.88 11.462 12.062 12.477 12.398 12.237 12.105 11.702 11.212 11.07 11.045 11.125 11.233 11.175 11.14 11.118 11.17 11.142 11.108 11.113 11.042 10.887 10.74 10.608 10.425 10.118 9.92 9.873 9.863 10 10.115 10.165 10.422 10.72 10.735 10.733 10.757 10.78 10.802 10.878 10.993 11.052 11.105 11.155 11.238 11.497 11.375 10.903 10.798 10.9 10.505 9.985 9.812 10.16 10.688 10.83 10.865 10.69 10.882 10.54 10.435 10.275 10.33 10.693 10.743 10.557 10.452 10.48 10.548 10.675 11.025 10.972 10.847 10.858 10.985 11.153 11.208 11.218 11.462 11.682 11.81 12.06 12.148 12.188 12.28 12.29 12.045 12.285 12.182 11.82 11.503 11.195 10.86 10.855 11.028 11.253 11.892 12.845 13.085 12.995 12.302 11.788
9.097 9.585 10.438 10.693 11.09 10.735 10.635 10.698 10.498 10.415 10.385 10.65 10.93 11.03 10.87 10.925 11.033 11.118 11.142 11.81 12.335 12.745 13.475 14.078 14.385 14.565 14.75 14.865 15.233 15.472 15.875 16.62 17.605 18.778 19.427 19.587 19.77 20.165 20.21 20.74 21.952 22.507 22.29 22.22 21.965 21.993 22.147 22.35 22.583 22.968 23.267 22.84 22.077 21.388 20.96 21.368 21.403 21.005 20.935 20.885 20.182 18.967 18.665 18.217 18.105 18.087 18.307 18.392 18.73 18.555 17.827 17.032 16.342 16.04 16.085 16.215 16.17 16.215 15.93 15.573 15.523 15.29 14.925 14.775 14.757 14.065 13.523 13.03 12.717 12.375 12.175 12.038 12.12 12.425 12.818 12.702 12.407 12.11 12.177 11.677 11.717 11.395 11.312 11.602 11.38 11.165 11.462 11.648 11.12 10.645 10.632 11.015 11.095 10.497 10.073 10 9.852 9.68 9.552 9.515 9.498 9.523 9.528 9.41 9.438 9.423 9.392 9.475 9.525 9.51 9.455 9.42 9.47 9.483 9.46 9.51 9.48 9.462 9.637 9.95 10.43 10.688 10.368 9.917 9.675 9.57 9.552 9.578 9.667 9.85 9.84 9.865 9.843 9.923 10.247 10.515 10.685 10.257 10.212 10.08 10.093 10.128 10.248 10.663 10.892 11.142 11.387 11.36 11.375 11.557 11.528 11.642 11.757 11.712 11.835 12.045 12.238 12.61 13.372 13.89 14.042 14.07 14.205 14.53 15.173 15.47 15.847 16.37 17.12 17.333 17.185 17.19 17.325 17.805 17.967 18.17 18.612 19.315 19.792 20.278 20.858 21.375 22.048 22.682 23.382 24.23 24.94 25.538 26.198 26.855 27.397 27.003 26.16 25.71 25.51 25.335 25.45 25.24 25.29 25.45 25.812 26.267 26.51 26.653 26.728 26.778 26.698 26.573 26.138 25.592 25.29 25.068 24.677 24.175 23.57 23.185 22.935 22.798 22.663 22.208 21.903 21.185 20.493 20.265 20.095 19.907 19.622 19.43 19.158 18.78 18.475 18.22 18.095 17.993 18.095 17.74 16.978 16.537 16.347 16.087 15.878 15.44 14.745 14.31 13.935 13.91 13.755 13.533 13.453 13.66 12.898 12.287 11.985 11.818 11.118 10.415 10.395 10.578 10.555 10.538 10.432 10.365 10.345 10.323 10.265 10.267 10.32 10.227 10.238 10.307 10.555 10.427 10.212 10.158 10.148 10.153 10.108 10.09 10.115 10.16 10.145 10.085 10.062 10.24 10.327 10.29 10.335 10.337 10.4 10.493 10.54 10.443 10.45 10.547 10.262 10.235 10.16 10.172 10.177 10.057 10.045 10.042 10 9.958 9.952 9.953 9.943 9.882 9.898 9.765 9.778 9.823 9.815 9.84 9.745 8.993 9.832 9.952 10.003 10.033 10.06 10.03 10.087 10.285 10.392 10.23 10.085 10.042 10.025 9.93 9.855 9.932 10.515 10.717 10.565 10.89 10.965 10.358 10.222 10.43 10.69 11.21 11.878 12.535 12.83 12.65 12.217 11.797 11.565 11.135 10.962 10.952 11.073 11.212 11.217 11.215 11.212 11.13 11.135 11.23 11.173 11.148 10.977 10.75 10.562 10.358 10.04 9.863 9.818 9.81 9.86 9.948 9.983 10.337 10.745 10.733 10.722 10.737 10.792 10.863 10.99 11.097 11.087 11.087 11.14 11.265 11.698 11.7 11.44 11.29 11 10.398 9.905 9.79 9.875 10.215 10.448 10.825 11.132 11.585 11.325 10.663 10.438 10.46 10.94 11.038 10.918 10.675 10.472 10.587 10.745 10.845 10.927 10.89 10.785 10.735 10.852 10.927 11.09 11.395 11.483 11.65 11.828 11.955 11.892 12.028 12.27 11.878 12.302 12.41 11.858 11.708 11.755 11.565 11.562 11.642 11.757 12.833 12.988 12.675 12.475 11.627 11.18
9.235 9.618 10.217 10.632 10.682 10.555 10.608 10.882 10.81 10.773 10.79 10.57 10.552 10.655 10.648 10.672 10.837 10.965 11.18 11.798 12.445 12.375 12.812 13.097 13.528 13.89 14.292 14.615 15.052 15.073 15.448 16.175 16.858 18.323 19.455 20.737 21.073 21.505 21.798 22.253 22.975 22.983 23.195 23.462 23.157 22.528 22.68 22.802 23.093 23.265 23.507 23 22.503 21.85 21.515 21.712 21.978 21.145 21.29 22.013 21.185 20.037 19.09 18.79 18.478 18.26 18.45 18.558 18.722 18.173 17.7 17.08 16.278 16.23 16.39 16.495 16.602 16.612 16.342 15.635 15.17 14.965 14.49 14.583 14.92 13.525 13.023 12.555 12.533 12.417 12.222 12.24 12.443 12.632 13.068 12.528 12.02 11.97 12.06 12.017 12.035 11.472 11.345 11.568 11.48 11.23 11.458 11.538 10.962 10.725 10.93 11.448 11.46 10.927 10.33 10.01 9.792 9.645 9.56 9.5 9.483 9.495 9.523 9.462 9.392 9.42 9.483 9.562 9.547 9.493 9.497 9.493 9.535 9.505 9.477 9.467 9.477 9.53 9.74 9.91 10.198 10.295 10.128 9.878 9.68 9.542 9.515 9.58 9.72 9.823 9.738 9.783 9.818 9.903 10.165 10.205 10.158 10.212 10.7 10.52 10.4 10.297 10.285 10.425 10.557 10.637 10.97 11.118 11.017 11.23 11.28 11.33 11.493 11.663 12.003 12.395 12.6 12.94 13.502 13.94 14.007 14.145 14.262 14.628 15.35 15.917 16.312 16.468 16.903 17.298 17.392 17.443 17.405 17.542 18.065 18.408 18.847 19.49 20.003 20.478 20.905 21.58 22.095 22.745 23.505 24.288 24.943 25.585 26.267 26.84 26.715 26.542 25.84 25.388 25.415 25.538 25.757 25.56 25.385 25.535 25.637 25.802 25.98 26.13 26.243 26.355 26.49 26.64 26.655 26.465 26.132 25.805 25.485 24.632 23.737 23.195 22.753 22.505 22.298 21.935 21.818 21.25 20.515 20.275 20.153 19.965 19.773 19.485 19.195 18.833 18.612 18.343 18.228 18.26 18.05 18.04 17.458 17.077 16.452 15.788 15.35 15.025 14.688 14.222 13.907 13.665 13.57 13.503 13.318 13.562 13.035 12.365 12.033 11.745 10.797 10.227 10.458 10.52 10.512 10.438 10.377 10.342 10.328 10.273 10.245 10.295 10.323 10.235 10.22 10.495 10.535 10.323 10.167 10.202 10.188 10.173 10.202 10.238 10.273 10.295 10.32 10.295 10.068 10.427 10.555 10.503 10.55 10.552 10.583 10.68 10.835 10.955 10.975 11.177 10.465 10.36 10.238 10.188 10.23 10.185 10.155 10.095 10.055 10.015 9.988 10 9.967 9.923 9.887 10.015 9.975 9.913 9.905 9.878 9.865 9.355 9.372 9.985 10.042 10.04 10.01 10.035 10.132 10.32 10.252 9.997 9.91 10 10.062 9.975 9.943 10.1 10.338 10.477 10.673 11.11 11.195 10.4 10.31 10.605 11.07 11.693 12.34 12.557 12.605 12.312 11.892 11.597 11.455 11.132 10.975 10.932 11.08 11.222 11.222 11.255 11.245 11.205 11.205 11.352 11.278 11.132 11.04 10.775 10.517 10.22 9.943 9.872 9.863 9.895 9.9 9.917 9.955 10.315 10.665 10.698 10.72 10.767 10.89 11.113 11.288 11.343 11.233 11.16 11.23 11.578 12.033 12.038 11.468 11.102 10.73 10.3 10.077 9.785 9.887 10.105 10.5 11.155 11.403 11.378 11.355 10.87 10.555 10.703 11.217 11.275 11.09 10.765 10.672 10.76 10.698 10.717 10.75 10.765 10.76 10.767 10.727 10.733 10.81 11.042 11.387 11.422 11.682 11.845 11.807 11.855 12.13 11.743 11.49 11.967 12.215 12.17 12.312 12.368 12.755 12.93 13.09 13.558 13.285 12.355 12.31 11.227 10.485
9.45 9.675 10.255 10.765 10.36 10.39 10.74 11.062 11.12 11.245 11.145 10.988 10.892 10.555 10.58 10.622 10.99 11.175 11.26 12.06 12.395 12.395 12.365 12.858 12.983 13.257 13.613 14.203 14.74 15.068 15.778 16.282 17.048 18.068 19.123 21.005 22.165 22.08 22.285 23.65 23.272 23.045 22.995 23.468 23.96 23.403 23.198 23.05 23.487 23.225 22.855 22.562 22.202 21.62 21.7 21.405 20.968 20.562 20.87 21.632 21.202 20.312 19.882 19.243 18.9 18.6 18.538 18.708 18.28 17.693 17.468 16.695 16.323 16.485 16.693 16.815 17.042 17.395 16.583 15.278 14.975 14.657 14.267 14.028 13.632 12.773 12.327 12.08 12.092 12.188 12.22 12.275 12.392 12.852 13.047 12.148 11.858 11.653 11.898 12.068 11.885 11.863 11.68 11.54 11.333 11.185 11.2 11.295 11.115 10.837 10.738 10.993 10.89 10.405 10.092 9.91 9.77 9.693 9.628 9.535 9.438 9.488 9.448 9.41 9.425 9.488 9.533 9.545 9.555 9.555 9.568 9.512 9.54 9.51 9.455 9.438 9.46 9.555 9.792 10.083 10.255 10.11 9.97 9.815 9.657 9.568 9.568 9.62 9.78 9.83 9.812 9.943 10.007 10.047 10.243 10.165 10.01 10.165 10.663 10.895 10.953 10.767 10.505 10.432 10.462 10.443 10.557 10.818 10.863 11.068 11.198 11.39 11.685 11.983 12.343 12.795 13.123 13.345 13.642 13.592 13.635 13.725 13.927 14.318 14.98 15.72 16.62 16.83 17.007 17.305 17.595 17.575 17.515 17.6 18.09 18.605 19.115 19.685 20.173 20.632 20.938 21.575 22.272 22.86 23.522 24.26 24.91 25.665 26.28 26.42 25.772 25.39 25.333 25.528 25.43 25.605 25.795 25.65 25.535 25.532 25.407 25.425 25.605 25.683 25.757 25.845 26.045 26.378 26.67 26.653 26.208 25.98 25.792 24.89 24.21 23.495 22.925 22.62 22.39 22.028 21.72 21.288 20.722 20.405 20.305 20.138 19.868 19.455 19.307 19.06 18.835 18.64 18.528 18.48 18.145 17.96 17.87 17.16 16.425 15.84 15.493 14.98 14.722 14.227 13.863 13.54 13.392 13.422 13.315 13.225 13.06 12.577 12.078 11.632 10.675 10.158 10.475 10.525 10.477 10.413 10.368 10.362 10.318 10.233 10.265 10.365 10.285 10.24 10.368 10.608 10.495 10.29 10.25 10.298 10.247 10.267 10.347 10.408 10.507 10.5 10.632 10.545 10.158 10.545 10.653 10.81 10.972 10.905 10.922 10.915 11.158 11.342 11.573 11.31 10.62 10.493 10.477 10.542 10.41 10.305 10.31 10.235 10.153 10.075 10.035 10.047 10.025 9.96 9.915 9.932 9.948 9.923 9.915 9.892 9.92 9.67 8.903 9.812 10.055 10.033 10.06 10.078 10.205 10.293 10.122 9.983 10.025 10.115 10.115 10.045 10.005 10.17 10.253 10.335 10.555 10.92 10.712 10.315 10.312 10.69 11.3 11.938 12.22 12.045 12.097 11.913 11.515 11.413 11.245 11.062 10.97 11.028 11.115 11.15 11.208 11.24 11.312 11.16 11.255 11.347 11.275 11.195 11.06 10.735 10.528 10.273 10.003 9.915 9.98 9.96 9.918 9.905 10.075 10.408 10.573 10.68 10.762 10.898 11.195 11.58 11.818 11.91 11.663 11.523 11.66 12.108 12.03 11.505 10.775 10.448 10.44 10.12 9.887 9.823 9.955 10.3 10.905 11.382 11.517 11.733 11.882 11.66 10.955 11.435 11.61 11.507 11.028 10.71 10.642 11.045 11.02 10.762 10.67 10.665 10.67 10.715 10.718 10.665 10.685 10.807 11.007 11.163 11.462 11.65 11.645 11.745 11.865 12.247 11.74 11.577 12.113 12.352 12.4 12.55 12.825 13.02 13.472 12.833 12.307 12.177 12.315 11.387 10.235
9.523 9.755 10.13 10.38 10.4 10.565 11.062 11.408 11.583 11.81 11.877 11.7 11.72 11.283 11.182 11.097 11.455 11.483 11.542 11.5 11.878 12.125 12.182 12.28 12.525 12.865 13.113 13.645 14.613 15.333 15.895 16.408 17.2 18.155 19.02 20.875 21.975 21.76 22.878 23.51 22.952 22.77 23.003 23.27 23.468 23.233 22.888 22.7 22.985 23.17 22.695 22.017 21.673 20.983 20.688 20.358 20.443 20.397 20.52 21.222 20.84 20.235 19.882 19.222 18.702 18.892 19.057 18.615 18.01 17.495 17.06 16.513 16.212 16.59 16.792 16.913 17.142 17.28 16.302 15.207 14.685 14.34 13.91 13.392 12.917 12.702 12.153 11.812 11.89 11.985 12.078 12.27 12.41 12.835 13.055 12.37 12.743 11.602 11.483 11.552 11.568 11.913 11.9 11.64 11.413 11.342 11.335 11.295 11.21 10.835 10.735 10.642 10.608 10.533 10.102 9.863 9.743 9.71 9.665 9.555 9.435 9.415 9.417 9.43 9.443 9.51 9.565 9.552 9.562 9.613 9.68 9.535 9.525 9.47 9.475 9.443 9.43 9.587 9.863 10.305 10.48 10.165 9.913 9.775 9.67 9.602 9.632 9.682 9.8 9.745 9.85 10.167 10.227 10.033 10.01 10.04 10.038 10.16 10.557 10.925 10.962 11.025 10.792 10.738 10.66 10.575 10.69 10.775 10.887 11.108 11.19 11.467 12.035 12.438 12.735 13.1 13.32 13.363 13.315 13.165 13.14 13.345 13.455 13.835 14.542 15.4 16.407 17.182 17.392 17.58 17.755 17.88 17.775 17.755 18.12 18.688 19.25 19.77 20.323 20.657 21.06 21.343 21.972 22.737 23.462 24.085 24.845 25.495 26.235 25.73 25.028 24.663 24.695 24.968 25.122 25.403 25.763 25.725 25.642 25.47 25.183 25.105 25.022 25.095 25.33 25.545 25.79 26.065 26.41 26.32 25.837 25.46 25.292 24.892 24.465 23.925 23.448 23.247 23.243 22.807 22.285 21.76 21.062 20.465 20.318 20.202 20.065 19.75 19.54 19.467 19.478 19.505 18.945 18.76 18.7 18.36 18.14 17.302 16.472 15.788 15.505 15.08 14.783 14.368 13.905 13.562 13.325 13.41 13.243 13.155 13.028 12.53 12.182 11.585 10.642 10.158 10.472 10.523 10.462 10.458 10.435 10.42 10.352 10.293 10.325 10.377 10.305 10.302 10.523 10.672 10.462 10.32 10.29 10.302 10.355 10.47 10.63 10.635 10.815 10.85 10.923 10.7 10.28 10.385 10.45 10.955 11.445 11.483 11.677 11.807 12.023 12.27 12.173 11.977 11.79 11.145 11.293 11.398 11.167 10.835 10.693 10.552 10.358 10.227 10.163 10.105 10.115 10.055 10.003 9.938 9.907 9.922 9.905 9.9 9.943 9.892 9.27 9.283 10.025 10.115 10.118 10.12 10.137 10.182 10.145 10.267 10.44 10.443 10.33 10.06 10.02 10.215 10.368 10.427 10.555 10.642 10.477 10.35 10.37 11.05 11.472 11.788 11.785 11.6 11.608 11.587 11.358 11.278 11.03 10.94 10.962 11.042 11.092 11.15 11.238 11.243 11.275 11.278 11.273 11.298 11.205 11.205 11.032 10.61 10.472 10.368 10.29 10.323 10.288 10.128 10.003 10.002 10.225 10.4 10.545 10.81 11.045 11.45 12.04 12.583 12.903 12.898 12.618 12.005 11.722 11.677 11.423 10.875 10.595 10.455 10.182 9.872 9.895 9.958 10.163 10.56 11.155 11.555 11.488 11.955 12.262 12.528 11.365 11.455 11.953 11.523 10.762 10.64 10.64 10.938 11.105 10.78 10.645 10.59 10.585 10.61 10.665 10.677 10.712 10.763 10.86 10.957 11.145 11.36 11.455 11.68 11.767 12.108 12.488 12.597 12.505 12.307 12.298 12.51 12.505 12.395 12.408 12.21 12.108 12.1 12.175 12.003 11.135
9.56 9.915 10.253 10.545 10.892 11.153 11.545 11.825 12.273 12.677 12.812 12.52 12.278 12.238 12.36 11.812 11.51 11.4 11.443 11.62 11.705 11.738 12.118 12.295 12.533 12.565 12.815 13.365 14.087 14.868 15.757 16.452 17.292 18.23 19.403 21.062 22.04 22.647 23.075 23.375 22.84 22.53 22.878 23.452 23.365 23.017 22.503 22.555 22.927 22.927 23.138 21.667 20.962 20.522 20.038 20.122 20.102 19.975 20.115 20.458 20.56 20.767 19.975 19.35 18.868 18.98 19.092 18.835 18.003 17.892 17.522 16.612 16.145 16.378 16.63 16.938 17.128 16.317 15.565 14.913 14.365 14.042 13.642 13.18 12.785 12.365 11.903 11.72 11.788 11.94 12.193 12.405 12.41 12.61 12.535 12.003 12.092 11.757 11.625 11.525 11.443 11.62 11.562 11.417 11.16 11.08 11.3 11.33 11.182 10.93 10.778 10.76 11.042 10.398 10.095 9.92 9.78 9.688 9.602 9.503 9.448 9.41 9.398 9.403 9.448 9.498 9.525 9.543 9.555 9.578 9.615 9.5 9.472 9.452 9.455 9.432 9.45 9.62 9.917 10.45 10.788 10.583 10.07 9.882 9.712 9.68 9.698 9.69 9.82 9.78 9.98 10.273 10.278 10.023 10.035 10.068 10.162 10.208 10.467 10.835 11.02 11.253 11.29 11.18 11.042 10.995 11.182 11.165 11.135 11.233 11.095 11.29 11.85 12.552 13.185 13.2 13.028 12.753 12.698 12.703 12.762 12.965 13.047 13.47 14.252 14.94 15.727 16.438 16.795 17.112 17.61 17.99 17.86 17.882 18.075 18.597 19.125 19.507 20.015 20.4 20.948 21.493 21.75 22.4 23.265 23.983 24.673 25.325 25.882 25.36 24.505 24.39 24.513 24.685 24.878 25.06 25.343 25.372 25.417 25.245 25.1 25.155 24.853 24.8 25.173 25.49 25.517 25.812 26.135 26.205 25.9 25.64 25.51 25.167 24.847 24.478 23.892 23.595 23.965 23.243 22.765 22.31 21.635 20.407 20.33 20.18 20.095 19.915 19.83 19.795 19.835 19.845 19.155 18.938 18.605 18.465 18.45 17.46 16.595 16.075 15.682 15.533 15.148 14.452 13.85 13.423 13.278 13.188 13.115 13.108 13.097 12.7 12.243 11.507 10.62 10.18 10.493 10.555 10.497 10.472 10.462 10.438 10.39 10.337 10.422 10.385 10.347 10.368 10.597 10.67 10.43 10.312 10.372 10.493 10.658 10.985 11.137 10.967 11.233 11.372 11.24 10.715 10.372 10.382 10.392 10.908 11.65 12.07 12.648 12.81 13.023 13.015 13.095 13.382 13.15 12.1 12.347 12.417 12.265 12.012 11.542 11.125 10.868 10.648 10.413 10.333 10.205 10.185 10.135 10.052 9.99 9.948 9.955 9.993 9.965 10.01 9.675 9.142 9.972 10.085 10.15 10.17 10.115 10.148 10.225 10.55 10.83 10.863 10.67 10.212 10.04 10.17 10.52 10.77 10.83 10.77 10.448 10.358 10.325 10.648 10.983 11.41 11.39 11.235 11.203 11.188 11.233 11.097 11.003 10.94 10.977 11.043 11.078 11.06 11.06 11.222 11.378 11.372 11.368 11.148 11.04 11.075 10.918 10.462 10.26 10.235 10.398 10.71 10.7 10.422 10.177 10.347 10.565 10.722 10.95 11.358 11.79 12.427 13.055 13.11 13.113 12.71 12.023 11.493 11.323 11.34 11.17 10.688 10.533 10.318 9.988 9.935 10.005 10.307 10.64 11.02 11.517 11.458 11.18 11.485 11.985 12.398 11.615 11.773 12.03 11.087 10.465 10.727 10.79 10.705 10.733 10.635 10.59 10.675 10.682 10.635 10.673 10.665 10.712 10.783 10.812 10.875 10.94 11.057 11.29 11.49 11.615 11.737 11.967 12.35 12.45 12.385 12.368 12.31 12.198 12.077 12.057 12.073 12.085 12.1 12.118 12.083 11.997
9.517 10.085 10.465 10.76 11.275 12.012 12.185 12.417 12.847 13.45 13.552 13.422 13.262 12.99 12.908 12.278 11.68 11.5 11.7 11.847 11.62 11.547 11.5 11.81 12.182 12.238 12.462 12.722 13.43 14.22 15.333 16.33 17.34 18.395 19.625 21.185 22.615 22.673 22.778 22.88 22.65 22.682 22.688 23.19 23.208 22.645 22.403 22.382 22.798 22.837 23.315 21.667 20.77 20.577 20.305 20.245 20.165 19.807 19.655 19.895 20.188 20.502 19.847 19.25 19.042 18.917 19.227 19.087 18.185 17.927 17.413 16.665 16.362 16.45 16.568 16.688 16.972 15.733 14.83 14.222 13.875 13.67 13.568 13.263 12.995 12.568 12.128 11.828 11.802 11.99 12.337 12.408 12.688 12.585 12.068 11.858 11.73 11.342 11.123 10.948 10.95 11.12 11.233 11.035 10.818 10.805 10.753 10.86 10.885 10.743 10.708 11.042 11.29 10.302 10.108 9.885 9.717 9.635 9.535 9.435 9.415 9.42 9.415 9.413 9.43 9.448 9.483 9.517 9.528 9.54 9.507 9.495 9.477 9.445 9.425 9.423 9.442 9.517 9.765 10.227 10.645 10.51 10.052 9.845 9.775 9.917 9.855 9.695 9.783 9.86 10.017 10.365 10.27 10.092 10.038 10.195 10.298 10.488 10.665 11.023 11.552 11.722 11.613 11.568 11.745 11.55 11.655 11.743 11.43 11.193 11.105 11.135 11.568 12.025 12.785 12.792 12.538 12.458 12.368 12.37 12.41 12.545 12.775 13.193 13.99 14.56 15.217 15.66 16.165 16.647 17.25 17.448 17.36 17.467 17.64 18.228 18.74 19.237 19.855 20.23 20.637 21.41 21.96 22.15 22.835 23.787 24.567 25.253 25.315 24.8 24.218 24.415 24.425 24.66 24.77 24.888 25.07 25.182 25.062 25.032 24.972 25.427 25.445 24.97 25.198 25.467 25.365 25.46 25.725 25.885 25.88 25.96 25.938 25.592 25.257 25.085 24.438 23.673 23.935 23.425 22.943 22.605 21.87 20.35 20.292 20.192 20.048 19.96 19.852 19.74 19.62 19.155 18.548 18.282 18.095 17.877 17.815 17.487 16.647 16.017 15.69 15.398 15.005 14.552 13.972 13.423 13.083 13.06 13.092 13.182 13.075 12.783 12.235 11.63 10.717 10.273 10.55 10.58 10.525 10.515 10.475 10.44 10.382 10.368 10.467 10.405 10.358 10.422 10.74 10.632 10.365 10.373 10.573 10.865 11.215 11.575 11.497 10.96 11.65 11.78 11.438 10.847 10.422 10.368 10.413 10.762 11.45 11.975 12.585 13.023 13.795 13.807 13.507 13.663 13.5 13.235 12.892 12.887 12.905 12.887 12.75 12.083 11.548 11.122 10.943 10.9 10.648 10.477 10.405 10.257 10.1 10.007 10.012 10.017 9.948 9.985 9.895 9.253 9.47 9.925 10.113 10.11 10.105 10.118 10.198 10.613 10.945 11.015 10.923 10.495 10.077 10.113 10.488 11.055 11.318 11.08 10.545 10.577 10.257 10.132 10.512 10.995 10.932 10.868 10.908 10.975 10.988 11.025 10.925 10.92 10.88 10.98 11.02 10.997 11.048 11.257 11.413 11.355 11.395 11.113 11.007 10.922 10.698 10.358 10.097 10.065 10.238 10.585 10.868 10.672 10.593 10.863 11.235 11.595 11.565 11.75 12.1 12.265 12.465 12.175 11.985 11.535 11.29 11.26 11.255 11.292 11.315 11.07 10.778 10.405 10.068 10.097 10.417 11.015 11.32 11.525 11.605 11.188 10.743 10.863 11.35 12.097 11.977 11.92 11.783 10.788 10.615 11.035 10.778 10.483 10.432 10.64 10.733 10.75 10.733 10.665 10.608 10.545 10.575 10.622 10.727 10.84 10.9 11.015 11.203 11.4 11.54 11.64 11.76 11.917 12.03 12.047 12.045 12.045 12.035 12.015 12.025 12.042 12.087 12.105 12.102 12.085 12.057
9.222 9.775 10.188 10.663 11.46 12.455 12.855 13.273 13.637 13.837 13.815 13.778 13.693 13.552 13.015 12.615 12.137 12.002 11.943 11.775 11.528 11.42 11.328 11.785 11.965 11.997 12.185 12.525 13.075 13.962 14.932 16.003 17.222 18.833 19.962 21.212 22.59 23.175 23.23 23.002 22.962 22.65 22.917 23.36 23.445 22.788 22.737 22.5 22.49 22.735 22.905 21.682 20.968 21.09 20.942 20.757 20.3 20.205 19.97 20.233 20.55 20.208 20.253 19.948 19.438 19.712 19.725 19.077 18.475 18.467 17.925 17.278 16.73 16.542 16.43 16.388 16.062 15.012 14.165 13.955 13.448 13.47 13.497 13.68 13.225 12.962 12.733 12.685 12.312 12.305 12.495 12.56 12.602 12.305 12.087 11.878 11.68 11.4 10.993 10.533 10.557 10.757 10.64 10.472 10.475 10.47 10.483 10.625 10.877 10.74 10.717 10.785 10.86 10.233 10.057 9.915 9.685 9.577 9.485 9.403 9.392 9.425 9.415 9.398 9.385 9.427 9.475 9.485 9.505 9.497 9.485 9.495 9.505 9.483 9.452 9.467 9.457 9.493 9.615 9.925 10.318 10.255 9.945 9.81 9.835 9.922 9.892 9.795 9.885 9.93 10.125 10.262 10.177 10.065 10.12 10.395 10.41 10.642 11.05 11.555 11.878 11.648 11.462 11.507 12.017 12.25 12.292 12.212 11.78 11.375 11.255 11.128 11.438 12.005 12.465 12.413 12.198 12.113 12.188 12.08 12.102 12.218 12.523 13.08 13.63 14.363 14.863 15.31 15.932 16.438 16.625 16.56 16.702 16.885 17.165 17.69 18.29 18.905 19.528 20.15 20.61 21.11 22.005 22.388 22.608 23.278 24.033 24.583 24.788 24.382 24.345 24.478 24.397 24.583 24.798 24.825 25.052 25.147 24.84 24.657 24.555 24.795 25.032 24.995 25.253 25.185 25.15 25.37 25.353 25.495 25.667 25.608 25.775 25.622 25.503 25.32 24.66 23.675 23.318 23.22 23.083 22.795 21.725 20.37 20.267 20.138 19.962 19.728 19.688 19.507 19.267 18.798 18.22 17.927 17.705 17.46 17.53 17.24 16.462 15.94 15.618 15.328 14.985 14.76 14.052 13.408 13.085 13.038 13.112 13.08 13.217 12.805 12.283 11.76 10.945 10.475 10.63 10.597 10.575 10.565 10.472 10.423 10.37 10.448 10.462 10.427 10.385 10.622 10.818 10.562 10.438 10.612 11.038 11.405 11.655 11.792 11.483 10.958 11.275 11.753 11.507 11.09 10.485 10.347 10.435 10.653 11.182 11.698 12.408 12.975 13.602 13.36 12.84 12.91 12.587 12.352 12.297 12.427 12.335 12.443 12.68 12.51 12.113 11.53 11.352 11.198 11.003 10.755 10.622 10.51 10.31 10.132 10.085 10.03 9.993 10.01 10.052 9.65 8.98 9.61 9.948 10.017 10.085 10.1 10.135 10.505 10.882 11.015 11.02 10.72 10.175 10.073 10.42 10.977 11.255 11.165 10.812 10.767 10.425 10.073 10.082 10.195 10.365 10.477 10.505 10.695 10.927 11.2 10.938 10.783 10.807 10.913 11.097 11.013 11.2 11.462 11.448 11.443 11.4 11.283 11.023 10.735 10.528 10.27 10.062 10.035 10.1 10.295 10.452 10.523 10.71 10.983 11.24 11.58 11.385 11.265 11.323 11.275 11.263 11.273 11.263 11.253 11.245 11.26 11.27 11.285 11.253 11.233 10.98 10.495 10.282 10.552 11.108 11.83 12.145 11.755 11.17 10.815 10.467 10.538 10.975 11.797 11.948 11.653 11.273 10.845 10.903 10.92 10.608 10.385 10.375 10.618 10.775 10.727 10.69 10.6 10.498 10.46 10.523 10.618 10.71 10.8 10.913 11.068 11.267 11.458 11.575 11.693 11.795 11.913 12.01 12.01 12.028 12.033 12.028 12.005 12.017 12.057 12.097 12.108 12.1 12.083 12.068
9.22 10.085 10.805 11.538 12.457 13.318 13.37 13.688 13.88 14.068 14.05 13.785 13.615 13.48 13.43 13.125 12.443 12.05 11.84 11.733 11.512 11.35 11.283 11.448 11.585 11.847 12.108 12.365 12.88 13.802 14.93 15.917 17.215 18.75 19.983 21.22 22.4 23.177 23.51 23.6 23.163 22.845 23.155 23.663 23.6 23.23 23.237 23.225 22.802 22.82 23.315 22.263 21.243 21.185 21.398 21.003 20.625 20.51 20.483 20.722 20.695 20.802 20.892 20.587 20.04 19.97 19.79 19.073 18.708 19.003 18.272 17.58 17.343 16.91 16.97 16.353 15.392 14.445 13.71 13.34 13.245 13.355 13.445 13.802 13.46 12.958 13.13 13.365 12.987 12.455 12.608 12.455 12.45 11.972 11.89 11.738 11.762 11.545 10.903 10.67 10.275 10.355 10.487 10.388 10.32 10.363 10.347 10.46 10.705 10.795 10.725 10.757 10.452 9.98 9.807 9.753 9.698 9.58 9.475 9.41 9.42 9.413 9.403 9.415 9.462 9.467 9.458 9.46 9.465 9.458 9.485 9.48 9.493 9.477 9.46 9.467 9.498 9.528 9.61 9.932 10.33 10.205 9.93 9.833 9.873 9.983 9.97 9.915 10.042 10.273 10.18 10.155 10.235 10.28 10.418 10.48 10.488 10.7 11.055 11.427 11.523 11.312 11.028 11.15 11.62 11.977 12.042 11.985 11.778 11.43 11.215 11.06 11.203 11.552 12.007 11.97 11.828 11.823 11.765 11.85 11.87 12.003 12.307 12.78 13.4 14.095 14.61 15.102 15.765 16.288 16.385 16.235 16.362 16.5 16.847 17.312 18.105 18.827 19.392 19.983 20.622 21.28 21.96 22.552 22.888 23.042 23.548 23.892 24.138 24.627 24.305 24.087 24.22 24.397 24.612 24.757 25.003 24.705 24.517 24.25 24.335 24.673 24.638 24.945 25.025 25.16 25.158 25.237 25.195 25.263 25.483 25.522 25.455 25.507 25.743 25.618 25.16 24.155 23.36 22.87 22.885 22.64 21.575 20.257 20.22 20.167 20.052 19.498 19.462 19.417 19.308 18.863 18.195 17.823 17.84 17.74 17.19 16.778 16.158 15.828 16.048 15.66 15.185 14.382 13.767 13.403 13.265 13.253 13.28 13.127 13.15 12.968 12.533 11.84 11.125 10.698 10.655 10.597 10.55 10.523 10.47 10.42 10.37 10.472 10.448 10.435 10.42 10.705 10.743 10.485 10.592 10.948 11.35 11.477 11.413 11.43 11.283 11.023 11.057 11.21 11.188 11.033 10.618 10.368 10.47 10.715 11.358 11.845 12.417 12.86 12.878 12.693 12.385 11.955 11.51 11.185 11.167 11.198 11.55 11.838 12.295 12.658 12.733 12.525 12.102 11.637 11.305 10.955 10.72 10.552 10.398 10.245 10.118 10.083 10.057 10.023 10.09 10.057 9.833 9.193 9.337 9.835 10.073 10.105 10.115 10.312 10.637 10.858 10.907 10.783 10.275 10.05 10.335 10.92 10.988 11.172 11.065 11.165 10.788 10.37 10.017 9.842 9.952 10.153 10.292 10.452 10.623 10.908 10.72 10.53 10.642 10.895 11.163 11.015 11.238 11.445 11.455 11.452 11.448 11.305 11.077 10.708 10.49 10.172 10.057 10.023 10 10.087 10.177 10.525 10.538 10.387 10.39 10.987 11.182 11.26 11.265 11.275 11.27 11.275 11.273 11.283 11.285 11.288 11.29 11.302 11.292 11.278 11.075 10.717 10.863 11.458 11.88 12.093 11.95 11.565 11.04 10.595 10.355 10.51 11.017 11.923 12.263 11.948 11.128 10.753 10.94 10.743 10.392 10.297 10.398 10.615 10.712 10.69 10.615 10.535 10.512 10.505 10.573 10.632 10.68 10.765 10.948 11.2 11.403 11.535 11.64 11.767 11.875 11.952 12.02 12.065 12.108 12.118 12.045 12.007 12.003 12.03 12.073 12.09 12.085 12.068 12.05
