ncols 406
nrows 32
xllcorner    245056
yllcorner    138058
cellsize     2
NODATA_value -9999
125.7 125.777 125.855 125.94 126.015 126.1 126.202 126.298 126.363 126.448 126.495 126.618 126.637 126.605 126.62 126.67 127.368 128.167 126.713 126.628 126.662 126.735 126.75 126.708 126.68 126.647 126.64 126.62 126.605 126.577 126.57 126.565 126.567 126.57 126.572 126.59 126.58 126.605 126.635 126.658 126.655 126.645 126.603 126.603 126.572 126.577 126.58 126.522 126.463 126.44 126.375 126.355 126.285 126.243 126.215 126.202 126.183 126.178 126.165 126.158 126.125 126.088 126.07 126.05 125.99 125.97 125.905 125.848 125.765 125.682 125.61 125.565 125.47 125.39 125.357 125.333 125.262 125.21 125.143 125.1 125.045 124.965 124.91 124.853 124.768 124.698 124.622 124.552 124.522 124.45 124.32 124.247 124.143 124.04 123.95 123.86 123.757 123.643 123.55 123.493 123.41 123.325 123.265 123.2 123.14 123.062 122.978 122.91 122.84 122.77 122.717 122.643 122.607 122.545 122.465 122.387 122.29 122.195 122.125 122.07 121.985 121.88 121.795 121.685 121.585 121.458 121.35 121.228 121.098 120.958 120.807 120.682 120.557 120.445 120.298 120.16 120.01 119.875 119.717 119.56 119.415 119.255 119.05 118.872 118.682 118.515 118.312 118.135 117.962 117.777 117.58 117.41 117.275 117.208 116.99 116.697 116.452 116.25 116.058 115.815 115.537 115.29 115.033 114.762 114.49 114.19 113.85 113.507 113.2 112.878 112.53 112.168 111.772 111.375 110.997 110.615 110.22 109.83 109.447 109.04 108.652 108.27 107.882 107.512 107.155 106.792 106.43 106.082 105.735 105.37 104.993 104.63 104.272 103.875 103.397 102.85 102.37 101.79 101.202 100.34 99.973 98.11 97.125 96.785 95.768 94.44 93.333 92.323 91.512 90.393 88.875 87.812 86.975 86.645 86.778 85.435 84.84 84.427 84.147 83.878 83.567 83.298 83.007 82.753 82.535 82.323 82.092 81.933 81.805 81.685 81.57 81.51 81.505 81.545 81.577 81.64 81.745 81.95 82.507 84.415 84.93 84.993 85.193 86.01 86.91 87.228 89.215 89.255 89.552 89.732 90.24 90.7 91.128 91.463 91.755 92.015 92.245 92.48 92.69 92.915 93.103 93.28 93.45 93.61 93.765 93.895 94.04 94.162 94.26 94.342 94.412 94.485 94.54 94.588 94.63 94.647 94.62 94.54 94.478 94.385 94.255 94.125 93.957 93.802 93.545 93.268 92.988 92.713 92.478 92.207 91.94 91.645 91.353 91.015 90.68 90.342 90.005 89.688 89.372 89.037 88.708 88.357 88 87.632 87.257 86.868 86.482 86.077 85.698 85.29 84.875 84.438 83.975 83.523 83.065 82.56 81.86 81.412 81.25 80.365 79.357 78.613 77.923 77.268 76.503 75.76 75.037 74.445 73.63 72.838 72.147 71.478 70.973 70.228 69.523 68.87 68.208 67.567 66.945 66.323 65.763 65.22 64.675 64.158 63.732 63.278 62.815 62.365 61.943 61.595 61.22 60.792 60.423 60.088 59.745 59.365 59.005 58.688 58.11 57.82 57.667 57.455 57.185 56.965 56.7 55.935 55.577 55.388 57.48 56.868 57.083 57.197 57.307 57.362 57.365 57.463 57.52 57.513 57.53 57.682 57.875 58.068 58.287 58.537 59.548 59.442 59.792 59.65 60.487 61.275 60.982 61.732 62.638 61.965 62.905 63.372 64.02 64.915 65.323 65.965 67.235 67.55 68.342 69.007 70.05 70.842
125.43 125.497 125.583 125.667 125.745 125.842 125.932 126.042 126.09 126.17 126.21 126.323 126.365 126.327 126.327 126.368 126.875 127.835 126.53 126.283 126.365 126.425 126.438 126.405 126.37 126.34 126.32 126.317 126.308 126.302 126.295 126.303 126.295 126.298 126.307 126.332 126.335 126.338 126.393 126.408 126.4 126.393 126.378 126.365 126.318 126.31 126.335 126.28 126.238 126.188 126.125 126.065 126.015 125.99 125.96 125.94 125.938 125.94 125.96 125.925 125.895 125.863 125.868 125.838 125.807 125.762 125.685 125.63 125.555 125.49 125.39 125.305 125.215 125.158 125.118 125.077 125.03 124.973 124.91 124.865 124.82 124.735 124.643 124.585 124.515 124.465 124.365 124.275 124.255 124.215 124.09 123.985 123.878 123.79 123.702 123.618 123.497 123.41 123.277 123.195 123.155 123.07 123 122.92 122.857 122.79 122.725 122.643 122.56 122.495 122.463 122.408 122.36 122.293 122.22 122.13 122.048 121.98 121.9 121.83 121.753 121.652 121.568 121.475 121.365 121.247 121.143 121.02 120.9 120.76 120.61 120.493 120.368 120.24 120.122 119.995 119.845 119.69 119.527 119.397 119.215 119.055 118.878 118.695 118.525 118.338 118.147 117.96 117.792 117.587 117.41 117.225 117.055 117.012 116.845 116.552 116.277 116.057 115.853 115.632 115.37 115.105 114.855 114.603 114.33 114.012 113.685 113.363 113.038 112.728 112.39 112.015 111.628 111.247 110.875 110.49 110.09 109.698 109.312 108.923 108.535 108.143 107.77 107.41 107.043 106.675 106.322 105.965 105.607 105.243 104.863 104.505 104.13 103.713 103.192 102.723 102.292 101.588 101.348 100.425 99.605 98.915 97.557 95.91 94.603 93.59 92.738 91.973 90.95 89.637 88.415 87.375 86.572 86.298 85.713 85.048 84.515 84.12 83.85 83.56 83.257 82.97 82.708 82.46 82.25 82.022 81.83 81.665 81.515 81.387 81.257 81.213 81.185 81.223 81.27 81.33 81.425 81.66 81.995 83.277 84.485 85.705 84.908 85.772 86.497 87.327 87.845 88.457 89.58 89.695 90.188 90.655 91.065 91.4 91.692 91.955 92.18 92.412 92.628 92.845 93.037 93.213 93.387 93.555 93.698 93.845 93.993 94.11 94.213 94.307 94.385 94.458 94.533 94.595 94.647 94.662 94.595 94.463 94.363 94.247 94.09 93.925 93.735 93.527 93.283 93.045 92.79 92.525 92.285 92.007 91.715 91.43 91.103 90.76 90.42 90.058 89.732 89.412 89.075 88.738 88.39 88.045 87.685 87.305 86.918 86.512 86.128 85.74 85.348 84.925 84.51 84.048 83.603 83.14 82.673 82.168 81.405 80.975 80.643 79.662 79.122 78.243 77.565 76.84 76.155 75.415 74.783 74.08 73.335 72.66 71.99 71.41 70.938 70.045 69.42 68.8 68.092 67.478 66.842 66.22 65.645 65.083 64.527 64.005 63.567 63.135 62.635 62.18 61.785 61.427 61.013 60.615 60.26 59.928 59.548 59.155 58.778 58.395 57.865 57.615 57.428 57.21 56.965 56.738 56.165 55.68 55.45 55.693 57.285 56.75 56.753 56.877 56.99 56.998 57.065 57.173 57.253 57.243 57.245 57.417 57.612 57.805 58.005 58.243 58.647 60.225 59.725 59.438 60.062 60.805 61.21 62.475 61.86 61.895 62.678 63.263 63.655 64.425 65.082 65.658 66.87 67.245 68.045 68.92 69.84 70.712
125.15 125.223 125.32 125.397 125.482 125.57 125.658 125.762 125.82 125.9 125.925 126.03 126.067 126.052 126.04 126.058 126.433 127.525 126.365 125.973 126.033 126.11 126.137 126.125 126.083 126.042 126.02 126.027 126.025 126.027 126 126.01 126.027 126.037 126.042 126.07 126.083 126.092 126.105 126.165 126.173 126.147 126.122 126.11 126.095 126.055 126.057 126.015 125.975 125.912 125.878 125.822 125.772 125.735 125.695 125.71 125.695 125.7 125.705 125.708 125.685 125.65 125.643 125.613 125.582 125.533 125.49 125.42 125.32 125.255 125.182 125.113 125.005 124.93 124.875 124.833 124.785 124.725 124.677 124.622 124.565 124.47 124.42 124.34 124.257 124.185 124.095 124.03 123.993 123.945 123.81 123.72 123.625 123.533 123.438 123.348 123.228 123.113 123.035 122.912 122.878 122.775 122.717 122.688 122.595 122.52 122.442 122.357 122.292 122.247 122.2 122.162 122.103 122.055 121.997 121.917 121.835 121.743 121.662 121.61 121.533 121.433 121.35 121.247 121.158 121.045 120.935 120.827 120.7 120.562 120.425 120.292 120.162 120.048 119.938 119.798 119.652 119.512 119.363 119.22 119.042 118.885 118.705 118.518 118.335 118.155 117.975 117.775 117.6 117.423 117.22 117.035 116.855 116.765 116.658 116.393 116.088 115.85 115.647 115.455 115.2 114.933 114.698 114.432 114.135 113.835 113.525 113.192 112.87 112.558 112.228 111.853 111.478 111.11 110.74 110.353 109.948 109.565 109.177 108.792 108.418 108.035 107.66 107.285 106.925 106.545 106.19 105.822 105.465 105.092 104.715 104.35 103.958 103.507 103.037 102.618 102.21 101.323 100.408 100.312 99.025 97.137 96.098 96.155 94.132 93.332 92.23 91.342 90.272 89.075 87.91 86.905 86.182 86.397 86.012 84.71 84.202 83.818 83.555 83.28 82.973 82.697 82.423 82.183 81.973 81.757 81.558 81.41 81.24 81.113 81.003 80.927 80.905 80.915 80.958 81.005 81.115 81.363 82.59 82.842 83.365 83.855 84.792 86.613 88.385 87.16 87.615 88.835 89.115 89.71 90.147 90.595 91.015 91.335 91.618 91.857 92.088 92.315 92.535 92.745 92.94 93.115 93.29 93.457 93.618 93.76 93.912 94.048 94.16 94.262 94.333 94.395 94.467 94.49 94.497 94.478 94.393 94.28 94.167 94.045 93.88 93.7 93.503 93.283 93.053 92.815 92.577 92.315 92.062 91.783 91.465 91.132 90.775 90.41 90.07 89.738 89.4 89.082 88.755 88.423 88.09 87.735 87.372 87.003 86.603 86.21 85.795 85.425 85.005 84.662 84.18 83.72 83.247 82.783 82.323 81.825 81.098 80.61 80.545 80.675 79.005 77.943 77.308 76.59 75.893 75.175 74.56 73.902 73.155 72.48 71.842 71.21 70.592 69.943 69.333 68.69 67.988 67.39 66.745 66.118 65.522 64.95 64.402 63.915 63.423 62.963 62.445 62.015 61.63 61.24 60.845 60.45 60.09 59.735 59.353 58.958 58.577 58.178 57.685 57.408 57.125 56.923 56.73 56.568 56.298 55.795 55.062 54.938 56.37 56.307 56.487 56.562 56.592 56.667 56.798 56.89 56.967 56.975 57.022 57.19 57.347 57.55 57.765 57.995 58.905 60.053 58.945 59.51 59.827 60.105 60.77 61.338 61.77 61.693 62.545 62.97 63.487 64.188 64.845 65.42 66.333 67.03 68.075 69.435 70.518 71.38
124.893 124.955 125.04 125.132 125.21 125.295 125.38 125.473 125.535 125.597 125.64 125.738 125.775 125.765 125.75 125.77 125.965 127.162 126.21 125.685 125.708 125.81 125.838 125.827 125.785 125.745 125.735 125.717 125.743 125.75 125.738 125.743 125.755 125.777 125.785 125.808 125.82 125.865 125.882 125.88 125.9 125.912 125.887 125.878 125.84 125.812 125.787 125.753 125.72 125.65 125.592 125.533 125.505 125.473 125.425 125.442 125.432 125.42 125.445 125.473 125.467 125.423 125.382 125.395 125.372 125.318 125.245 125.18 125.115 125.04 124.947 124.868 124.77 124.693 124.62 124.585 124.552 124.473 124.41 124.36 124.308 124.2 124.125 124.062 124.012 123.938 123.833 123.757 123.705 123.678 123.552 123.455 123.37 123.265 123.145 123.08 122.978 122.872 122.74 122.603 122.605 122.505 122.435 122.368 122.295 122.235 122.17 122.09 122.043 121.98 121.935 121.895 121.86 121.825 121.74 121.655 121.6 121.533 121.445 121.385 121.295 121.202 121.128 121.035 120.938 120.825 120.725 120.62 120.485 120.36 120.22 120.087 119.967 119.84 119.74 119.61 119.475 119.338 119.188 119.043 118.868 118.723 118.52 118.333 118.165 117.967 117.795 117.58 117.41 117.238 117.035 116.845 116.635 116.562 116.427 116.24 115.92 115.632 115.44 115.24 115.012 114.75 114.51 114.24 113.94 113.652 113.35 113.018 112.702 112.378 112.043 111.695 111.338 110.975 110.585 110.195 109.808 109.42 109.04 108.66 108.285 107.918 107.537 107.162 106.775 106.402 106.037 105.68 105.318 104.93 104.548 104.19 103.777 103.303 102.9 102.488 101.988 101.09 100.125 99.777 98.005 96.995 95.73 95.56 94.973 92.952 91.798 90.665 89.677 88.467 92.98 87.868 85.865 85.827 85.635 84.435 83.87 83.54 83.255 82.978 82.69 82.418 82.14 81.905 81.7 81.465 81.28 81.12 80.95 80.838 80.74 80.655 80.607 80.632 80.645 80.698 80.802 81.015 81.588 82.7 82.885 83.645 84.87 85.47 87.202 87.353 87.64 89.16 89.12 90.14 90.13 90.558 90.938 91.247 91.52 91.76 91.985 92.215 92.42 92.622 92.802 92.995 93.165 93.33 93.49 93.65 93.812 93.955 94.065 94.14 94.208 94.26 94.31 94.3 94.298 94.245 94.175 94.07 93.955 93.808 93.622 93.438 93.24 93.02 92.78 92.503 92.24 91.997 91.725 91.418 91.092 90.795 90.43 90.072 89.757 89.44 89.125 88.82 88.5 88.162 87.815 87.455 87.105 86.713 86.312 85.908 85.5 85.075 84.675 84.29 83.817 83.357 82.895 82.43 81.975 81.52 80.745 80.287 80.173 79.122 78.397 77.9 77.098 76.375 75.688 75 74.387 73.69 73.007 72.353 71.74 71.14 70.515 69.897 69.253 68.588 67.905 67.278 66.63 65.997 65.378 64.812 64.247 63.715 63.26 62.76 62.268 61.855 61.467 61.062 60.65 60.265 59.908 59.555 59.14 58.76 58.405 58.092 57.52 57.143 56.855 56.632 56.465 56.28 56.198 55.84 55.105 54.835 55.745 55.983 56.195 56.23 56.27 56.412 56.5 56.618 56.688 56.695 56.732 56.912 57.095 57.268 57.487 57.76 58.783 59.082 58.812 59.643 60.285 60.425 60.76 62.022 62.775 62.5 62.745 62.72 63.338 64.88 66.205 65.255 66.033 67.103 68.125 69.697 71.682 71.935
124.605 124.682 124.768 124.853 124.935 125.012 125.1 125.195 125.265 125.298 125.348 125.425 125.497 125.482 125.457 125.47 125.598 126.762 126.19 125.385 125.402 125.485 125.543 125.54 125.488 125.452 125.44 125.433 125.457 125.467 125.46 125.463 125.482 125.495 125.525 125.555 125.573 125.6 125.622 125.647 125.655 125.67 125.637 125.595 125.562 125.56 125.518 125.473 125.417 125.36 125.33 125.247 125.205 125.207 125.185 125.177 125.182 125.183 125.197 125.195 125.197 125.175 125.152 125.143 125.115 125.092 125.03 124.935 124.872 124.785 124.702 124.613 124.533 124.455 124.378 124.315 124.285 124.228 124.155 124.088 124.025 123.94 123.882 123.807 123.732 123.647 123.55 123.497 123.442 123.415 123.287 123.167 123.067 122.988 122.882 122.772 122.66 122.58 122.465 122.335 122.315 122.198 122.147 122.08 122.015 121.958 121.89 121.815 121.753 121.715 121.693 121.63 121.58 121.548 121.495 121.423 121.35 121.285 121.207 121.155 121.09 120.997 120.912 120.815 120.723 120.622 120.512 120.405 120.287 120.147 120.015 119.882 119.765 119.643 119.525 119.397 119.277 119.14 118.995 118.838 118.685 118.535 118.353 118.128 117.952 117.78 117.585 117.39 117.2 117.03 116.85 116.647 116.443 116.302 116.2 116.048 115.755 115.448 115.24 115.037 114.83 114.567 114.3 114.018 113.745 113.458 113.155 112.825 112.503 112.18 111.86 111.527 111.173 110.8 110.42 110.03 109.65 109.26 108.882 108.52 108.152 107.77 107.397 107.015 106.645 106.25 105.875 105.507 105.132 104.75 104.37 103.988 103.527 103.103 102.705 102.355 101.9 101.397 100.223 99.27 97.473 96.565 95.445 94.448 93.997 92.588 91.75 90.473 89.107 88.02 92.077 95.02 87.217 85.537 85.683 84.625 83.537 83.232 82.952 82.68 82.393 82.118 81.878 81.64 81.425 81.21 81.01 80.835 80.677 80.56 80.452 80.368 80.338 80.333 80.348 80.38 80.467 80.7 81.073 82.305 82.552 83.46 84.535 85.38 86.287 87.353 87.643 88.395 89.213 90.135 90.13 90.51 90.855 91.153 91.427 91.66 91.888 92.098 92.295 92.495 92.685 92.865 93.04 93.208 93.372 93.53 93.688 93.825 93.927 93.997 94.052 94.092 94.135 94.137 94.11 94.057 93.98 93.86 93.725 93.56 93.387 93.195 92.97 92.713 92.44 92.175 91.9 91.628 91.348 91.05 90.738 90.417 90.107 89.815 89.52 89.205 88.882 88.552 88.232 87.893 87.535 87.173 86.785 86.385 85.98 85.583 85.16 84.732 84.327 83.925 83.455 83.007 82.592 82.118 81.675 81.22 80.49 79.978 79.827 79.475 78.175 77.503 76.865 76.235 75.548 74.885 74.268 73.63 72.932 72.35 71.732 71.07 70.438 69.78 69.122 68.49 67.81 67.147 66.488 65.872 65.253 64.645 64.088 63.545 63.062 62.55 62.072 61.688 61.285 60.885 60.475 60.088 59.71 59.333 58.948 58.568 58.197 57.872 57.345 56.9 56.592 56.365 56.188 56.03 55.893 55.66 54.778 54.545 55.4 55.688 55.88 55.925 56.035 56.128 56.25 56.335 56.403 56.435 56.507 56.645 56.81 56.99 57.222 57.493 57.85 58.615 58.66 59.862 60.993 61.927 60.917 61.12 61.268 61.713 62 63.362 63.182 63.705 64.622 65.075 65.845 66.89 68.277 70.505 71 72.02
124.342 124.415 124.5 124.588 124.665 124.745 124.83 124.912 124.988 125.02 125.075 125.115 125.195 125.19 125.167 125.17 125.28 126.17 126.022 125.033 125.095 125.145 125.235 125.228 125.205 125.177 125.155 125.15 125.173 125.177 125.19 125.175 125.205 125.22 125.247 125.29 125.308 125.323 125.363 125.37 125.37 125.368 125.365 125.335 125.29 125.247 125.217 125.202 125.132 125.073 125.035 124.972 124.935 124.91 124.933 124.93 124.905 124.908 124.95 124.958 124.94 124.897 124.895 124.9 124.87 124.818 124.777 124.698 124.622 124.523 124.463 124.378 124.28 124.173 124.1 124.065 124.012 123.938 123.893 123.83 123.765 123.66 123.583 123.512 123.44 123.378 123.307 123.21 123.145 123.11 123.015 122.89 122.783 122.677 122.57 122.49 122.405 122.287 122.162 122.062 122.022 121.912 121.868 121.815 121.745 121.675 121.61 121.548 121.497 121.433 121.39 121.348 121.348 121.305 121.23 121.162 121.103 121.04 120.963 120.905 120.822 120.755 120.667 120.585 120.485 120.395 120.285 120.178 120.052 119.935 119.792 119.667 119.55 119.435 119.325 119.19 119.067 118.938 118.787 118.647 118.49 118.338 118.162 117.952 117.757 117.595 117.402 117.192 117.003 116.827 116.645 116.45 116.232 116.05 115.98 115.84 115.577 115.232 115.025 114.827 114.643 114.372 114.09 113.817 113.55 113.257 112.952 112.622 112.3 111.982 111.662 111.33 110.988 110.618 110.23 109.85 109.488 109.1 108.738 108.363 108 107.628 107.245 106.868 106.485 106.09 105.708 105.325 104.933 104.55 104.16 103.705 103.265 102.875 102.518 102.152 102.053 101.327 99.295 98.195 97.257 96.683 95.87 94.558 93.29 92.145 91 90.15 88.603 87.482 90.603 88.6 85.068 85.495 85.075 83.555 83.205 82.902 82.632 82.385 82.103 81.83 81.572 81.348 81.143 80.925 80.735 80.557 80.402 80.29 80.15 80.082 80.042 80.052 80.062 80.088 80.188 80.44 80.952 81.805 82.14 83.113 83.942 84.893 86.698 87.395 87.592 88.355 89.355 89.715 90.1 90.467 90.792 91.06 91.31 91.545 91.768 91.98 92.185 92.382 92.565 92.738 92.91 93.073 93.24 93.395 93.558 93.685 93.78 93.83 93.87 93.915 93.955 93.94 93.885 93.838 93.722 93.595 93.435 93.268 93.092 92.86 92.637 92.39 92.14 91.882 91.625 91.353 91.065 90.81 90.495 90.178 89.868 89.552 89.247 88.918 88.585 88.25 87.942 87.59 87.228 86.868 86.475 86.075 85.655 85.247 84.817 84.412 83.988 83.557 83.105 82.728 82.287 81.815 81.382 80.925 80.298 79.743 79.488 79.287 78.052 77.405 76.787 76.122 75.467 74.825 74.195 73.575 72.958 72.355 71.845 71.052 70.385 69.735 69.09 68.423 67.7 67.035 66.378 65.735 65.103 64.47 63.908 63.378 62.882 62.362 61.925 61.513 61.09 60.66 60.27 59.897 59.517 59.127 58.735 58.355 58.01 57.628 57.07 56.662 56.39 56.173 55.987 55.792 55.64 55.44 54.83 54.435 55.188 55.522 55.632 55.72 55.79 55.872 55.975 56.075 56.135 56.153 56.225 56.405 56.572 56.735 56.98 57.265 57.47 59.055 59.995 59.823 61.045 62.397 60.92 60.925 61.145 61.265 61.927 62.39 62.732 63.803 64.32 64.88 66.04 66.923 68.167 69.835 71.173 71.963
124.08 124.145 124.238 124.308 124.393 124.465 124.555 124.625 124.705 124.72 124.798 124.8 124.895 124.903 124.882 124.895 124.945 125.715 125.942 124.743 124.8 124.833 124.927 124.943 124.918 124.878 124.863 124.865 124.893 124.9 124.915 124.9 124.92 124.952 124.96 125.003 125.033 125.06 125.07 125.077 125.1 125.113 125.062 125.022 125.005 124.967 124.933 124.897 124.833 124.777 124.71 124.68 124.655 124.63 124.625 124.635 124.655 124.66 124.655 124.675 124.68 124.668 124.63 124.615 124.595 124.545 124.5 124.423 124.375 124.28 124.2 124.118 124.045 123.915 123.833 123.772 123.723 123.675 123.603 123.54 123.467 123.38 123.298 123.253 123.165 123.08 122.988 122.912 122.855 122.822 122.72 122.577 122.495 122.417 122.305 122.177 122.082 121.99 121.882 121.768 121.705 121.65 121.575 121.49 121.467 121.417 121.338 121.265 121.207 121.18 121.135 121.08 121.045 121.005 120.975 120.925 120.842 120.775 120.705 120.65 120.6 120.51 120.423 120.353 120.235 120.143 120.05 119.94 119.83 119.702 119.582 119.442 119.342 119.225 119.113 118.997 118.868 118.717 118.585 118.433 118.29 118.135 117.95 117.768 117.548 117.378 117.195 116.985 116.795 116.613 116.438 116.232 116.027 115.845 115.738 115.64 115.38 115.052 114.807 114.605 114.42 114.168 113.88 113.618 113.335 113.052 112.743 112.42 112.098 111.787 111.475 111.147 110.793 110.427 110.05 109.685 109.312 108.927 108.558 108.205 107.842 107.465 107.085 106.688 106.305 105.908 105.495 105.085 104.713 104.327 103.895 103.46 103 102.647 102.315 102.29 101.945 100.31 99.215 98.603 97.202 96.57 95.02 93.78 93.448 93.007 90.73 89.34 89.52 94.228 95.697 87.382 84.802 85.568 84.478 83.24 82.89 82.577 82.327 82.065 81.785 81.515 81.3 81.092 80.902 80.667 80.49 80.302 80.155 80.045 79.87 79.805 79.775 79.772 79.745 79.805 79.91 80.195 80.735 81.562 81.863 82.548 83.497 84.53 85.35 86.938 87.55 88.555 89.695 89.605 90.027 90.387 90.68 90.945 91.188 91.41 91.638 91.863 92.073 92.275 92.448 92.625 92.8 92.965 93.12 93.28 93.423 93.548 93.615 93.637 93.685 93.725 93.73 93.702 93.647 93.527 93.417 93.292 93.137 92.982 92.78 92.575 92.378 92.13 91.89 91.625 91.34 91.113 90.842 90.537 90.21 89.915 89.592 89.272 88.95 88.618 88.292 87.975 87.645 87.28 86.917 86.535 86.143 85.717 85.317 84.903 84.488 84.107 83.675 83.275 82.863 82.45 82.035 81.588 81.158 80.725 80.152 79.55 79.165 79.145 78.853 77.598 76.747 76.1 75.455 74.775 74.195 73.56 72.938 72.325 71.667 71.015 70.327 69.675 69.018 68.402 67.59 66.912 66.247 65.622 64.948 64.342 63.725 63.188 62.695 62.192 61.772 61.355 60.923 60.482 60.072 59.688 59.312 58.948 58.562 58.138 57.79 57.38 56.865 56.5 56.175 55.938 55.787 55.592 55.373 55.302 54.932 54.1 55.028 55.397 55.465 55.498 55.533 55.58 55.692 55.802 55.865 55.872 55.98 56.143 56.315 56.533 56.765 57.007 57.245 57.63 58.82 59.61 60.963 61.118 60.818 60.882 60.715 61.865 61.557 62.478 62.705 63.323 64.43 64.865 66.253 66.725 68.147 69.717 71.205 71.93
123.807 123.878 123.96 124.042 124.115 124.192 124.275 124.338 124.412 124.435 124.51 124.518 124.588 124.61 124.598 124.592 124.632 125.322 125.827 124.488 124.525 124.548 124.618 124.643 124.628 124.588 124.573 124.583 124.588 124.605 124.637 124.63 124.637 124.677 124.695 124.72 124.745 124.77 124.803 124.787 124.8 124.807 124.808 124.762 124.725 124.695 124.665 124.613 124.545 124.5 124.427 124.375 124.35 124.355 124.355 124.333 124.345 124.375 124.402 124.42 124.385 124.375 124.375 124.338 124.312 124.27 124.217 124.158 124.077 124.005 123.935 123.84 123.732 123.643 123.552 123.488 123.427 123.368 123.305 123.26 123.182 123.09 123.025 122.96 122.863 122.807 122.738 122.622 122.55 122.488 122.43 122.287 122.18 122.085 121.963 121.868 121.792 121.68 121.605 121.495 121.412 121.378 121.298 121.223 121.17 121.08 121.037 120.973 120.933 120.868 120.84 120.808 120.783 120.747 120.692 120.637 120.573 120.518 120.448 120.39 120.333 120.262 120.17 120.092 120.005 119.913 119.805 119.7 119.6 119.485 119.335 119.232 119.12 119.003 118.903 118.783 118.647 118.515 118.37 118.23 118.088 117.925 117.738 117.56 117.365 117.167 116.982 116.777 116.575 116.393 116.2 116.03 115.815 115.615 115.445 115.405 115.177 114.885 114.587 114.37 114.192 113.952 113.665 113.405 113.125 112.825 112.522 112.213 111.905 111.58 111.257 110.93 110.595 110.232 109.86 109.497 109.135 108.75 108.385 108.02 107.663 107.3 106.908 106.512 106.118 105.705 105.275 104.875 104.475 104.057 103.637 103.152 102.77 102.417 101.952 101.545 101.417 100.04 98.615 97.605 96.765 96.318 94.357 93.162 92.247 91.325 90.41 88.868 87.552 90.592 89.075 85.132 84.94 84.875 83.298 82.882 82.56 82.27 82.025 81.755 81.478 81.232 81.003 80.8 80.598 80.372 80.193 80.015 79.868 79.753 79.61 79.53 79.495 79.488 79.478 79.52 79.637 79.98 80.695 81.118 81.525 82.265 83.27 84.077 84.83 86.56 87.533 88.725 89.5 89.542 89.948 90.238 90.525 90.785 91.018 91.272 91.512 91.738 91.952 92.17 92.35 92.51 92.695 92.853 92.982 93.122 93.25 93.347 93.395 93.435 93.48 93.493 93.49 93.475 93.405 93.31 93.177 93.037 92.882 92.71 92.518 92.31 92.107 91.868 91.628 91.363 91.095 90.838 90.565 90.262 89.945 89.637 89.302 88.99 88.665 88.34 88.022 87.69 87.365 87.012 86.618 86.232 85.842 85.43 85.045 84.662 84.235 83.85 83.46 83.052 82.655 82.257 81.845 81.415 80.99 80.592 80.105 79.372 78.887 78.708 78.605 77.35 76.69 76.077 75.45 74.802 74.19 73.553 72.915 72.26 71.61 70.92 70.393 69.675 69.073 68.26 67.458 66.757 66.132 65.457 64.792 64.19 63.555 63.037 62.52 62.033 61.607 61.162 60.735 60.3 59.893 59.522 59.143 58.768 58.362 57.948 57.59 57.222 56.747 56.32 56 55.74 55.58 55.408 55.162 55.085 54.632 53.96 54.93 55.26 55.278 55.263 55.275 55.307 55.44 55.557 55.618 55.585 55.702 55.903 56.07 56.3 56.548 56.77 56.993 57.878 58.423 59.61 60.545 61.312 60.63 60.632 61.478 60.823 61.44 61.99 62.795 63.055 63.885 64.8 65.445 66.535 68.153 70.048 70.955 71.815
123.553 123.61 123.692 123.77 123.842 123.908 123.993 124.048 124.122 124.15 124.198 124.235 124.277 124.342 124.315 124.285 124.312 124.893 125.647 124.29 124.223 124.255 124.31 124.335 124.342 124.305 124.285 124.293 124.3 124.33 124.35 124.335 124.34 124.385 124.402 124.45 124.478 124.463 124.495 124.518 124.51 124.512 124.5 124.47 124.415 124.365 124.36 124.317 124.243 124.167 124.125 124.105 124.073 124.04 124.055 124.083 124.1 124.085 124.105 124.135 124.122 124.098 124.088 124.05 124.037 123.958 123.925 123.882 123.793 123.7 123.618 123.57 123.467 123.357 123.247 123.195 123.148 123.075 123.033 122.98 122.885 122.79 122.723 122.65 122.573 122.503 122.41 122.317 122.262 122.19 122.11 121.967 121.868 121.775 121.673 121.575 121.485 121.38 121.308 121.197 121.115 121.06 120.965 120.902 120.887 120.82 120.745 120.69 120.625 120.595 120.573 120.515 120.478 120.457 120.44 120.353 120.315 120.262 120.173 120.13 120.052 119.993 119.91 119.83 119.735 119.658 119.565 119.46 119.345 119.228 119.113 119 118.9 118.785 118.673 118.55 118.432 118.3 118.15 118.012 117.865 117.713 117.515 117.35 117.15 116.945 116.762 116.565 116.342 116.152 115.978 115.8 115.585 115.39 115.177 115.11 114.952 114.698 114.368 114.128 113.963 113.74 113.458 113.18 112.887 112.595 112.298 112.012 111.7 111.368 111.04 110.715 110.38 110.03 109.67 109.305 108.94 108.57 108.198 107.835 107.478 107.103 106.7 106.305 105.893 105.467 105.042 104.632 104.205 103.812 103.365 102.897 102.533 102.143 101.455 101.342 100.312 98.973 97.887 96.927 96.158 95.62 93.467 93.03 91.61 90.655 89.872 88.43 86.725 86.035 84.63 84.15 84.768 83.925 82.855 82.49 82.177 81.92 81.69 81.432 81.16 80.918 80.71 80.518 80.31 80.077 79.9 79.738 79.592 79.47 79.348 79.257 79.208 79.18 79.175 79.228 79.38 79.84 80.665 81.202 81.23 82.07 82.795 83.83 84.495 85.795 87.857 88.685 89.395 90.265 90.185 90.033 90.368 90.637 90.878 91.145 91.39 91.61 91.82 92.03 92.21 92.385 92.55 92.697 92.83 92.96 93.07 93.162 93.205 93.247 93.27 93.27 93.257 93.213 93.13 93.037 92.91 92.768 92.63 92.46 92.272 92.075 91.848 91.625 91.382 91.11 90.85 90.59 90.312 90.005 89.692 89.397 89.06 88.745 88.42 88.103 87.78 87.455 87.08 86.69 86.325 85.963 85.585 85.205 84.835 84.452 84.042 83.713 83.312 82.893 82.505 82.115 81.72 81.287 80.875 80.462 80.005 79.305 78.69 78.385 78.22 78.037 77.235 76.19 75.488 74.81 74.16 73.537 72.878 72.213 71.527 70.86 70.168 69.488 68.82 68.152 67.342 66.63 65.988 65.3 64.632 63.997 63.385 62.868 62.32 61.845 61.415 60.97 60.522 60.115 59.717 59.335 58.938 58.567 58.153 57.728 57.377 57.037 56.658 56.138 55.798 55.522 55.388 55.225 55.022 55.29 54.048 53.68 54.75 55.055 55.062 55.035 55.002 55.045 55.178 55.3 55.35 55.347 55.472 55.64 55.827 56.055 56.292 56.528 56.802 58.36 57.495 58.915 59.32 59.118 59.323 60.17 60.463 60.783 61.188 61.7 62.553 63.19 63.92 64.53 65.548 66.345 67.465 71.15 70.207 71.45
123.292 123.36 123.442 123.518 123.58 123.643 123.723 123.765 123.827 123.857 123.9 123.94 123.98 124.035 124.022 123.985 124.005 124.15 125.425 124.122 123.91 123.93 124.003 124.033 124.055 124.022 124.01 124.018 124.02 124.037 124.062 124.077 124.065 124.113 124.132 124.145 124.188 124.192 124.205 124.21 124.21 124.213 124.19 124.177 124.135 124.08 124.045 124.007 123.952 123.895 123.805 123.775 123.757 123.765 123.772 123.79 123.818 123.81 123.805 123.83 123.833 123.8 123.765 123.743 123.755 123.698 123.64 123.548 123.488 123.428 123.34 123.247 123.152 123.065 122.957 122.878 122.825 122.768 122.72 122.673 122.583 122.53 122.42 122.323 122.26 122.177 122.095 122.003 121.918 121.855 121.807 121.665 121.55 121.463 121.36 121.257 121.175 121.085 121.01 120.882 120.785 120.732 120.675 120.605 120.55 120.505 120.46 120.393 120.325 120.283 120.255 120.228 120.198 120.18 120.152 120.092 120.037 119.98 119.92 119.86 119.787 119.7 119.65 119.555 119.49 119.385 119.275 119.2 119.118 118.993 118.882 118.765 118.67 118.562 118.43 118.325 118.208 118.073 117.95 117.777 117.632 117.473 117.312 117.125 116.93 116.73 116.548 116.32 116.13 115.92 115.738 115.57 115.365 115.167 114.958 114.838 114.747 114.488 114.145 113.885 113.695 113.503 113.23 112.932 112.643 112.363 112.08 111.785 111.475 111.135 110.823 110.493 110.155 109.812 109.463 109.11 108.738 108.36 107.98 107.628 107.268 106.882 106.485 106.075 105.673 105.247 104.817 104.35 103.933 103.503 103.045 102.605 102.232 101.755 101.175 101.033 99.717 98.613 97.48 95.988 94.982 94.323 93.12 91.787 90.812 90.592 89.93 87.533 85.92 84.875 84.07 83.792 88.952 83.155 82.452 82.122 81.835 81.58 81.35 81.107 80.84 80.62 80.402 80.21 80.005 79.802 79.635 79.455 79.333 79.21 79.065 78.988 78.948 78.917 78.912 78.97 79.14 82.467 81.23 80.967 81.018 81.835 83.202 84.387 84.303 85.253 85.923 87.533 89.228 90.003 90.34 89.8 90.155 90.455 90.72 90.963 91.232 91.47 91.698 91.9 92.08 92.243 92.412 92.555 92.685 92.8 92.9 92.98 93.033 93.07 93.095 93.088 93.062 93.015 92.93 92.838 92.708 92.573 92.412 92.25 92.062 91.868 91.64 91.432 91.185 90.92 90.665 90.405 90.122 89.812 89.505 89.197 88.823 88.507 88.183 87.84 87.5 87.155 86.8 86.448 86.115 85.76 85.39 85.025 84.7 84.318 83.945 83.562 83.183 82.802 82.423 82.025 81.625 81.217 80.808 80.345 79.89 79.29 78.55 78.185 77.908 78.153 77.78 76.713 75.51 74.807 74.12 73.467 72.807 72.143 71.415 70.753 70.037 69.345 68.647 67.93 67.238 66.493 65.812 65.118 64.46 63.818 63.213 62.662 62.13 61.655 61.215 60.76 60.338 59.917 59.515 59.138 58.728 58.338 57.917 57.51 57.158 56.783 56.482 55.963 55.62 55.338 55.2 55.045 54.908 55.27 54.472 53.612 54.643 54.868 54.835 54.798 54.775 54.807 54.917 55.035 55.103 55.095 55.205 55.382 55.592 55.845 56.08 56.283 56.555 57.792 58.252 58.342 58.34 59.053 59.428 60.487 60.03 60.568 60.985 61.64 62.275 63.262 63.482 64.287 65.372 66.255 67.012 68.107 69.38 70.662
123.035 123.09 123.177 123.25 123.305 123.37 123.46 123.495 123.548 123.57 123.585 123.64 123.665 123.732 123.73 123.695 123.695 123.825 124.868 124.053 123.625 123.622 123.717 123.757 123.762 123.74 123.73 123.738 123.74 123.757 123.78 123.798 123.772 123.795 123.835 123.86 123.885 123.895 123.897 123.917 123.895 123.897 123.9 123.865 123.8 123.77 123.735 123.685 123.632 123.575 123.505 123.497 123.447 123.455 123.445 123.475 123.485 123.495 123.518 123.522 123.512 123.512 123.482 123.452 123.408 123.368 123.333 123.253 123.195 123.107 123.02 122.948 122.855 122.762 122.67 122.58 122.53 122.45 122.432 122.357 122.275 122.195 122.107 122.037 121.95 121.85 121.772 121.685 121.6 121.548 121.49 121.357 121.232 121.137 121.04 120.95 120.865 120.755 120.675 120.585 120.497 120.427 120.342 120.29 120.26 120.23 120.158 120.075 120.025 119.98 119.955 119.895 119.912 119.885 119.848 119.81 119.768 119.715 119.622 119.555 119.507 119.42 119.35 119.3 119.228 119.132 119.033 118.948 118.848 118.75 118.63 118.53 118.423 118.327 118.205 118.105 117.967 117.83 117.7 117.555 117.42 117.247 117.07 116.902 116.717 116.515 116.315 116.118 115.917 115.692 115.507 115.312 115.137 114.923 114.735 114.598 114.535 114.272 113.96 113.655 113.427 113.235 112.985 112.688 112.402 112.125 111.85 111.555 111.243 110.91 110.585 110.255 109.927 109.598 109.25 108.882 108.507 108.143 107.785 107.415 107.05 106.665 106.257 105.85 105.44 105.012 104.545 104.105 103.66 103.177 102.732 102.295 101.875 102.185 100.475 99.625 100.18 98.505 96.488 95.04 94.152 93.137 92.08 90.965 89.96 88.865 87.848 86.66 85.04 84.298 83.637 83.535 86.068 83.7 82.077 81.755 81.488 81.26 81.037 80.777 80.52 80.312 80.11 79.918 79.725 79.52 79.355 79.183 79.067 78.925 78.775 78.71 78.667 78.655 78.643 78.71 78.878 79.155 80.41 81.11 80.827 82.003 83.615 84.305 85.253 85.298 86.028 87.505 88.635 89.068 89.68 89.548 89.943 90.255 90.515 90.787 91.048 91.295 91.533 91.757 91.938 92.105 92.265 92.405 92.537 92.665 92.757 92.832 92.885 92.923 92.93 92.915 92.897 92.853 92.765 92.673 92.557 92.415 92.275 92.105 91.915 91.723 91.505 91.265 91.022 90.755 90.482 90.202 89.902 89.6 89.28 88.925 88.565 88.307 87.938 87.607 87.265 86.952 86.62 86.272 85.95 85.605 85.28 84.94 84.585 84.213 83.825 83.452 83.072 82.705 82.327 81.928 81.52 81.12 80.692 80.238 79.795 79.272 78.533 78.007 77.625 77.515 77.518 77.27 75.723 74.75 74.075 73.425 72.702 72.022 71.302 70.652 69.91 69.177 68.478 67.853 67.198 66.292 65.598 64.92 64.25 63.575 63.01 62.44 61.908 61.443 60.99 60.555 60.115 59.702 59.327 58.92 58.513 58.115 57.715 57.298 56.945 56.577 56.285 55.78 55.43 55.175 55.037 54.875 54.775 55.353 55.292 56.115 54.485 54.698 54.635 54.55 54.515 54.562 54.675 54.778 54.847 54.855 54.97 55.138 55.335 55.595 55.838 56.06 56.305 56.595 57.112 57.815 58.908 59.185 59.237 60.342 59.448 60.338 60.945 61.818 62.057 62.88 64.225 63.908 65.188 66.055 66.868 67.683 68.768 69.613
122.775 122.835 122.915 122.99 123.04 123.105 123.177 123.213 123.26 123.28 123.285 123.34 123.35 123.41 123.432 123.415 123.39 123.512 124.565 124.053 123.37 123.315 123.395 123.47 123.482 123.465 123.46 123.473 123.47 123.475 123.505 123.525 123.512 123.52 123.537 123.562 123.585 123.592 123.58 123.583 123.58 123.573 123.573 123.542 123.497 123.432 123.387 123.372 123.332 123.255 123.195 123.198 123.155 123.147 123.153 123.16 123.182 123.177 123.188 123.205 123.21 123.18 123.145 123.158 123.115 123.08 123.02 122.925 122.882 122.79 122.71 122.645 122.557 122.45 122.35 122.272 122.22 122.152 122.098 122.033 121.975 121.895 121.777 121.702 121.64 121.545 121.48 121.378 121.268 121.225 121.145 121.01 120.92 120.815 120.705 120.607 120.537 120.447 120.365 120.245 120.155 120.115 120.052 119.993 119.938 119.9 119.85 119.795 119.723 119.685 119.67 119.612 119.59 119.587 119.555 119.507 119.46 119.387 119.353 119.292 119.232 119.135 119.067 119.015 118.948 118.857 118.772 118.695 118.595 118.497 118.387 118.272 118.175 118.075 117.978 117.857 117.732 117.62 117.46 117.308 117.167 117.012 116.85 116.65 116.475 116.283 116.065 115.875 115.69 115.463 115.287 115.085 114.908 114.692 114.49 114.31 114.235 114.033 113.762 113.435 113.173 112.963 112.738 112.45 112.162 111.885 111.613 111.307 110.993 110.665 110.338 110.012 109.697 109.363 109.02 108.655 108.298 107.938 107.553 107.18 106.815 106.43 106.012 105.61 105.19 104.728 104.287 103.833 103.36 102.908 102.433 101.97 101.497 101.31 100.06 98.963 98.408 97.21 95.673 94.158 93.295 92.353 91.378 90.222 89.132 87.943 86.75 86.098 85.26 84.3 83.238 83.355 83.515 82.103 81.7 81.42 81.16 80.933 80.698 80.458 80.225 80 79.81 79.622 79.438 79.228 79.075 78.933 78.795 78.647 78.497 78.423 78.405 78.397 78.395 78.455 78.64 78.895 81.423 81.24 80.675 81.408 82.897 84.34 84.548 84.98 85.65 87.07 88.072 88.973 89.315 89.255 89.653 90.02 90.3 90.588 90.868 91.147 91.375 91.613 91.802 91.973 92.137 92.28 92.403 92.518 92.615 92.7 92.75 92.77 92.792 92.795 92.765 92.708 92.625 92.515 92.395 92.253 92.115 91.94 91.74 91.55 91.327 91.088 90.845 90.562 90.27 89.995 89.72 89.41 89.03 88.677 88.438 88.092 87.757 87.425 87.098 86.785 86.463 86.135 85.805 85.48 85.162 84.823 84.473 84.115 83.74 83.372 83.003 82.622 82.238 81.845 81.423 81.012 80.58 80.137 79.7 79.205 78.447 77.757 77.488 77.183 77.085 76.812 76.213 74.995 73.985 73.32 72.597 71.895 71.158 70.482 69.755 69.005 68.283 67.55 66.82 66.077 65.372 64.7 64.018 63.34 62.763 62.173 61.655 61.197 60.75 60.327 59.882 59.487 59.11 58.693 58.27 57.868 57.472 57.068 56.73 56.335 56.07 55.56 55.245 54.98 54.855 54.71 54.533 55.165 54.878 54.342 54.248 54.502 54.467 54.345 54.302 54.335 54.458 54.537 54.58 54.612 54.737 54.875 55.08 55.31 55.56 55.807 56.075 56.342 56.607 57.017 58.44 58.167 59.43 59.595 59.272 60 60.75 61.355 61.985 62.74 63.78 64.062 64.755 66.35 66.817 67.518 68.312 69.19
122.5 122.577 122.637 122.725 122.775 122.848 122.902 122.938 122.98 123 122.985 123.045 123.05 123.1 123.137 123.12 123.09 123.17 124.285 123.995 123.062 123.02 123.06 123.185 123.208 123.21 123.167 123.185 123.188 123.193 123.223 123.225 123.24 123.232 123.257 123.255 123.272 123.275 123.268 123.255 123.257 123.245 123.253 123.198 123.152 123.125 123.072 123.045 123.01 122.945 122.912 122.87 122.833 122.82 122.825 122.827 122.855 122.872 122.88 122.88 122.878 122.863 122.845 122.81 122.783 122.75 122.688 122.628 122.577 122.493 122.402 122.315 122.235 122.147 122.048 121.95 121.882 121.842 121.783 121.73 121.65 121.565 121.467 121.397 121.312 121.19 121.118 121.04 120.93 120.887 120.84 120.723 120.562 120.455 120.375 120.275 120.18 120.088 120.012 119.938 119.832 119.785 119.692 119.645 119.607 119.58 119.54 119.47 119.4 119.372 119.342 119.32 119.29 119.283 119.238 119.213 119.16 119.1 119.033 118.982 118.942 118.848 118.798 118.75 118.682 118.613 118.515 118.44 118.348 118.235 118.143 118.03 117.93 117.835 117.732 117.628 117.495 117.345 117.207 117.065 116.915 116.775 116.575 116.405 116.223 116.035 115.825 115.645 115.452 115.235 115.037 114.848 114.668 114.467 114.255 114.053 113.923 113.795 113.55 113.238 112.925 112.702 112.467 112.22 111.92 111.622 111.345 111.058 110.747 110.423 110.088 109.755 109.44 109.122 108.78 108.42 108.068 107.695 107.315 106.935 106.562 106.188 105.785 105.372 104.927 104.475 104.058 103.575 103.098 102.598 102.13 101.682 101.18 100.312 99.7 98.167 97.215 95.662 94.56 93.94 92.535 91.647 90.555 90.092 89.012 87.935 88.238 85.243 84.372 83.505 82.957 83.393 82.56 81.745 81.36 81.08 80.833 80.607 80.375 80.137 79.92 79.708 79.52 79.327 79.15 78.967 78.81 78.66 78.525 78.385 78.257 78.173 78.137 78.145 78.137 78.202 78.448 78.713 81.262 81.283 80.5 81.382 83.338 83.59 84.287 84.882 85.692 86.3 87.307 88.705 88.938 88.997 89.395 89.783 90.1 90.382 90.665 90.93 91.185 91.402 91.613 91.787 91.963 92.11 92.235 92.345 92.465 92.533 92.577 92.622 92.632 92.635 92.605 92.548 92.45 92.333 92.202 92.062 91.902 91.728 91.555 91.348 91.125 90.878 90.62 90.35 90.088 89.827 89.557 89.225 88.893 88.577 88.205 87.912 87.647 87.268 86.955 86.655 86.348 86.025 85.708 85.387 85.075 84.745 84.385 84.027 83.66 83.29 82.912 82.542 82.152 81.775 81.35 80.915 80.493 80.048 79.583 79.085 78.402 77.605 77.215 76.91 76.82 76.663 76.253 75.683 73.955 73.342 72.467 71.695 71.003 70.28 69.54 68.798 68.08 67.32 66.575 65.832 65.125 64.425 63.722 63.088 62.498 61.935 61.427 60.963 60.525 60.092 59.653 59.257 58.865 58.467 58.025 57.635 57.245 56.855 56.48 56.095 55.83 55.327 55.018 54.792 54.653 54.507 54.312 54.555 55.073 53.575 54.458 54.357 54.255 54.123 54.085 54.11 54.222 54.335 54.382 54.37 54.478 54.622 54.807 55.048 55.312 55.54 55.825 56.142 56.403 56.71 57.458 58.675 58.84 59.862 59.88 61.37 60.615 61.83 61.865 62.608 63.595 64.302 64.65 65.868 66.777 67.573 68.3 69.115
122.243 122.317 122.387 122.452 122.52 122.583 122.628 122.673 122.69 122.717 122.695 122.753 122.755 122.808 122.845 122.823 122.808 122.845 123.895 124.075 122.805 122.75 122.78 122.893 122.925 122.912 122.9 122.905 122.908 122.915 122.938 122.947 122.947 122.942 122.958 122.95 122.942 122.97 122.96 122.948 122.92 122.9 122.905 122.885 122.825 122.787 122.745 122.728 122.692 122.622 122.603 122.585 122.52 122.52 122.525 122.525 122.533 122.533 122.545 122.552 122.543 122.53 122.512 122.488 122.455 122.425 122.378 122.298 122.235 122.147 122.088 122.015 121.925 121.815 121.732 121.645 121.577 121.51 121.432 121.393 121.34 121.232 121.128 121.048 120.978 120.865 120.777 120.692 120.618 120.545 120.49 120.395 120.257 120.13 120.012 119.917 119.84 119.768 119.677 119.585 119.48 119.455 119.382 119.32 119.285 119.26 119.205 119.147 119.092 119.082 119.045 118.985 118.965 118.965 118.938 118.893 118.833 118.795 118.747 118.692 118.643 118.58 118.533 118.48 118.41 118.348 118.257 118.19 118.09 117.995 117.88 117.775 117.675 117.573 117.472 117.357 117.228 117.098 116.955 116.812 116.668 116.52 116.342 116.16 115.982 115.795 115.59 115.402 115.183 115.007 114.802 114.59 114.412 114.21 114.022 113.807 113.613 113.5 113.295 113.03 112.673 112.44 112.202 111.963 111.668 111.37 111.083 110.802 110.488 110.16 109.83 109.507 109.193 108.87 108.537 108.18 107.81 107.442 107.08 106.7 106.323 105.938 105.53 105.12 104.682 104.265 103.775 103.323 102.82 102.305 101.847 101.312 100.43 99.665 98.505 97.752 96.262 95.052 94.393 93.12 92.022 91.05 90.06 91.228 93.09 87.705 85.985 84.618 84.06 83.073 82.585 83.5 82.268 81.35 81.02 80.74 80.507 80.28 80.05 79.818 79.607 79.402 79.235 79.052 78.872 78.683 78.527 78.385 78.265 78.125 77.995 77.91 77.887 77.905 77.9 77.963 78.21 78.713 79.753 80.615 80.36 81.5 83.308 83.24 83.978 84.868 86.007 86.48 87.345 88.135 88.64 88.79 89.205 89.572 89.917 90.232 90.503 90.772 91.025 91.253 91.455 91.622 91.81 91.973 92.085 92.217 92.312 92.387 92.433 92.455 92.488 92.478 92.46 92.393 92.287 92.177 92.062 91.92 91.755 91.597 91.402 91.198 90.982 90.728 90.475 90.21 89.938 89.677 89.39 89.092 88.755 88.44 88.09 87.755 87.48 87.152 86.85 86.558 86.257 85.952 85.637 85.353 85.037 84.723 84.368 83.995 83.625 83.255 82.88 82.497 82.083 81.69 81.26 80.823 80.4 79.92 79.405 78.92 78.26 77.497 76.895 76.613 76.45 75.99 75.173 74.647 74.232 75.97 73.238 71.588 70.848 70.092 69.347 68.637 67.86 67.085 66.345 65.615 64.857 64.162 63.463 62.842 62.217 61.667 61.175 60.71 60.28 59.84 59.403 59.005 58.62 58.198 57.767 57.388 57.01 56.618 56.237 55.847 55.597 55.092 54.787 54.583 54.458 54.3 54.07 53.958 54.627 53.18 54.565 54.272 54.08 53.915 53.885 53.938 54.025 54.12 54.198 54.167 54.208 54.372 54.565 54.792 55.072 55.323 55.592 55.943 56.217 56.497 56.89 58.035 60.095 59.305 59.955 60.702 60.82 61.08 61.783 62.59 63.458 64.575 64.85 65.645 66.723 67.585 68.385 69.293
121.965 122.06 122.118 122.2 122.268 122.32 122.353 122.39 122.417 122.435 122.408 122.455 122.46 122.518 122.555 122.535 122.515 122.55 123.368 124.22 122.573 122.488 122.507 122.622 122.625 122.625 122.628 122.625 122.645 122.652 122.673 122.69 122.685 122.67 122.67 122.67 122.678 122.652 122.63 122.613 122.605 122.58 122.573 122.573 122.52 122.482 122.423 122.41 122.405 122.327 122.28 122.265 122.235 122.225 122.217 122.202 122.235 122.243 122.225 122.217 122.21 122.213 122.188 122.15 122.14 122.09 122.022 121.97 121.92 121.838 121.762 121.658 121.588 121.505 121.423 121.31 121.23 121.162 121.115 121.062 121.003 120.9 120.808 120.735 120.662 120.573 120.46 120.35 120.277 120.208 120.158 120.04 119.865 119.757 119.683 119.585 119.49 119.372 119.308 119.223 119.143 119.12 119.045 119.007 118.923 118.89 118.905 118.838 118.745 118.71 118.713 118.682 118.667 118.613 118.6 118.577 118.54 118.515 118.452 118.395 118.36 118.308 118.243 118.192 118.143 118.073 117.993 117.91 117.82 117.72 117.61 117.503 117.395 117.31 117.202 117.088 116.97 116.82 116.702 116.55 116.402 116.26 116.107 115.912 115.737 115.54 115.353 115.15 114.948 114.76 114.553 114.35 114.183 113.988 113.783 113.557 113.338 113.217 113.045 112.783 112.432 112.167 111.923 111.702 111.403 111.115 110.823 110.535 110.225 109.902 109.583 109.26 108.94 108.628 108.29 107.932 107.575 107.202 106.83 106.45 106.077 105.71 105.29 104.853 104.465 103.99 103.533 103.07 102.527 102.01 101.575 100.823 99.868 99.29 99.583 98.132 95.552 94.452 93.512 92.478 91.482 90.512 90.345 91.495 92.66 86.615 85.177 84.438 83.557 82.693 82.325 84.655 83.878 81.015 80.68 80.427 80.197 79.963 79.728 79.495 79.31 79.118 78.94 78.76 78.567 78.387 78.238 78.115 77.993 77.865 77.685 77.625 77.645 77.652 77.652 77.732 77.98 78.363 79.037 80.015 80.205 81.357 82.68 82.945 83.825 84.895 85.637 86.582 87.37 88.162 88.77 88.637 89.05 89.433 89.79 90.125 90.395 90.655 90.902 91.128 91.302 91.49 91.667 91.823 91.95 92.042 92.14 92.23 92.287 92.335 92.345 92.317 92.292 92.243 92.152 92.065 91.935 91.787 91.635 91.458 91.268 91.058 90.827 90.568 90.315 90.048 89.8 89.527 89.255 88.952 88.635 88.317 88.02 87.68 87.395 87.105 86.817 86.535 86.253 85.955 85.67 85.355 85.035 84.715 84.348 83.99 83.585 83.192 82.8 82.4 81.995 81.58 81.137 80.673 80.21 79.73 79.205 78.65 78.107 77.345 76.588 76.33 76.1 75.677 74.84 74.415 73.775 73.452 72.967 71.92 71.382 70.795 69.837 68.58 68.147 67.595 66.745 66.103 64.78 63.912 63.22 62.58 61.965 61.432 60.938 60.48 60.025 59.6 59.165 58.75 58.373 57.94 57.53 57.158 56.775 56.37 55.995 55.603 55.322 54.82 54.56 54.38 54.25 54.077 53.827 53.572 54.287 52.365 54.565 54.103 53.905 53.76 53.7 53.77 53.85 53.923 53.965 53.915 53.975 54.143 54.338 54.552 54.805 55.06 55.335 55.658 55.98 56.28 56.645 57.628 58.537 59.487 60.062 60.037 60.93 61.14 61.695 62.472 63.335 64.635 65.132 65.47 66.823 68.438 68.515 69.34
121.71 121.79 121.868 121.948 122.01 122.06 122.083 122.12 122.143 122.155 122.13 122.17 122.19 122.21 122.265 122.255 122.23 122.255 122.88 124.115 122.62 122.235 122.26 122.402 122.4 122.37 122.39 122.402 122.39 122.393 122.412 122.42 122.405 122.402 122.39 122.375 122.372 122.37 122.35 122.315 122.287 122.275 122.25 122.238 122.217 122.18 122.14 122.098 122.088 122.037 121.997 121.965 121.917 121.927 121.935 121.92 121.92 121.92 121.92 121.92 121.91 121.885 121.863 121.815 121.785 121.743 121.702 121.647 121.562 121.485 121.43 121.35 121.253 121.158 121.085 120.993 120.927 120.85 120.805 120.755 120.665 120.59 120.503 120.395 120.3 120.21 120.11 120.042 119.95 119.845 119.787 119.702 119.562 119.43 119.32 119.23 119.13 119.045 118.975 118.885 118.807 118.777 118.688 118.65 118.622 118.568 118.537 118.48 118.438 118.41 118.387 118.357 118.335 118.305 118.308 118.262 118.228 118.182 118.15 118.097 118.088 118.02 117.955 117.927 117.87 117.795 117.717 117.64 117.54 117.445 117.335 117.225 117.122 117.027 116.93 116.823 116.715 116.552 116.425 116.283 116.147 115.993 115.827 115.673 115.48 115.283 115.092 114.897 114.72 114.525 114.3 114.105 113.905 113.747 113.527 113.302 113.098 112.912 112.777 112.55 112.205 111.89 111.643 111.435 111.152 110.865 110.567 110.257 109.965 109.662 109.333 109.003 108.685 108.368 108.035 107.675 107.31 106.952 106.588 106.202 105.83 105.448 105.035 104.632 104.19 103.73 103.292 102.8 102.255 101.74 101.21 100.305 99.41 99.17 98.4 96.283 95.077 94.168 93.45 92.03 90.933 89.882 88.967 88.145 88.557 86.902 84.823 83.865 83.125 82.442 82.073 87.592 89.835 80.72 80.372 80.118 79.895 79.675 79.433 79.202 79.01 78.835 78.655 78.475 78.298 78.113 77.963 77.855 77.73 77.585 77.473 77.417 77.41 77.393 77.417 77.49 77.723 78.14 78.785 79.438 80.055 80.985 82.23 82.707 83.665 84.845 85.658 86.562 87.38 88.083 89.13 88.675 88.938 89.357 89.717 90.042 90.322 90.57 90.805 91.045 91.235 91.415 91.575 91.71 91.84 91.938 92.033 92.135 92.192 92.213 92.228 92.19 92.165 92.115 92.027 91.91 91.802 91.655 91.488 91.308 91.125 90.92 90.693 90.445 90.208 89.96 89.723 89.458 89.19 88.893 88.583 88.265 87.97 87.673 87.372 87.09 86.808 86.527 86.247 85.948 85.632 85.327 85.007 84.673 84.285 83.89 83.48 83.06 82.647 82.257 81.815 81.385 80.94 80.463 79.993 79.5 78.973 78.42 77.88 77.175 76.353 75.897 75.705 75.543 75.395 74.632 75.135 73.655 72.548 71.447 71.192 70.29 69.572 68.65 68.755 68.035 67.298 66.393 64.82 63.603 62.932 62.323 61.73 61.202 60.715 60.23 59.785 59.335 58.912 58.51 58.112 57.688 57.287 56.925 56.55 56.14 55.76 55.342 55.04 54.548 54.323 54.173 54.028 53.82 53.548 53.202 53.195 52.917 54.685 53.76 53.643 53.537 53.522 53.592 53.643 53.725 53.743 53.68 53.755 53.927 54.115 54.323 54.557 54.775 55.1 55.395 55.745 56.095 56.423 57.215 58.595 58.653 58.908 59.853 60.317 62.338 61.722 62.44 64.45 64.568 65.365 65.54 66.49 67.607 68.755 69.368
121.433 121.53 121.615 121.688 121.753 121.78 121.802 121.845 121.875 121.878 121.838 121.865 121.912 121.948 121.985 121.975 121.97 121.978 122.387 123.92 122.57 121.952 122.005 122.183 122.205 122.18 122.17 122.18 122.17 122.178 122.192 122.2 122.177 122.152 122.14 122.128 122.113 122.082 122.07 122.048 121.997 121.978 121.955 121.945 121.902 121.878 121.857 121.825 121.812 121.738 121.723 121.71 121.685 121.66 121.632 121.635 121.643 121.613 121.615 121.598 121.567 121.548 121.54 121.48 121.463 121.405 121.335 121.31 121.24 121.165 121.083 121.01 120.925 120.84 120.747 120.66 120.57 120.512 120.442 120.408 120.345 120.275 120.177 120.07 119.988 119.923 119.792 119.692 119.6 119.51 119.438 119.34 119.2 119.082 118.975 118.897 118.792 118.695 118.63 118.515 118.465 118.455 118.35 118.312 118.255 118.22 118.215 118.165 118.107 118.055 118.035 118.035 118 118.005 117.978 117.932 117.885 117.855 117.82 117.825 117.775 117.71 117.655 117.63 117.592 117.505 117.45 117.375 117.27 117.167 117.062 116.945 116.845 116.755 116.64 116.53 116.425 116.287 116.155 116.018 115.885 115.73 115.583 115.415 115.193 115.015 114.835 114.635 114.445 114.275 114.065 113.865 113.667 113.48 113.278 113.045 112.827 112.615 112.475 112.305 111.973 111.622 111.372 111.158 110.895 110.605 110.308 110.012 109.695 109.393 109.06 108.732 108.41 108.083 107.757 107.41 107.055 106.708 106.335 105.96 105.585 105.188 104.768 104.375 103.935 103.497 103.043 102.515 101.96 101.485 100.823 99.96 99.062 98.775 97.132 95.692 94.745 94.22 94.55 91.71 90.482 89.518 88.562 87.67 87.875 85.39 84.452 83.613 82.848 82.037 81.812 82.853 85.393 80.408 80.095 79.848 79.615 79.4 79.158 78.92 78.735 78.552 78.368 78.205 78.02 77.84 77.715 77.59 77.488 77.378 77.3 77.217 77.173 77.137 77.158 77.257 77.47 77.863 78.78 79.26 79.973 80.975 81.87 82.678 84.062 84.537 85.647 86.493 87.885 87.908 89.173 88.84 88.817 89.25 89.605 89.938 90.208 90.465 90.702 90.932 91.143 91.323 91.475 91.622 91.732 91.833 91.935 92.02 92.065 92.088 92.098 92.072 92.037 91.997 91.89 91.783 91.673 91.533 91.39 91.22 91.048 90.84 90.625 90.393 90.135 89.89 89.635 89.372 89.105 88.805 88.507 88.2 87.92 87.622 87.327 87.055 86.755 86.482 86.202 85.893 85.572 85.262 84.918 84.558 84.162 83.77 83.36 82.915 82.485 82.065 81.63 81.167 80.715 80.26 79.75 79.243 78.713 78.163 77.667 77 76.195 75.51 75.277 75.4 74.378 73.875 75.11 72.853 73.512 72.095 71.115 70.527 69.955 69.363 68.443 67.537 67.143 66.135 64.045 63.322 62.673 62.037 61.485 60.952 60.442 59.982 59.53 59.088 58.647 58.252 57.86 57.435 57.03 56.685 56.345 55.915 55.518 55.1 54.737 54.287 54.07 53.908 53.745 53.487 53.19 52.915 54.07 53.548 54.287 53.465 53.298 53.208 53.217 53.28 53.355 53.425 53.46 53.425 53.53 53.71 53.88 54.085 54.292 54.53 54.87 55.175 55.522 55.88 56.233 56.915 58.342 58.542 58.575 59.775 60.175 61.215 61.567 63.158 63.158 64.408 65.557 65.715 66.375 67.697 68.56 68.7
121.175 121.268 121.353 121.432 121.495 121.518 121.555 121.592 121.607 121.61 121.577 121.573 121.607 121.673 121.68 121.688 121.705 121.717 121.997 123.478 122.527 121.675 121.74 121.973 122.003 121.975 121.952 121.943 121.955 121.965 121.975 121.947 121.955 121.943 121.94 121.908 121.89 121.863 121.805 121.775 121.757 121.72 121.673 121.665 121.635 121.632 121.603 121.555 121.548 121.525 121.48 121.445 121.42 121.423 121.415 121.387 121.397 121.355 121.335 121.29 121.283 121.232 121.19 121.137 121.13 121.098 121.02 120.947 120.885 120.823 120.743 120.66 120.56 120.503 120.423 120.325 120.253 120.198 120.137 120.08 120.01 119.942 119.875 119.768 119.647 119.562 119.465 119.368 119.265 119.158 119.085 118.995 118.875 118.723 118.647 118.555 118.445 118.33 118.285 118.22 118.132 118.085 117.988 117.973 117.95 117.885 117.857 117.827 117.787 117.73 117.715 117.692 117.66 117.652 117.637 117.607 117.603 117.537 117.5 117.488 117.47 117.41 117.375 117.33 117.292 117.225 117.158 117.08 116.982 116.885 116.765 116.645 116.542 116.458 116.35 116.245 116.115 116.005 115.868 115.705 115.6 115.438 115.287 115.122 114.897 114.75 114.575 114.368 114.188 114.015 113.798 113.582 113.41 113.195 113 112.79 112.562 112.335 112.165 112.007 111.732 111.365 111.09 110.875 110.63 110.335 110.025 109.732 109.432 109.113 108.787 108.463 108.125 107.815 107.485 107.143 106.8 106.45 106.07 105.685 105.312 104.928 104.518 104.103 103.67 103.247 102.783 102.257 101.71 101.265 100.505 99.565 99.095 97.872 96.54 95.948 94.717 93.575 92.865 91.223 90.098 89.085 88.295 87.595 86.395 85.045 84.28 84.535 82.542 81.787 81.6 81.945 82.302 80.14 79.823 79.575 79.335 79.13 78.878 78.65 78.452 78.275 78.11 77.94 77.75 77.575 77.467 77.327 77.247 77.145 77.058 76.967 76.938 76.895 76.905 76.985 77.2 77.592 78.382 79.003 79.902 80.815 81.908 82.628 83.605 85.228 85.573 86.575 87.675 88.592 89.035 89.412 88.765 89.083 89.452 89.8 90.073 90.333 90.555 90.8 91.005 91.18 91.35 91.497 91.61 91.71 91.825 91.893 91.952 91.978 91.963 91.935 91.895 91.85 91.77 91.682 91.567 91.44 91.268 91.083 90.915 90.707 90.488 90.245 90.003 89.757 89.52 89.253 88.975 88.68 88.385 88.115 87.827 87.533 87.24 86.96 86.682 86.415 86.118 85.795 85.48 85.147 84.785 84.412 84 83.583 83.135 82.677 82.243 81.802 81.365 80.893 80.44 79.982 79.507 78.993 78.43 77.908 77.39 76.807 76.07 75.255 74.945 74.99 74.262 74.305 74.585 72.753 72.232 71.295 70.735 70.222 69.448 68.818 67.573 67.36 66.812 65.147 63.765 63.058 62.43 61.8 61.232 60.705 60.202 59.73 59.28 58.842 58.403 58.018 57.625 57.21 56.812 56.47 56.097 55.683 55.268 54.862 54.493 54.052 53.833 53.655 53.438 53.165 52.925 52.9 54.055 53.495 54.22 53.41 52.98 52.923 52.945 52.982 53.04 53.065 53.09 53.16 53.287 53.46 53.623 53.842 54.08 54.305 54.643 54.923 55.283 55.612 55.99 56.605 58.493 58.427 58.408 59.537 60.195 60.78 62.132 62.198 63.045 64.262 65.757 65.9 66.095 67 68.042 68.575
120.915 121.015 121.098 121.173 121.225 121.257 121.29 121.32 121.34 121.355 121.333 121.298 121.363 121.387 121.397 121.405 121.435 121.435 121.655 122.855 122.152 121.39 121.467 121.798 121.815 121.805 121.762 121.728 121.73 121.728 121.735 121.732 121.708 121.702 121.685 121.662 121.625 121.605 121.565 121.545 121.51 121.488 121.478 121.433 121.385 121.368 121.338 121.317 121.298 121.262 121.225 121.208 121.192 121.178 121.177 121.152 121.12 121.107 121.07 121.04 120.99 120.915 120.912 120.868 120.812 120.75 120.69 120.65 120.573 120.488 120.44 120.368 120.26 120.175 120.107 120.012 119.932 119.865 119.805 119.768 119.72 119.643 119.537 119.458 119.363 119.253 119.145 119.015 118.908 118.8 118.707 118.645 118.533 118.368 118.272 118.188 118.103 117.997 117.908 117.838 117.792 117.732 117.662 117.607 117.57 117.52 117.51 117.49 117.448 117.412 117.36 117.338 117.302 117.33 117.31 117.283 117.253 117.215 117.198 117.177 117.135 117.107 117.048 117.02 117 116.943 116.86 116.783 116.698 116.577 116.438 116.338 116.245 116.137 116.052 115.94 115.825 115.707 115.55 115.403 115.3 115.132 114.993 114.812 114.622 114.463 114.272 114.092 113.895 113.728 113.542 113.312 113.115 112.905 112.708 112.51 112.272 112.05 111.838 111.678 111.435 111.085 110.8 110.577 110.355 110.048 109.75 109.448 109.145 108.842 108.522 108.182 107.845 107.533 107.228 106.888 106.537 106.17 105.802 105.425 105.05 104.683 104.24 103.835 103.427 102.997 102.52 102.003 101.5 101.033 100.118 99.272 98.338 97.675 97.037 95.095 94.303 93.473 92.427 91.17 89.787 88.738 88.035 87.542 86.075 84.76 83.963 83.02 82.255 81.52 81.428 84.897 83.385 79.875 79.555 79.3 79.065 78.86 78.603 78.378 78.198 78.015 77.838 77.68 77.49 77.33 77.228 77.105 77.022 76.915 76.827 76.743 76.695 76.675 76.67 76.73 76.935 77.312 78.193 78.923 79.345 80.457 81.622 82.387 83.677 84.545 86.257 87.923 87.522 88.315 88.777 89.098 88.738 88.908 89.283 89.632 89.9 90.155 90.423 90.662 90.865 91.053 91.213 91.347 91.465 91.57 91.675 91.762 91.812 91.823 91.82 91.783 91.747 91.69 91.603 91.488 91.365 91.232 91.07 90.895 90.705 90.507 90.302 90.088 89.845 89.607 89.355 89.11 88.842 88.565 88.292 88.007 87.725 87.44 87.147 86.872 86.573 86.29 85.973 85.645 85.305 84.948 84.57 84.16 83.723 83.275 82.84 82.393 81.955 81.505 81.04 80.568 80.135 79.908 79.688 78.985 78.287 77.613 77.037 76.577 75.895 75.1 74.647 74.662 75.6 76.425 77.372 76.363 72.535 71.125 70.448 69.95 69.107 68.52 67.485 66.842 66.568 64.19 63.478 62.812 62.175 61.56 60.993 60.443 59.955 59.482 59.033 58.585 58.167 57.785 57.393 56.985 56.625 56.257 55.878 55.458 55.07 54.692 54.393 53.91 53.62 53.44 53.197 52.923 52.69 52.628 53.743 52.765 53.438 53.077 52.673 52.647 52.67 52.7 52.743 52.765 52.785 52.89 53.048 53.213 53.365 53.595 53.827 54.067 54.368 54.65 55.005 55.345 55.75 56.39 57.755 58.345 58.8 59.857 60.263 60.695 61.395 62.162 63.177 64.208 65.765 65.905 66.02 66.22 67.542 69.025
120.643 120.747 120.855 120.93 120.98 121.007 121.042 121.07 121.088 121.09 121.055 121.062 121.098 121.128 121.135 121.152 121.18 121.158 121.433 122.512 121.99 121.118 121.225 121.56 121.592 121.598 121.57 121.572 121.555 121.533 121.522 121.525 121.522 121.493 121.46 121.43 121.397 121.353 121.318 121.285 121.26 121.22 121.183 121.168 121.152 121.11 121.085 121.107 121.095 121.067 121.072 121.037 121.018 120.98 120.93 120.905 120.885 120.853 120.805 120.755 120.725 120.643 120.603 120.568 120.515 120.482 120.405 120.327 120.285 120.185 120.107 120.043 119.965 119.878 119.79 119.688 119.632 119.562 119.49 119.433 119.382 119.3 119.217 119.12 119.035 118.917 118.802 118.675 118.585 118.482 118.363 118.268 118.162 118.022 117.93 117.838 117.735 117.603 117.548 117.495 117.42 117.355 117.295 117.24 117.238 117.185 117.177 117.143 117.107 117.048 117.02 117 116.967 116.945 116.942 116.945 116.925 116.882 116.857 116.827 116.8 116.77 116.732 116.708 116.673 116.613 116.55 116.465 116.378 116.265 116.137 116.035 115.945 115.84 115.75 115.607 115.505 115.39 115.227 115.1 114.965 114.818 114.682 114.51 114.315 114.135 113.97 113.798 113.607 113.417 113.245 113.015 112.83 112.603 112.412 112.207 111.97 111.735 111.535 111.342 111.15 110.815 110.495 110.27 110.052 109.765 109.457 109.16 108.863 108.558 108.235 107.897 107.572 107.257 106.948 106.613 106.27 105.897 105.527 105.158 104.81 104.375 103.985 103.575 103.155 102.737 102.255 101.74 101.268 100.775 99.845 98.938 97.865 97.757 96.753 94.665 93.885 92.69 91.76 91.04 89.78 88.795 87.565 86.993 85.38 84.42 83.577 82.757 82.033 81.295 85.305 82.732 82.077 79.622 79.305 79.05 78.822 78.583 78.327 78.113 77.933 77.743 77.567 77.423 77.24 77.077 76.967 76.857 76.78 76.7 76.607 76.507 76.472 76.44 76.423 76.505 76.685 77.003 77.973 79.073 79.582 80.073 81.14 81.982 83.243 84.6 85.257 86.178 87.18 87.932 88.588 88.923 88.885 88.708 89.092 89.438 89.732 90.003 90.27 90.493 90.695 90.878 91.005 91.145 91.275 91.387 91.473 91.562 91.588 91.598 91.59 91.562 91.522 91.467 91.385 91.272 91.155 91.027 90.865 90.688 90.5 90.305 90.103 89.91 89.66 89.417 89.19 88.925 88.662 88.402 88.13 87.855 87.562 87.272 87.003 86.72 86.41 86.118 85.812 85.465 85.103 84.73 84.335 83.905 83.452 82.995 82.553 82.1 81.598 81.165 80.693 80.2 80.07 80.63 79.872 79.473 78.272 77.277 76.728 76.27 75.725 74.967 74.42 74.215 75.308 74.927 76.675 74.132 75.083 71.06 70.49 69.817 68.775 67.615 67.173 66.768 66.077 63.935 63.222 62.565 61.882 61.3 60.735 60.185 59.683 59.21 58.785 58.34 57.925 57.542 57.16 56.763 56.38 56.022 55.638 55.232 54.87 54.5 54.255 53.82 53.382 53.05 52.81 52.655 52.458 52.283 51.982 51.393 52.028 52.535 52.362 52.34 52.335 52.375 52.443 52.525 52.53 52.667 52.815 52.965 53.13 53.37 53.585 53.83 54.092 54.395 54.755 55.092 55.485 56.055 57.53 57.99 58.303 61.603 60.285 61.47 62.945 62.11 63.107 64.552 66.378 65.772 65.938 66.447 68.155 69.228
120.375 120.48 120.6 120.673 120.723 120.772 120.805 120.815 120.83 120.83 120.81 120.83 120.835 120.868 120.887 120.882 120.917 120.918 120.997 122.452 121.93 120.887 120.95 121.245 121.338 121.348 121.302 121.298 121.277 121.272 121.272 121.277 121.292 121.277 121.235 121.205 121.167 121.113 121.042 120.982 120.965 120.95 120.92 120.882 120.872 120.84 120.817 120.818 120.827 120.833 120.815 120.79 120.8 120.772 120.738 120.7 120.692 120.675 120.645 120.58 120.49 120.412 120.355 120.292 120.213 120.183 120.135 120.06 119.982 119.895 119.805 119.708 119.613 119.555 119.478 119.39 119.327 119.26 119.2 119.15 119.077 118.997 118.912 118.807 118.717 118.605 118.485 118.353 118.217 118.103 117.993 117.932 117.823 117.67 117.53 117.463 117.387 117.223 117.158 117.098 117.033 116.99 116.947 116.868 116.857 116.812 116.77 116.77 116.762 116.723 116.67 116.625 116.6 116.598 116.592 116.588 116.568 116.54 116.518 116.48 116.458 116.417 116.393 116.365 116.31 116.287 116.217 116.155 116.06 115.948 115.817 115.72 115.622 115.5 115.415 115.272 115.165 115.052 114.887 114.765 114.618 114.493 114.34 114.175 114.007 113.8 113.647 113.495 113.283 113.113 112.918 112.715 112.52 112.31 112.092 111.887 111.658 111.412 111.207 111.018 110.853 110.533 110.178 109.955 109.747 109.473 109.177 108.887 108.573 108.272 107.945 107.625 107.308 106.978 106.655 106.317 105.973 105.607 105.243 104.9 104.485 104.092 103.705 103.295 102.878 102.473 101.985 101.507 101.065 100.465 99.668 98.685 97.548 96.975 95.935 94.4 93.47 93.092 91.732 90.933 89.885 88.512 87.048 86.37 85.725 84.068 83.287 82.51 82.42 83.54 86.13 80.96 80.755 79.397 79.077 78.808 78.56 78.335 78.072 77.853 77.68 77.497 77.345 77.17 76.982 76.848 76.74 76.615 76.542 76.47 76.378 76.28 76.255 76.205 76.188 76.283 76.482 76.753 77.79 78.432 78.935 79.762 80.673 81.65 82.652 83.738 84.305 85.287 86.175 87.515 88.057 88.745 89.055 88.685 88.89 89.213 89.525 89.787 90.045 90.273 90.465 90.62 90.753 90.893 91.007 91.115 91.217 91.28 91.308 91.325 91.33 91.307 91.26 91.213 91.118 91.003 90.88 90.765 90.605 90.425 90.238 90.028 89.853 89.65 89.408 89.18 88.95 88.71 88.46 88.185 87.927 87.65 87.368 87.082 86.81 86.512 86.21 85.915 85.585 85.23 84.855 84.467 84.048 83.592 83.14 82.677 82.228 81.74 81.217 80.8 80.327 79.845 80.018 80.14 79.915 79.467 78.465 77.33 76.415 75.965 75.423 74.693 74.113 73.812 73.795 73.333 75.09 73.723 72.035 70.988 70.245 69.34 68.908 67.673 67.06 66.33 65.238 63.695 62.987 62.295 61.635 61.057 60.487 59.96 59.465 58.978 58.548 58.103 57.702 57.33 56.943 56.53 56.145 55.798 55.41 55.022 54.655 54.272 54.013 53.65 53.247 52.738 52.535 52.438 52.327 52.208 51.975 51.635 51.072 51.855 52.005 52.022 52.02 52.045 52.167 52.275 52.292 52.443 52.605 52.735 52.905 53.135 53.327 53.6 53.87 54.16 54.505 54.847 55.262 55.795 57.325 57.695 57.61 58.625 59.84 60.88 61.27 63.145 63.493 64.135 65.333 65.62 65.878 67.2 68.408 69.115
120.098 120.215 120.315 120.402 120.463 120.515 120.558 120.58 120.57 120.543 120.565 120.577 120.598 120.615 120.655 120.622 120.66 120.68 120.725 122.588 121.772 120.65 121.173 121.51 121.5 121.512 121.565 121.507 121.463 121.495 121.433 121.445 121.39 121.375 121.42 121.397 121.262 121.223 121.132 121.035 120.897 120.863 120.78 120.68 120.655 120.568 120.535 120.55 120.533 120.557 120.537 120.53 120.493 120.475 120.475 120.465 120.445 120.395 120.393 120.34 120.29 120.21 120.152 120.095 120.007 119.943 119.875 119.798 119.708 119.607 119.51 119.47 119.382 119.285 119.223 119.122 119.035 118.973 118.915 118.84 118.753 118.673 118.575 118.485 118.402 118.275 118.125 118.015 117.893 117.783 117.665 117.56 117.44 117.305 117.195 117.082 117.003 116.848 116.78 116.73 116.652 116.615 116.595 116.51 116.46 116.415 116.417 116.395 116.353 116.315 116.298 116.277 116.25 116.235 116.208 116.197 116.19 116.18 116.165 116.122 116.085 116.048 116.025 116.003 115.975 115.935 115.853 115.788 115.71 115.607 115.482 115.365 115.275 115.152 115.057 114.935 114.832 114.7 114.56 114.423 114.277 114.15 113.982 113.817 113.677 113.475 113.312 113.15 112.955 112.787 112.585 112.39 112.198 111.995 111.768 111.56 111.342 111.087 110.897 110.7 110.537 110.23 109.88 109.655 109.448 109.19 108.902 108.59 108.285 107.98 107.66 107.34 107.01 106.692 106.357 106.022 105.66 105.318 104.982 104.562 104.19 103.795 103.405 102.993 102.605 102.188 101.713 101.257 100.872 100.232 99.415 98.402 97.298 96.72 95.132 94.02 93.062 92.482 91.442 90.693 89.702 88.185 86.738 85.897 85.38 83.982 83.05 82.23 81.427 82.84 81.717 80.775 82.405 79.162 78.83 78.565 78.32 78.082 77.825 77.615 77.43 77.245 77.088 76.917 76.747 76.615 76.515 76.402 76.307 76.232 76.125 76.052 76.022 75.988 75.995 76.065 76.312 76.762 77.783 79.635 78.818 79.54 80.445 81.31 82.17 83.25 84.09 84.895 85.86 86.677 87.333 87.97 88.783 88.787 88.635 88.973 89.255 89.515 89.783 90 90.185 90.342 90.488 90.613 90.728 90.81 90.885 90.942 90.96 90.958 90.975 90.94 90.92 90.865 90.787 90.667 90.522 90.378 90.238 90.09 89.918 89.74 89.545 89.345 89.122 88.89 88.655 88.412 88.17 87.895 87.632 87.375 87.107 86.83 86.573 86.28 85.972 85.673 85.355 84.997 84.62 84.21 83.74 83.285 82.815 82.365 81.912 81.405 80.905 80.463 79.997 79.488 79.018 78.88 79.135 79.085 78.473 77.147 76.165 75.527 75.035 74.34 73.755 73.427 73.562 73.853 74.88 74.947 70.63 70.798 70.202 69.135 68.625 67.33 66.275 64.817 64.03 63.412 62.745 62.052 61.397 60.818 60.268 59.73 59.228 58.748 58.317 57.89 57.493 57.118 56.73 56.322 55.932 55.573 55.2 54.82 54.452 54.057 53.812 53.417 53.052 52.647 52.438 52.298 52.155 51.985 51.927 52.12 51.412 51.708 51.638 51.675 51.692 51.72 51.87 51.993 52.04 52.175 52.347 52.482 52.685 52.895 53.077 53.345 53.63 53.925 54.248 54.57 55.01 55.575 57.815 57.318 57.463 58.627 59.55 60.412 61.14 62.037 63.06 64.193 65.2 65.435 66.095 67.505 68.29 69.132
119.817 119.943 120.025 120.113 120.182 120.268 120.308 120.325 120.31 120.292 120.33 120.342 120.378 120.4 120.402 120.37 120.41 120.387 121.092 122.725 121.432 120.363 120.658 120.948 120.952 121.022 121.003 121.012 120.95 120.948 120.947 120.928 120.875 120.94 120.908 120.935 120.918 120.93 120.875 120.86 120.74 120.762 120.772 120.787 120.743 120.613 120.555 120.478 120.417 120.365 120.31 120.268 120.228 120.175 120.15 120.137 120.105 120.115 120.083 120.075 120.045 119.965 119.887 119.823 119.765 119.705 119.637 119.545 119.467 119.397 119.295 119.223 119.135 119.048 118.967 118.885 118.79 118.713 118.63 118.53 118.455 118.365 118.275 118.188 118.07 117.952 117.823 117.695 117.58 117.452 117.333 117.245 117.105 116.973 116.85 116.743 116.662 116.522 116.442 116.382 116.268 116.217 116.207 116.132 116.098 116.04 116 116.003 115.978 115.965 115.902 115.89 115.86 115.83 115.808 115.812 115.815 115.798 115.753 115.745 115.713 115.662 115.653 115.603 115.575 115.527 115.48 115.395 115.315 115.243 115.125 115 114.893 114.78 114.68 114.572 114.457 114.325 114.197 114.062 113.918 113.78 113.615 113.465 113.315 113.14 112.975 112.798 112.605 112.442 112.25 112.067 111.848 111.637 111.423 111.228 111.013 110.772 110.598 110.375 110.208 109.917 109.562 109.327 109.118 108.872 108.575 108.283 107.982 107.685 107.363 107.045 106.713 106.378 106.052 105.707 105.382 105.045 104.635 104.268 103.893 103.49 103.077 102.688 102.31 101.897 101.423 101.01 100.658 99.965 99.24 98.655 97.085 96.188 94.963 93.68 92.723 92.213 90.995 90.138 89.295 88.415 87.257 85.475 84.668 83.605 82.662 81.908 81.107 80.553 80.522 79.985 79.257 78.885 78.562 78.303 78.058 77.83 77.573 77.365 77.198 77.01 76.853 76.685 76.5 76.385 76.268 76.162 76.085 76.013 75.905 75.823 75.798 75.777 75.77 75.857 76.082 76.635 78.338 78.802 78.46 79.385 80.202 81.08 81.863 82.725 83.65 84.488 85.37 86.158 86.777 87.283 88.463 88.728 88.417 88.743 89.04 89.287 89.527 89.762 89.91 90.05 90.165 90.262 90.357 90.435 90.495 90.545 90.56 90.558 90.54 90.5 90.46 90.425 90.36 90.268 90.137 89.988 89.847 89.698 89.545 89.372 89.205 88.993 88.785 88.58 88.338 88.085 87.85 87.6 87.348 87.08 86.808 86.557 86.298 86.03 85.725 85.43 85.113 84.753 84.35 83.885 83.438 82.975 82.485 82.005 81.548 81.083 80.518 80.043 79.575 79.05 78.557 78.06 77.6 77.543 76.957 76.365 75.662 75.055 74.598 74.018 73.445 73 73.158 73.378 72.327 71.378 70.562 70.35 69.298 68.118 67.378 66.395 65.32 64.52 63.8 63.145 62.465 61.82 61.195 60.615 60.048 59.515 59.02 58.545 58.107 57.7 57.283 56.897 56.505 56.108 55.715 55.338 55 54.618 54.243 53.853 53.592 53.21 52.835 52.45 52.287 52.115 51.972 51.81 51.772 52.252 50.725 51.677 51.43 51.338 51.357 51.415 51.592 51.71 51.755 51.897 52.037 52.175 52.393 52.618 52.825 53.085 53.375 53.655 53.987 54.327 54.748 55.33 56.362 56.923 57.632 58.498 59.333 61.335 61.09 61.955 63.062 64.325 64.965 65.21 66.567 67.537 68.348 69.177
119.52 119.653 119.745 119.833 119.915 120.003 120.055 120.073 120.037 120.037 120.088 120.128 120.15 120.185 120.143 120.158 120.162 120.34 121.73 122.487 120.695 120.09 120.235 120.42 120.44 120.445 120.41 120.41 120.405 120.43 120.488 120.518 120.505 120.475 120.438 120.44 120.448 120.43 120.363 120.3 120.277 120.29 120.173 120.213 120.238 120.182 120.365 120.4 120.305 120.228 120.247 120.298 120.31 120.202 120.21 120.073 119.955 119.817 119.792 119.747 119.682 119.65 119.613 119.542 119.45 119.397 119.342 119.29 119.21 119.122 119.048 118.98 118.893 118.812 118.76 118.66 118.557 118.48 118.397 118.317 118.217 118.107 117.982 117.882 117.775 117.647 117.5 117.375 117.262 117.155 117.035 116.93 116.793 116.665 116.537 116.43 116.345 116.235 116.09 116.01 115.923 115.868 115.848 115.732 115.682 115.68 115.64 115.63 115.632 115.577 115.522 115.488 115.482 115.46 115.435 115.41 115.382 115.365 115.323 115.31 115.303 115.25 115.228 115.21 115.16 115.118 115.075 114.988 114.905 114.827 114.738 114.63 114.507 114.378 114.27 114.177 114.068 113.94 113.82 113.688 113.53 113.402 113.243 113.088 112.955 112.798 112.613 112.44 112.265 112.077 111.893 111.705 111.495 111.3 111.062 110.88 110.662 110.455 110.238 110.057 109.893 109.62 109.243 108.995 108.795 108.565 108.268 107.97 107.68 107.382 107.057 106.74 106.412 106.07 105.72 105.397 105.083 104.702 104.332 103.948 103.575 103.17 102.768 102.382 102.005 101.567 101.14 100.772 100.37 99.677 98.857 97.902 96.865 96.24 94.588 93.28 92.312 91.51 90.525 90.143 88.645 87.785 86.698 85.06 84.118 83.262 82.34 81.553 80.743 80.382 80.455 79.715 78.978 78.613 78.298 78.04 77.787 77.56 77.305 77.103 76.925 76.743 76.59 76.417 76.26 76.152 76.022 75.92 75.838 75.777 75.683 75.61 75.603 75.572 75.565 75.647 75.855 77.21 80.86 78.105 78.668 79.118 79.978 80.78 81.533 82.412 83.305 84.243 86.035 86.868 86.452 87 88.842 88.613 88.192 88.518 88.793 89.055 89.298 89.485 89.645 89.772 89.872 89.957 90.033 90.088 90.118 90.128 90.13 90.105 90.09 90.04 89.99 89.933 89.85 89.77 89.675 89.567 89.43 89.293 89.14 89.005 88.833 88.64 88.46 88.228 88.003 87.77 87.533 87.28 87.018 86.772 86.503 86.253 86.015 85.755 85.457 85.152 84.825 84.46 84.007 83.503 83.035 82.56 82.05 81.57 81.075 80.61 80.08 79.565 79.098 78.59 78.087 77.607 77.097 76.598 76.1 75.605 75.132 74.6 74.132 73.62 73.113 72.667 72.72 72.995 71.165 70.57 70.448 69.647 68.31 67.52 66.613 65.835 65.05 64.32 63.605 62.96 62.252 61.647 61.033 60.435 59.86 59.345 58.827 58.375 57.93 57.498 57.105 56.715 56.327 55.897 55.5 55.13 54.787 54.412 54.035 53.653 53.405 53.028 52.632 52.263 52.085 51.945 51.798 51.643 51.528 51.882 51.222 52.22 51.427 51.085 50.97 51.062 51.318 51.42 51.493 51.643 51.785 51.893 52.15 52.362 52.573 52.847 53.118 53.395 53.737 54.065 54.493 55.06 56.153 57.003 57.377 58.247 59.167 60.115 60.99 62.04 63.037 64.37 64.655 65.448 66.77 67.538 68.405 69.175
119.245 119.363 119.475 119.573 119.665 119.74 119.803 119.793 119.792 119.812 119.85 119.895 119.92 119.92 119.9 119.918 119.952 120.747 121.93 121.42 119.85 119.85 119.967 120.118 120.163 120.2 120.23 120.215 120.185 120.208 120.247 120.28 120.287 120.175 120.153 120.132 120.11 120.1 120.1 120.077 120.05 120.007 119.958 119.91 119.875 119.842 119.783 119.795 119.802 119.793 119.805 119.82 119.865 119.838 119.887 119.875 119.933 119.897 119.827 119.688 119.533 119.42 119.33 119.23 119.143 119.077 118.988 118.925 118.893 118.833 118.75 118.68 118.607 118.53 118.465 118.382 118.308 118.217 118.118 118.022 117.923 117.845 117.757 117.63 117.522 117.39 117.272 117.11 116.997 116.868 116.743 116.607 116.488 116.375 116.223 116.08 115.96 115.878 115.755 115.678 115.58 115.522 115.475 115.382 115.37 115.32 115.287 115.232 115.193 115.16 115.107 115.107 115.055 115.035 115.053 115.025 114.988 114.965 114.925 114.918 114.893 114.848 114.795 114.76 114.74 114.7 114.637 114.56 114.49 114.415 114.33 114.22 114.107 113.975 113.865 113.777 113.67 113.543 113.438 113.293 113.143 113.005 112.863 112.692 112.567 112.403 112.238 112.068 111.887 111.713 111.525 111.338 111.135 110.945 110.738 110.537 110.305 110.11 109.905 109.735 109.552 109.312 108.912 108.662 108.463 108.25 107.958 107.66 107.368 107.062 106.75 106.438 106.088 105.745 105.408 105.098 104.745 104.378 104.003 103.637 103.247 102.842 102.43 102.062 101.692 101.247 100.835 100.5 100.08 99.357 98.515 97.595 96.615 95.96 94.402 93.2 92.118 91.298 90.45 89.423 88.11 87.702 86.552 85.338 83.798 82.895 82.037 81.247 80.39 80.1 80.47 79.63 78.72 78.357 78.04 77.793 77.54 77.308 77.062 76.865 76.673 76.49 76.335 76.173 76.033 75.92 75.787 75.683 75.61 75.558 75.485 75.408 75.402 75.37 75.37 75.452 75.637 76.12 77.042 82.565 77.91 78.815 79.735 80.48 81.27 82.075 82.97 83.893 84.768 85.572 86.6 86.835 88.107 88.355 87.91 88.238 88.49 88.738 88.98 89.177 89.322 89.465 89.565 89.632 89.665 89.697 89.705 89.707 89.692 89.67 89.635 89.573 89.505 89.443 89.372 89.298 89.225 89.1 88.982 88.868 88.75 88.628 88.475 88.317 88.118 87.89 87.677 87.46 87.21 86.952 86.688 86.427 86.155 85.912 85.675 85.39 85.062 84.735 84.37 83.93 83.45 82.97 82.503 82.02 81.537 81.052 80.515 80.033 79.605 79.08 78.577 78.062 77.605 77.107 76.595 76.1 75.607 75.128 74.713 74.19 73.685 73.173 72.66 72.22 72.522 74.473 74.265 70.205 69.573 68.688 67.92 67.182 66.41 65.652 64.872 64.135 63.425 62.77 62.09 61.51 60.873 60.287 59.708 59.17 58.677 58.21 57.745 57.32 56.917 56.537 56.135 55.705 55.302 54.96 54.59 54.215 53.818 53.42 53.183 52.83 52.417 52.115 51.855 51.685 51.555 51.417 51.307 51.823 51.618 50.905 51.06 50.72 50.592 50.717 51.055 51.16 51.245 51.42 51.552 51.68 51.917 52.105 52.333 52.607 52.875 53.143 53.493 53.817 54.248 54.787 56.228 56.423 57.175 58.092 59.1 60.452 60.835 61.805 63.018 64.118 64.363 65.855 66.652 67.535 68.395 69.213
118.955 119.073 119.208 119.312 119.415 119.482 119.518 119.51 119.553 119.572 119.622 119.658 119.67 119.655 119.675 119.69 119.795 121.115 121.55 119.795 119.635 119.65 119.743 119.893 119.95 119.985 120.022 120.007 119.98 119.978 119.99 119.997 119.973 119.938 119.905 119.885 119.863 119.832 119.795 119.795 119.815 119.8 119.753 119.712 119.678 119.65 119.592 119.537 119.495 119.47 119.442 119.405 119.397 119.365 119.357 119.333 119.452 119.533 119.503 119.408 119.395 119.307 119.277 119.213 119.09 118.978 118.84 118.735 118.613 118.537 118.44 118.36 118.287 118.208 118.135 118.055 117.975 117.88 117.79 117.705 117.615 117.538 117.435 117.345 117.228 117.103 116.978 116.833 116.695 116.56 116.44 116.327 116.193 116.07 115.928 115.835 115.697 115.585 115.485 115.38 115.283 115.213 115.132 115.075 115.02 114.948 114.915 114.885 114.857 114.808 114.743 114.702 114.66 114.637 114.637 114.598 114.573 114.542 114.515 114.495 114.475 114.423 114.368 114.345 114.295 114.262 114.225 114.145 114.062 113.985 113.893 113.8 113.695 113.577 113.482 113.382 113.28 113.132 113.022 112.897 112.74 112.613 112.465 112.312 112.173 112.018 111.857 111.688 111.505 111.325 111.15 110.967 110.772 110.598 110.388 110.183 109.99 109.8 109.585 109.4 109.198 108.982 108.575 108.327 108.14 107.925 107.625 107.332 107.027 106.722 106.44 106.098 105.765 105.42 105.095 104.745 104.41 104.033 103.685 103.295 102.897 102.497 102.113 101.73 101.327 100.89 100.507 100.21 99.707 98.952 98.115 97.272 96.52 95.842 94.768 92.925 91.788 90.6 89.67 88.77 87.585 87.062 85.973 85.065 83.463 82.585 81.717 80.94 80.077 80.037 80.335 79.588 78.425 78.08 77.787 77.538 77.295 77.07 76.825 76.62 76.442 76.272 76.115 75.952 75.802 75.698 75.555 75.452 75.395 75.333 75.283 75.208 75.202 75.158 75.14 75.245 75.448 75.868 76.982 78.518 77.743 78.527 79.43 80.158 80.995 81.78 82.713 83.542 84.45 85.415 86.018 86.81 87.3 87.658 87.585 87.9 88.162 88.417 88.625 88.803 88.935 89.058 89.15 89.235 89.247 89.257 89.245 89.262 89.235 89.217 89.17 89.09 89.038 88.972 88.897 88.823 88.747 88.65 88.552 88.465 88.36 88.24 88.107 87.96 87.785 87.575 87.347 87.128 86.89 86.6 86.298 86 85.705 85.452 85.208 84.868 84.488 84.075 83.69 83.26 82.84 82.47 82.208 81.765 80.96 80.515 80.052 79.905 79.787 78.745 78.165 77.535 77.045 76.555 76.065 75.6 75.132 74.688 74.215 73.728 73.253 72.818 72.217 71.81 72.033 72.402 71.193 69.92 69.055 68.368 67.685 66.982 66.232 65.473 64.717 63.94 63.222 62.59 61.96 61.39 60.725 60.135 59.583 59.065 58.515 58.05 57.58 57.15 56.743 56.347 55.95 55.505 55.105 54.76 54.395 53.995 53.585 53.205 52.96 52.583 52.205 51.958 51.683 51.438 51.287 51.158 51.045 51.23 52.065 51.357 51.1 50.525 50.395 50.475 50.775 50.91 51.025 51.195 51.353 51.478 51.702 51.88 52.1 52.375 52.628 52.912 53.252 53.597 54.03 55.908 56.933 56.487 57.025 57.943 59.04 59.875 60.943 61.722 63.138 63.845 64.408 65.857 66.613 67.542 68.378 69.217
118.665 118.795 118.938 119.06 119.16 119.22 119.243 119.268 119.283 119.345 119.403 119.42 119.4 119.412 119.44 119.473 120.235 121.427 120.28 119.408 119.432 119.445 119.555 119.695 119.73 119.775 119.765 119.775 119.765 119.73 119.74 119.743 119.713 119.707 119.68 119.637 119.6 119.565 119.562 119.552 119.543 119.54 119.525 119.5 119.493 119.46 119.42 119.385 119.338 119.283 119.26 119.225 119.188 119.155 119.11 119.08 119.037 118.978 118.923 118.848 118.832 118.878 118.863 118.817 118.73 118.71 118.69 118.573 118.467 118.363 118.32 118.205 118.125 118.067 117.963 117.895 117.823 117.728 117.628 117.45 117.338 117.232 117.122 117.003 116.912 116.795 116.65 116.533 116.402 116.268 116.14 116.012 115.872 115.768 115.63 115.503 115.4 115.272 115.175 115.06 114.98 114.902 114.818 114.747 114.698 114.67 114.615 114.565 114.525 114.472 114.408 114.378 114.342 114.31 114.27 114.235 114.205 114.18 114.137 114.105 114.045 114.02 113.98 113.925 113.897 113.842 113.81 113.73 113.647 113.567 113.488 113.387 113.29 113.183 113.058 112.988 112.875 112.74 112.618 112.478 112.357 112.228 112.065 111.923 111.795 111.625 111.475 111.298 111.137 110.965 110.785 110.613 110.402 110.243 110.035 109.82 109.63 109.463 109.26 109.09 108.837 108.658 108.243 108 107.795 107.6 107.318 107.01 106.697 106.423 106.102 105.765 105.41 105.092 104.753 104.417 104.043 103.695 103.337 102.945 102.54 102.145 101.762 101.39 100.952 100.522 100.188 99.9 99.295 98.495 97.692 96.825 96.268 95.06 95.402 92.647 91.378 90.348 89.283 88.18 87.095 86.493 85.545 84.275 83.925 82.323 81.457 80.823 79.79 79.963 80.12 79.02 78.158 77.82 77.545 77.293 77.053 76.802 76.58 76.393 76.202 76.033 75.885 75.725 75.575 75.48 75.327 75.245 75.177 75.12 75.048 75.003 74.967 74.93 74.918 75.003 75.24 76.49 77.162 76.902 79.01 78.365 79.143 79.905 80.655 81.49 82.375 83.295 84.185 85.777 86.033 86.765 87.018 86.948 87.245 87.525 87.798 88.065 88.272 88.425 88.535 88.632 88.682 88.722 88.723 88.7 88.707 88.735 88.717 88.69 88.647 88.605 88.562 88.515 88.427 88.355 88.29 88.225 88.13 88.035 87.95 87.85 87.732 87.598 87.438 87.232 87.028 86.83 86.565 86.24 85.878 85.545 85.225 84.887 84.577 84.22 83.842 83.438 83.022 82.59 82.49 82.655 82.193 81.285 80.985 80.645 80.285 79.488 78.98 78.22 77.482 76.923 76.452 75.923 75.49 75.007 74.632 74.173 73.702 73.245 72.812 72.393 71.768 71.412 71.74 70.613 70.01 69.372 68.74 68.092 67.46 66.81 66.085 65.305 64.567 63.833 63.105 62.465 61.943 61.27 60.625 60.042 59.483 58.943 58.4 57.912 57.435 56.995 56.555 56.165 55.745 55.312 54.885 54.522 54.158 53.76 53.308 52.963 52.73 52.31 52.015 51.743 51.48 51.213 51.022 50.905 50.783 51.03 51.85 51.452 51.213 50.292 50.237 50.235 50.513 50.67 50.807 50.95 51.095 51.235 51.455 51.627 51.83 52.123 52.35 52.677 53.015 53.333 53.783 54.81 56.695 58.118 58.045 57.917 59.025 59.76 60.972 61.772 63.062 63.45 64.615 65.835 66.938 67.595 69.037 69.158
118.385 118.525 118.645 118.785 118.89 118.942 118.975 119.005 119.033 119.13 119.165 119.152 119.152 119.183 119.213 119.292 120.87 120.565 119.077 119.188 119.198 119.26 119.323 119.463 119.5 119.53 119.522 119.548 119.53 119.507 119.505 119.505 119.493 119.473 119.438 119.418 119.378 119.31 119.303 119.298 119.305 119.29 119.295 119.29 119.28 119.23 119.188 119.16 119.122 119.073 119.027 119.022 119.01 118.963 118.915 118.872 118.817 118.775 118.688 118.615 118.542 118.47 118.38 118.295 118.21 118.183 118.128 118.08 118.035 118.02 117.955 117.887 117.787 117.795 117.682 117.643 117.725 117.575 117.445 117.375 117.283 117.18 117.025 116.855 116.692 116.537 116.357 116.238 116.125 115.97 115.84 115.675 115.545 115.428 115.305 115.173 115.042 114.938 114.848 114.757 114.665 114.56 114.497 114.433 114.375 114.333 114.283 114.225 114.17 114.143 114.11 114.05 114 113.95 113.958 113.935 113.902 113.855 113.812 113.77 113.735 113.688 113.625 113.568 113.51 113.448 113.402 113.325 113.257 113.183 113.092 112.997 112.91 112.81 112.69 112.573 112.457 112.353 112.253 112.092 111.975 111.842 111.692 111.543 111.412 111.265 111.105 110.95 110.78 110.618 110.443 110.26 110.06 109.887 109.68 109.467 109.298 109.125 108.952 108.805 108.552 108.287 107.952 107.645 107.445 107.262 106.982 106.66 106.36 106.07 105.745 105.417 105.083 104.74 104.41 104.048 103.717 103.365 102.965 102.588 102.193 101.798 101.412 101.025 100.567 100.173 99.857 99.485 98.753 98.005 97.22 96.783 96.318 95.092 94.085 92.447 91.303 90.537 89.43 87.783 86.807 86.09 85.265 84.217 83.045 82 81.162 80.482 79.512 79.402 79.178 78.988 77.895 77.55 77.277 77.033 76.812 76.56 76.332 76.147 75.96 75.808 75.65 75.478 75.368 75.26 75.13 75.027 74.967 74.925 74.853 74.785 74.76 74.76 74.745 74.777 75.327 76.628 77.42 76.708 77.75 78.702 79.01 79.628 80.368 81.162 82.125 83.05 83.948 84.78 86.277 86.46 86.298 86.558 86.868 87.173 87.455 87.655 87.827 88.02 88.082 88.175 88.228 88.243 88.22 88.22 88.217 88.205 88.202 88.178 88.143 88.098 88.06 88.03 87.967 87.908 87.855 87.795 87.723 87.667 87.595 87.51 87.43 87.33 87.16 86.93 86.717 86.47 86.162 85.812 85.43 85.062 84.697 84.34 83.973 83.59 83.192 82.822 82.435 82.423 82.545 82.182 81.368 80.823 80.84 80.655 79.747 78.62 77.933 77.357 76.735 76.185 75.73 75.27 74.838 74.49 74.118 73.645 73.235 72.795 72.412 71.982 71.368 71.035 71.115 70.287 69.708 69.083 68.48 67.868 67.262 66.583 65.872 65.132 64.395 63.71 63.007 62.39 61.802 61.15 60.55 59.927 59.357 58.795 58.25 57.75 57.268 56.802 56.373 55.938 55.507 55.092 54.675 54.29 53.915 53.542 53.083 52.735 52.47 52.105 51.822 51.517 51.257 50.987 50.792 50.65 50.535 50.693 51.693 51.375 50.833 50.132 50.075 50.07 50.283 50.425 50.56 50.71 50.833 51 51.215 51.397 51.603 51.893 52.128 52.435 52.752 53.095 53.823 54.57 59.26 55.765 56.59 57.76 58.838 59.535 60.88 61.685 62.925 63.257 64.91 65.728 66.62 67.447 68.493 69.188
118.095 118.24 118.365 118.493 118.585 118.662 118.707 118.73 118.81 118.893 118.912 118.902 118.92 118.952 119.015 120.115 120.795 119.84 118.868 118.952 118.973 119.1 119.128 119.238 119.277 119.31 119.338 119.312 119.283 119.287 119.257 119.245 119.238 119.217 119.198 119.145 119.118 119.09 119.062 119.053 119.052 119.042 119.04 119.042 119.05 119.018 118.955 118.91 118.86 118.835 118.8 118.762 118.755 118.732 118.685 118.647 118.613 118.57 118.503 118.427 118.357 118.285 118.202 118.103 118.022 117.94 117.853 117.757 117.65 117.585 117.51 117.482 117.37 117.278 117.175 117.07 116.993 116.918 116.895 116.757 116.74 116.665 116.647 116.562 116.515 116.35 116.185 116.08 115.912 115.78 115.63 115.5 115.327 115.152 115.01 114.897 114.75 114.632 114.53 114.423 114.35 114.223 114.155 114.083 114.012 113.955 113.89 113.863 113.827 113.798 113.735 113.702 113.673 113.63 113.605 113.565 113.537 113.507 113.467 113.425 113.397 113.35 113.298 113.238 113.183 113.14 113.08 113.015 112.932 112.857 112.768 112.66 112.565 112.452 112.355 112.235 112.11 111.995 111.89 111.755 111.603 111.488 111.342 111.197 111.075 110.91 110.765 110.61 110.45 110.285 110.107 109.925 109.745 109.558 109.365 109.175 108.988 108.833 108.66 108.482 108.21 107.95 107.658 107.293 107.09 106.9 106.622 106.3 106.027 105.71 105.405 105.08 104.75 104.403 104.035 103.692 103.36 102.993 102.603 102.24 101.842 101.442 101.065 100.647 100.185 99.802 99.512 98.995 98.317 97.522 96.723 96.125 95.447 94.81 94.262 92.68 91.37 90.74 89.288 87.455 86.565 85.835 84.933 83.893 83.605 81.707 80.803 80.273 79.262 79.905 80.287 79.44 77.625 77.31 77.03 76.798 76.57 76.33 76.103 75.908 75.723 75.565 75.405 75.25 75.14 75.03 74.917 74.82 74.765 74.71 74.63 74.585 74.55 74.552 74.562 74.592 74.765 77.058 77.463 76.458 77.033 78.988 79.2 79.35 80.13 80.917 81.86 82.73 83.665 85.26 85.215 86.075 85.868 86.22 86.542 86.805 87.04 87.23 87.385 87.548 87.632 87.68 87.717 87.735 87.732 87.72 87.725 87.725 87.708 87.685 87.667 87.625 87.603 87.595 87.565 87.507 87.458 87.408 87.363 87.323 87.27 87.22 87.155 87.033 86.83 86.585 86.36 86.135 85.815 85.395 84.955 84.58 84.19 83.793 83.395 83.012 82.63 82.272 81.872 81.99 82.272 81.78 80.3 80.423 79.93 79.817 78.583 77.827 77.098 76.527 75.967 75.432 74.982 74.675 74.28 73.988 73.582 73.165 72.715 72.345 72 71.607 70.98 70.607 70.775 69.87 69.448 68.845 68.235 67.652 67.03 66.378 65.69 64.99 64.323 63.653 62.982 62.33 61.71 61.062 60.455 59.84 59.23 58.66 58.11 57.585 57.07 56.6 56.173 55.735 55.278 54.833 54.425 54.053 53.667 53.268 52.803 52.458 52.192 51.903 51.56 51.265 50.995 50.75 50.555 50.395 50.302 50.26 50.735 50.89 50.382 50.065 49.823 49.84 50.06 50.215 50.333 50.47 50.618 50.8 50.982 51.16 51.417 51.69 51.93 52.23 52.525 52.885 53.42 54.19 57.917 55.46 57.715 57.638 59.478 59.427 60.778 61.745 62.69 63.333 64.885 65.69 66.705 67.522 68.327 69.21
117.812 117.963 118.085 118.202 118.298 118.375 118.427 118.467 118.585 118.652 118.647 118.647 118.688 118.735 119.012 120.475 120.058 118.698 118.72 118.735 118.78 118.89 118.963 119.04 119.07 119.085 119.103 119.1 119.07 119.042 119.03 119.022 119.01 118.973 118.945 118.912 118.86 118.833 118.827 118.81 118.787 118.805 118.812 118.798 118.785 118.772 118.728 118.685 118.625 118.595 118.57 118.545 118.505 118.482 118.445 118.395 118.345 118.292 118.247 118.202 118.13 118.062 117.98 117.91 117.825 117.757 117.673 117.573 117.482 117.38 117.298 117.228 117.137 117.048 116.942 116.855 116.745 116.643 116.545 116.45 116.342 116.21 116.103 115.988 115.878 115.747 115.632 115.48 115.402 115.24 115.092 114.982 114.812 114.673 114.592 114.5 114.35 114.33 114.23 114.132 114.08 113.933 113.798 113.747 113.68 113.607 113.555 113.512 113.47 113.43 113.38 113.327 113.303 113.283 113.238 113.198 113.165 113.13 113.098 113.05 112.993 112.947 112.9 112.857 112.823 112.762 112.713 112.667 112.58 112.49 112.405 112.308 112.215 112.095 112.005 111.897 111.792 111.685 111.545 111.447 111.305 111.177 111.033 110.89 110.76 110.61 110.442 110.287 110.13 109.963 109.8 109.62 109.448 109.247 109.072 108.878 108.72 108.527 108.368 108.198 107.952 107.62 107.292 106.94 106.723 106.537 106.255 105.938 105.655 105.36 105.073 104.753 104.408 104.05 103.705 103.342 102.993 102.62 102.245 101.885 101.47 101.092 100.708 100.255 99.812 99.448 99.115 98.95 97.853 97.07 96.348 95.988 94.667 94.113 93.51 92.715 90.878 90.092 88.463 87.325 86.455 85.695 84.7 83.635 82.567 81.44 80.522 79.702 79.005 81.675 82.122 81.202 77.39 77.065 76.802 76.577 76.327 76.1 75.868 75.69 75.5 75.33 75.185 75.025 74.917 74.818 74.692 74.58 74.527 74.488 74.438 74.37 74.335 74.318 74.342 74.36 74.685 75.738 75.853 76.095 76.695 78.235 79.088 79.195 79.845 80.655 82.01 83.21 83.238 84.443 84.705 86.165 85.515 85.84 86.158 86.382 86.6 86.76 86.912 87.03 87.077 87.135 87.195 87.217 87.235 87.235 87.232 87.25 87.245 87.22 87.2 87.188 87.18 87.162 87.14 87.092 86.997 86.925 87.035 86.97 86.923 86.885 86.825 86.673 86.467 86.215 85.997 85.783 85.442 84.933 84.43 84.02 83.625 83.235 82.863 82.487 82.118 81.75 82.195 81.455 80.822 80.802 80.115 80.088 79.365 78.512 77.732 76.92 76.34 75.77 75.255 74.815 74.442 74.132 73.853 73.467 73.03 72.673 72.283 71.947 71.59 71.27 70.708 70.238 70.527 69.59 70.812 68.808 68.02 67.452 66.833 66.198 65.56 64.923 64.262 63.605 62.927 62.245 61.605 60.978 60.353 59.763 59.15 58.585 58.015 57.45 56.917 56.428 55.96 55.52 55.042 54.592 54.18 53.79 53.405 52.995 52.505 52.185 51.958 51.658 51.322 51.005 50.728 50.467 50.283 50.143 50.045 49.995 50.667 50.87 50.963 50.09 49.722 49.6 49.798 50.018 50.16 50.257 50.427 50.618 50.798 50.927 51.228 51.515 51.755 52.03 52.322 52.915 53.357 54.005 54.845 55.263 56.322 57.417 58.387 59.248 60.377 61.647 62.423 65.4 64.785 65.62 66.64 67.49 68.302 69.23
117.527 117.677 117.795 117.9 117.995 118.09 118.135 118.223 118.327 118.38 118.38 118.42 118.485 118.577 119.598 120.22 118.857 118.488 118.5 118.49 118.632 118.688 118.768 118.835 118.855 118.848 118.85 118.85 118.808 118.795 118.807 118.807 118.795 118.745 118.707 118.665 118.622 118.577 118.555 118.553 118.56 118.542 118.542 118.543 118.53 118.475 118.458 118.427 118.375 118.317 118.295 118.28 118.268 118.22 118.173 118.143 118.11 118.055 117.993 117.938 117.872 117.808 117.743 117.665 117.59 117.512 117.43 117.338 117.265 117.175 117.082 117.003 116.927 116.848 116.753 116.64 116.548 116.45 116.342 116.23 116.122 115.997 115.842 115.688 115.533 115.38 115.215 115.048 114.89 114.73 114.565 114.4 114.26 114.158 114.007 113.838 113.725 113.73 113.762 113.65 113.543 113.387 113.298 113.232 113.202 113.14 113.052 113.07 113.075 113.04 113.02 112.97 112.938 112.905 112.845 112.795 112.775 112.743 112.72 112.693 112.643 112.577 112.515 112.482 112.442 112.39 112.333 112.26 112.19 112.128 112.053 111.952 111.863 111.772 111.658 111.535 111.43 111.32 111.205 111.092 110.967 110.845 110.715 110.573 110.44 110.305 110.145 110.003 109.83 109.658 109.5 109.327 109.152 108.98 108.798 108.615 108.445 108.232 108.095 107.895 107.675 107.348 106.965 106.585 106.36 106.167 105.875 105.58 105.3 105.03 104.728 104.387 104.062 103.715 103.355 102.99 102.62 102.25 101.89 101.51 101.107 100.74 100.335 99.868 99.443 99.12 98.708 98.292 97.357 96.605 96.305 95.845 94.262 93.973 93.64 91.55 90.598 90.23 88.61 87.255 86.382 85.467 84.39 83.375 82.33 81.223 80.253 79.46 78.79 81.488 84.152 80.912 77.162 76.845 76.582 76.342 76.13 75.887 75.647 75.465 75.275 75.112 74.97 74.798 74.695 74.6 74.48 74.36 74.312 74.28 74.228 74.147 74.105 74.103 74.122 74.158 74.33 74.637 75.35 75.853 76.427 78.31 78.525 78.842 79.62 80.613 81.598 82.132 82.925 84.198 85.085 85.863 85.24 85.428 85.743 85.988 86.18 86.323 86.45 86.542 86.632 86.692 86.723 86.75 86.765 86.772 86.76 86.745 86.743 86.732 86.732 86.743 86.722 86.708 86.698 86.713 86.645 86.59 86.615 86.562 86.525 86.497 86.418 86.277 86.07 85.833 85.607 85.348 84.895 84.345 83.872 83.497 83.128 82.75 82.382 82.003 81.622 81.908 81.777 80.76 80.15 79.98 79.332 79.107 79.025 77.912 76.79 76.135 75.56 74.978 74.575 74.262 73.938 73.605 73.283 72.975 72.582 72.198 71.848 71.542 71.2 70.885 70.37 69.9 70.118 69.4 72.235 68.37 68.077 67.212 66.618 66.033 65.423 64.835 64.247 63.54 62.85 62.138 61.502 60.87 60.263 59.675 59.085 58.507 57.89 57.312 56.75 56.25 55.772 55.287 54.815 54.38 53.925 53.528 53.125 52.73 52.208 51.925 51.73 51.377 51.037 50.757 50.46 50.198 50.04 49.932 49.81 49.73 49.987 51.205 50.462 50.178 49.58 49.467 49.618 49.783 49.965 50.088 50.257 50.452 50.675 50.805 51.07 51.327 51.58 51.84 52.128 52.88 53.502 53.978 54.765 55.287 56.132 57.125 58.002 58.998 60.347 61.535 62.24 63.185 64.505 65.505 66.503 67.48 68.262 69.185
117.24 117.375 117.493 117.583 117.717 117.777 117.868 117.99 118.077 118.103 118.135 118.207 118.26 118.975 120.057 119.145 118.205 118.28 118.262 118.285 118.417 118.473 118.56 118.607 118.62 118.61 118.603 118.585 118.57 118.55 118.525 118.52 118.535 118.525 118.458 118.42 118.387 118.342 118.308 118.292 118.285 118.302 118.277 118.272 118.265 118.223 118.175 118.132 118.118 118.088 118.048 118.01 117.98 117.948 117.91 117.87 117.83 117.78 117.735 117.67 117.62 117.555 117.48 117.385 117.318 117.25 117.175 117.09 117.005 116.917 116.845 116.765 116.677 116.603 116.505 116.402 116.308 116.217 116.113 115.988 115.87 115.735 115.598 115.447 115.29 115.128 114.98 114.81 114.655 114.505 114.345 114.177 114.007 113.86 113.71 113.53 113.385 113.238 113.092 113.005 112.872 112.757 112.728 112.607 112.495 112.39 112.368 112.338 112.285 112.27 112.26 112.312 112.28 112.195 112.15 112.08 112.08 112.07 111.993 111.96 111.988 111.97 112.012 112.012 111.967 111.952 111.92 111.838 111.777 111.717 111.67 111.595 111.505 111.41 111.298 111.19 111.098 110.973 110.85 110.738 110.613 110.507 110.397 110.25 110.113 109.98 109.825 109.665 109.515 109.335 109.173 109 108.83 108.655 108.47 108.295 108.143 107.952 107.783 107.518 107.33 107.04 106.61 106.245 106 105.783 105.51 105.253 104.97 104.688 104.372 104.062 103.708 103.36 102.978 102.613 102.238 101.88 101.52 101.132 100.743 100.357 99.942 99.49 99.085 98.728 98.232 97.567 96.935 96.768 96.125 94.588 94.45 94.245 92.89 91.077 90.1 89.473 88.268 87.06 86.085 85.125 84.087 82.99 81.897 80.897 80.27 79.26 78.585 78.955 81.012 78.78 76.948 76.622 76.363 76.12 75.905 75.655 75.427 75.238 75.042 74.902 74.765 74.603 74.485 74.393 74.253 74.155 74.107 74.065 74.025 73.925 73.872 73.89 73.935 73.99 74.155 74.51 75.137 75.665 76.11 77.838 78.433 78.615 79.365 80.598 82.792 81.86 82.618 83.847 84.292 84.88 85.095 85.018 85.322 85.575 85.755 85.887 85.997 86.088 86.183 86.24 86.31 86.298 86.3 86.28 86.253 86.235 86.22 86.247 86.245 86.238 86.253 86.272 86.308 86.312 86.353 86.235 86.223 86.143 86.098 86.052 85.978 85.833 85.652 85.427 85.198 84.872 84.34 83.827 83.41 83.015 82.647 82.293 81.948 81.51 81.478 81.507 80.338 79.897 79.348 78.938 78.537 78.253 77.86 76.787 76.1 75.4 74.823 74.41 74.062 73.735 73.448 73.147 72.79 72.442 72.132 71.8 71.458 71.143 70.848 70.522 70.082 69.603 69.783 69.48 68.522 68.168 67.688 67.01 66.463 65.917 65.317 64.72 64.162 63.45 62.737 62.048 61.397 60.8 60.205 59.612 59.013 58.4 57.79 57.2 56.615 56.083 55.577 55.007 54.542 54.107 53.638 53.208 52.818 52.438 51.91 51.667 51.443 51.11 50.772 50.46 50.182 49.955 49.77 49.653 49.562 49.478 49.557 50.9 50.632 49.662 49.205 49.26 49.442 49.6 49.755 49.89 50.06 50.25 50.487 50.71 50.948 51.147 51.397 51.695 51.972 52.487 53.333 53.903 54.528 54.97 57.465 56.995 57.963 58.795 60.583 61.785 62.022 63.235 64.26 65.34 66.277 67.283 68.045 69.135
