ncols 459
nrows 31
xllcorner    245036
yllcorner    135304
cellsize     2
NODATA_value -9999
9.215 9.028 8.855 8.795 8.925 8.923 8.988 9.425 9.54 9.5 9.315 9.142 9.052 8.94 8.88 8.898 8.95 8.98 8.977 9.002 9.05 9.095 8.83 8.57 8.613 8.993 9.618 9.64 9.663 9.943 10.29 10.745 10.622 10.415 10.355 10.34 10.31 10.375 10.465 10.625 10.708 11.102 11.455 11.73 11.985 12.335 12.628 12.863 13.06 13.417 13.868 14.408 14.913 15.523 16.14 16.525 17.052 17.362 17.783 18.312 18.872 19.693 20.395 20.698 20.505 21.295 22.637 23.15 24 24.635 25.337 25.075 25.283 25.343 25.585 24.88 25.79 26.025 26.318 26.295 25.39 25.413 25.305 25.46 25.18 24.93 25.452 24.48 23.163 23.347 22.745 22.78 22.747 22.41 21.9 21.135 20.065 19.575 19.15 18.462 18.285 17.153 16.005 15.365 15.288 14.425 13.9 13.377 13.198 12.917 12.663 12.062 11.537 11.202 11.095 10.887 10.833 10.717 10.645 10.67 10.762 10.983 11.148 11.253 11.208 10.913 10.94 10.675 10.565 10.448 10.475 10.43 10.512 10.588 10.72 10.807 10.94 10.82 10.667 10.555 10.27 10.15 10.105 9.91 9.788 9.753 9.858 9.78 9.82 10.03 10.132 10.092 10.075 10.092 10.118 10.21 10.245 10.172 10.038 9.988 9.953 9.958 10.012 10.038 10.087 10.225 10.395 10.632 10.818 10.945 10.852 10.835 11.212 11.41 11.542 11.71 11.95 12.047 12.083 12.22 12.312 12.485 12.858 13.163 13.368 13.382 13.48 13.727 14.005 14.247 14.385 14.477 14.708 14.892 14.94 15.033 15.065 15.16 15.25 15.37 15.597 15.748 15.855 16.042 16.202 16.47 16.698 16.825 17.048 17.353 17.55 17.747 17.94 18.173 18.378 18.61 18.868 19.08 19.267 19.475 19.833 20.653 21.59 22.11 22.33 22.33 22.323 22.375 22.507 22.503 22.413 22.327 22.17 22.087 22.028 22.007 22.185 22.142 22.132 21.99 22.045 22.003 21.972 22.108 22.368 22.312 22.127 22.415 22.615 22.73 22.993 22.955 23.265 24.153 24.573 24.408 24.155 24.065 23.945 23.712 23.35 22.807 22.155 21.68 21.255 21 20.843 20.71 20.608 20.622 20.65 20.71 20.378 19.915 18.968 18.575 18.185 18 17.99 18.09 18.237 18.568 19.475 19.675 19.007 19.663 19.722 19.27 18.737 17.823 18.4 18.705 18.18 17.875 17.455 16.91 16.205 15.56 14.975 14.528 14.15 13.755 13.5 13.38 13.333 13.29 12.66 12.137 11.938 11.682 11.403 11.312 11.29 11.198 11.13 11.048 10.927 10.833 10.71 10.605 10.503 10.562 10.738 11 11.195 11.3 11.423 11.63 11.715 11.773 11.675 11.427 10.795 10.38 10.585 11.078 11.55 11.632 11.65 11.488 11.115 10.932 10.913 11.108 11.257 11.208 11.028 10.98 10.952 11.105 11.432 11.49 11.515 11.78 12.575 13.5 14.69 15.915 16.878 16.763 17.13 16.93 16.23 15.295 14.37 13.913 13.863 13.493 13.38 13.037 12.545 12.042 11.307 10.753 10.5 10.385 10.285 10.245 10.275 10.27 10.288 10.33 10.347 10.355 10.21 10.128 10.2 10.45 10.477 10.345 10.243 10.1 10.073 10.028 9.955 9.892 9.85 9.785 9.767 9.747 9.743 9.727 9.682 9.675 9.69 9.675 9.695 9.673 9.677 9.705 9.69 9.705 9.708 9.695 9.717 9.722 9.725 9.72 9.72 9.762 9.762 9.83 9.878 9.785 9.863 9.922 9.98 9.995 10.085 10.195 10.352 10.69 11.125 11.54 11.778 12.15 12.452 12.7 13.065 13.245 13.137 12.948 13.387 13.915 14.262 14.305 14.273 14 14.2 14.033 13.548 12.8 11.685 11.165 11.102 10.837 10.5 10.425 10.21
9.582 9.163 8.882 8.825 8.995 9.363 9.635 9.955 10.142 9.712 9.3 9.073 9.028 8.903 8.855 8.85 8.903 8.925 8.948 8.938 9.002 9.043 9.105 8.98 8.65 8.645 8.892 9.422 9.52 9.72 10.108 10.342 10.233 10.11 9.935 10.005 9.98 10.04 10.13 10.177 10.292 10.635 10.943 11.355 11.438 11.645 11.95 12.413 12.81 13.137 13.597 14.032 14.458 15.015 15.552 16.068 16.56 16.903 17.353 17.993 18.625 19.382 19.568 19.7 19.915 21.003 21.877 23.095 23.722 23.7 23.665 23.555 23.74 23.833 23.93 23.987 24.302 25.013 25.958 25.895 25.638 25.583 25.425 25.273 25.19 25.052 25.147 24.56 23.968 23.698 24.002 23.497 23.038 22.557 22.515 21.967 21.173 20.245 19.298 18.94 18.407 18.16 16.247 15.733 14.52 13.557 13.455 13.458 13.418 13.1 12.9 12.21 11.812 11.415 11.14 10.938 10.89 10.847 10.905 10.74 10.747 11.01 11.295 11.833 11.727 10.965 10.797 10.565 10.528 10.462 10.592 10.688 10.565 10.583 10.74 10.938 11.158 11.023 10.698 10.452 10.352 10.298 9.993 9.81 9.67 9.57 9.552 9.635 9.757 9.955 10.145 10.158 10.113 10.095 10.087 10.128 10.247 10.222 10.225 10.145 10.095 9.972 9.975 10.01 10.02 10.068 10.215 10.38 10.533 10.715 10.9 10.9 10.93 11.17 11.358 11.52 11.725 11.733 11.833 11.88 12.087 12.435 12.788 12.975 13.238 13.453 13.595 13.795 13.91 14.047 14.132 14.245 14.552 14.835 14.985 15.003 15.087 15.14 15.17 15.267 15.408 15.597 15.847 16.135 16.38 16.538 16.745 16.913 17.125 17.403 17.54 17.83 18.142 18.267 18.485 18.667 18.85 19.07 19.275 19.465 19.815 20.635 21.718 22.22 22.275 22.15 22.045 22.167 22.395 22.507 22.603 22.538 22.388 22.312 22.155 22.13 22.403 22.225 22.112 22.087 22.188 22.095 21.955 22.097 22.155 22.165 22.147 22.465 22.677 22.653 22.725 22.91 23.423 24.235 24.445 24.233 24.03 24.007 23.847 23.403 23.093 22.862 22.362 21.958 21.46 21.165 21.097 20.87 20.77 20.722 20.58 20.565 20.307 19.833 18.955 18.515 18.192 18.07 18.002 18.26 18.587 19.092 20.108 20.565 19.345 19.503 19.545 19.08 18.517 17.778 18.075 18.042 17.753 17.435 17.083 17.042 17.195 16.435 16.108 15.575 14.767 14.41 14.15 14.358 14.153 13.99 13.108 12.387 12.195 11.917 11.54 11.4 11.372 11.315 11.262 11.248 11.24 11.118 10.9 10.74 10.543 10.42 10.498 10.672 10.778 10.923 11.145 11.33 11.398 11.517 11.698 11.562 10.917 10.345 10.53 11.048 11.375 11.483 11.59 11.538 11.302 11.185 11.1 11.212 11.483 11.427 11.127 11.227 11.118 11.267 11.493 11.675 11.783 12.275 13.205 14.175 15.325 16.395 17.04 17.198 17.222 16.865 15.89 14.923 14.045 13.387 12.93 12.533 12.23 11.99 11.78 11.172 10.8 10.615 10.453 10.318 10.3 10.273 10.485 10.472 10.312 10.377 10.39 10.382 10.285 10.188 10.3 10.443 10.445 10.36 10.19 10.115 10.052 9.975 9.94 9.845 9.802 9.75 9.733 9.745 9.727 9.69 9.693 9.718 9.71 9.695 9.69 9.733 9.695 9.698 9.705 9.693 9.7 9.705 9.73 9.737 9.727 9.733 9.72 9.76 9.775 9.802 9.84 9.788 9.83 9.885 9.898 9.955 10.035 10.155 10.345 10.675 11.09 11.54 11.985 12.247 12.38 12.6 12.905 13.215 13.305 13.243 13.477 13.677 13.86 14.01 14.118 14.082 13.805 13.417 12.91 11.948 11.125 10.868 10.88 10.76 10.43 10.215 10.052
9.392 9.055 8.86 8.82 9.113 9.835 10.165 10.172 10.167 9.913 9.467 9.08 8.987 8.87 8.812 8.835 8.882 8.925 8.945 8.938 8.965 8.983 9.033 9.15 9.1 8.802 8.745 8.913 9.292 9.533 9.71 9.975 9.898 9.843 10.14 10.04 9.882 10.078 9.882 9.913 10.007 10.253 10.515 10.837 11.047 11.217 11.605 12.065 12.542 12.885 13.305 13.688 14.077 14.602 15.09 15.568 16.105 16.685 17.29 17.898 18.285 18.57 18.715 19.087 19.52 20.525 21.433 22.708 22.475 22.34 22.337 22.177 22.252 22.628 22.99 23.182 23.623 24.135 25.245 25.267 25.487 25.445 25.358 24.81 24.695 24.705 24.698 24.575 24.163 23.743 23.74 23.61 23.315 23.182 22.98 22.495 22.51 21.757 20.615 19.667 17.76 16.962 15.462 15.047 13.583 13.105 14.12 13.415 13.337 13.172 13.092 12.818 12.198 11.798 11.628 11.632 11.148 10.913 10.965 10.908 10.802 10.95 11.07 11.415 11.28 10.86 10.773 10.655 10.69 10.733 10.885 11.012 10.735 10.585 10.583 10.82 10.91 10.837 10.552 10.423 10.363 10.085 9.79 9.6 9.465 9.4 9.493 9.733 9.807 10.033 10.14 10.22 10.208 10.115 10.068 10.083 10.148 10.202 10.243 10.262 10.273 10.167 10.06 10.055 10.095 10.07 10.075 10.21 10.385 10.583 10.708 10.81 10.9 10.97 10.988 11.025 11.19 11.372 11.597 11.755 12.05 12.382 12.627 12.85 13.135 13.48 13.628 13.895 14.01 14.013 14.08 14.235 14.47 14.695 14.858 14.95 15.075 15.087 15.16 15.305 15.507 15.815 16.157 16.318 16.462 16.625 16.812 16.952 17.17 17.37 17.56 17.862 18.083 18.247 18.49 18.752 18.938 19.128 19.312 19.577 19.932 20.562 21.432 22.03 22.135 21.845 21.825 21.892 22.35 22.605 22.65 22.72 22.688 22.603 22.41 22.29 22.465 22.847 22.292 22.112 22.195 22.177 22.105 22.175 22.198 22.215 22.28 22.515 22.653 22.677 22.705 23.038 23.69 24.06 24.378 24.438 24.36 24.048 23.417 22.75 22.478 22.552 22.52 22.12 21.573 21.208 20.99 20.85 20.733 20.587 20.392 20.423 20.055 19.36 18.862 18.665 18.51 18.338 18.073 18.38 18.845 19.323 19.91 20.507 20.35 19.472 19.097 18.735 18.147 17.475 17.342 17.43 17.095 17.103 16.997 16.725 17.095 17.05 17.125 16.538 15.35 14.773 14.677 15.21 14.715 14.448 13.875 13 12.693 12.048 11.72 11.56 11.535 11.517 11.573 11.533 11.493 11.29 11.012 10.783 10.64 10.45 10.432 10.507 10.628 10.705 10.903 11.077 11.148 11.335 11.645 11.445 10.93 10.375 10.485 10.943 11.24 11.347 11.423 11.503 11.44 11.448 11.378 11.4 11.432 11.282 11.148 11.217 11.247 11.54 11.805 12.115 12.432 13.135 14.017 15.017 16.093 16.673 16.892 16.935 16.985 16.388 15.38 14.547 13.267 12.602 12.173 11.892 11.585 11.318 10.97 10.653 10.545 10.43 10.31 10.295 10.267 10.26 10.597 10.493 10.3 10.34 10.45 10.497 10.295 10.217 10.343 10.377 10.37 10.253 10.13 10.06 10.002 9.96 9.865 9.807 9.765 9.73 9.717 9.677 9.693 9.712 9.757 9.745 9.727 9.72 9.745 9.745 9.71 9.705 9.688 9.677 9.68 9.7 9.757 9.715 9.735 9.755 9.763 9.765 9.765 9.8 9.833 9.805 9.807 9.847 9.887 9.907 10.007 10.128 10.337 10.745 11.205 11.545 11.722 12.02 12.02 12.225 12.608 12.77 13.125 13.11 13.135 13.307 13.438 13.57 13.628 13.29 13.07 12.792 12.427 11.58 10.837 10.475 10.37 10.472 10.32 10.233 10.177
9.017 8.93 8.812 8.84 9.125 9.63 10.122 10.175 10.105 10.045 9.587 9.083 8.943 8.863 8.82 8.83 8.875 8.915 8.92 8.967 8.948 8.957 9.003 9.06 9.135 9.188 8.96 8.82 8.932 9.343 9.488 9.597 9.75 9.712 9.837 10.25 10.18 9.73 9.677 9.775 9.828 10.017 10.315 10.608 10.778 11.007 11.387 11.722 12.095 12.453 12.885 13.267 13.715 14.11 14.6 15.11 15.578 16.03 16.653 17.3 17.815 18.173 18.487 18.94 19.397 20.015 20.56 20.925 20.892 21.095 21.005 20.805 20.895 21.285 21.677 22.337 22.69 22.895 23.382 24.358 24.945 25.38 25.025 24.722 24.54 24.585 24.462 24.032 23.452 23.17 23.263 23.092 22.977 23.177 23.16 22.855 22.548 21.455 20.358 18.878 17.522 16.548 15.545 14.54 13.615 13.887 15.677 14.288 13.327 13.145 13.115 13.172 12.675 12.225 12.057 11.725 11.93 11.587 10.975 10.812 10.83 10.788 10.738 10.747 11.023 11.048 11.63 11.17 10.94 11.325 11.562 10.905 10.735 10.63 10.535 10.578 10.76 10.755 10.545 10.323 10.12 9.72 9.503 9.405 9.342 9.36 9.618 9.78 9.927 10.137 10.16 10.215 10.24 10.142 10.085 10.073 10.073 10.14 10.24 10.212 10.267 10.267 10.233 10.198 10.233 10.16 10.095 10.115 10.24 10.415 10.552 10.688 10.78 10.887 10.938 10.977 11.138 11.293 11.427 11.685 12.01 12.233 12.485 12.755 13.102 13.395 13.438 13.573 13.852 13.948 14.135 14.33 14.448 14.533 14.625 14.812 15.038 15.135 15.37 15.507 15.642 15.975 16.205 16.37 16.487 16.667 16.812 16.955 17.2 17.495 17.695 17.948 18.123 18.292 18.517 18.847 18.96 19.167 19.388 19.63 19.895 20.318 20.872 21.173 21.573 21.812 21.737 21.853 22.465 22.743 22.825 22.775 22.8 22.772 22.667 22.443 22.555 22.905 22.667 22.285 22.218 22.25 22.295 22.24 22.222 22.31 22.42 22.555 22.647 22.728 22.823 22.938 23.698 24.243 24.618 24.882 24.427 23.568 22.882 22.478 22.13 22.042 22.41 22.225 21.638 21.222 20.91 20.725 20.538 20.36 20.253 20.195 19.85 19.345 18.987 18.775 18.472 18.14 17.952 18.083 18.395 19 20.013 20.41 20.245 19.3 18.625 18.24 17.735 17.08 16.69 16.795 16.642 16.903 16.945 16.695 16.525 17 16.897 16.155 15.608 14.908 15.182 15.682 15.195 14.708 14.155 13.425 13.248 12.44 11.95 11.637 11.688 11.79 11.845 11.913 11.847 11.648 11.245 10.875 10.675 10.51 10.445 10.405 10.525 10.592 10.745 10.97 11.033 11.113 11.403 11.38 11.038 10.395 10.382 10.858 11.145 11.198 11.172 11.307 11.445 11.642 11.733 11.815 11.738 11.597 11.548 11.578 11.645 11.94 12.305 12.653 13.093 13.762 15.002 15.438 15.635 15.827 15.84 16.215 15.958 15.713 15.102 13.913 12.885 12.115 11.695 11.512 11.347 10.92 10.587 10.4 10.253 10.318 10.22 10.24 10.295 10.252 10.23 10.193 10.188 10.318 10.615 10.823 10.548 10.29 10.33 10.318 10.307 10.212 10.085 10.025 9.975 9.908 9.863 9.8 9.757 9.717 9.7 9.717 9.73 9.743 9.757 9.737 9.755 9.755 9.727 9.715 9.72 9.712 9.725 9.698 9.7 9.733 9.753 9.77 9.792 9.78 9.763 9.762 9.793 9.825 9.84 9.823 9.783 9.812 9.845 9.9 9.948 10.097 10.347 10.67 11.04 11.355 11.58 11.677 11.785 12.005 12.495 13.057 13.323 13.352 13.4 13.355 13.092 13.115 12.96 12.842 12.677 12.32 11.972 11.31 10.802 10.52 10.22 10.128 10.16 10.173 10.217
8.783 8.82 8.778 8.823 8.948 9.305 9.835 9.88 9.765 9.41 9.093 8.952 8.88 8.842 8.807 8.802 8.852 8.903 8.935 8.953 8.95 8.965 8.998 9.02 9.062 9.118 9.198 9.095 8.922 9.033 9.327 9.515 9.578 9.578 9.542 9.715 10.06 9.77 9.543 9.637 9.642 9.75 10.055 10.337 10.545 10.812 11.128 11.488 11.827 12.177 12.535 12.92 13.343 13.698 14.15 14.663 15.13 15.523 15.997 16.562 17.22 17.878 18.358 18.86 19.32 19.302 19.335 19.702 19.673 19.877 20.083 19.817 19.875 20.142 20.575 21.265 21.46 21.84 22.653 23.978 25.245 25.608 24.31 25.147 25.467 25.12 24.948 23.897 23.16 22.815 22.56 22.625 22.628 23.292 23.025 22.285 21.51 21.198 20.157 18.985 17.73 16.398 15.525 15.16 14.92 14.82 15.32 14.975 14.07 14.062 13.227 13.475 13.135 12.858 11.752 11.92 11.36 11.467 10.82 12.475 10.97 10.865 10.773 10.78 10.97 11.275 12.347 11.875 11.358 11.597 11.4 11.01 10.76 10.725 10.483 10.398 10.52 10.648 10.497 10.27 10.083 9.642 9.395 9.325 9.235 9.337 9.703 9.927 10.033 10.128 10.19 10.148 10.182 10.153 10.105 10.11 10.057 10.08 10.155 10.163 10.18 10.267 10.27 10.325 10.297 10.24 10.102 10.095 10.173 10.273 10.432 10.557 10.665 10.738 10.762 10.87 11.052 11.145 11.233 11.677 11.925 12.182 12.392 12.642 12.932 13.315 13.48 13.585 13.783 13.943 14.092 14.235 14.41 14.555 14.745 14.952 15.092 15.167 15.34 15.545 15.788 15.922 16.24 16.388 16.485 16.562 16.74 16.942 17.19 17.417 17.597 17.865 18.177 18.493 18.675 18.907 19.1 19.21 19.467 19.763 19.927 20.198 20.86 22.062 22.507 22.38 22.278 22.257 22.583 22.86 22.98 23.028 23.017 23.097 22.903 22.74 22.647 23.025 22.965 22.403 22.193 22.278 22.38 22.343 22.405 22.522 22.54 22.7 22.75 22.815 23.028 23 23.362 23.995 24.615 24.642 23.975 23.327 22.938 22.722 22.55 22.358 22.282 22.438 22.06 21.462 21.118 20.847 20.56 20.395 20.27 20.165 19.95 19.763 19.305 18.725 18.177 17.888 17.82 17.935 18.128 18.675 20.2 20.625 19.855 19.015 18.41 18.045 17.535 17.077 16.618 16.515 16.425 16.573 16.715 16.737 16.218 16.112 15.955 15.382 14.882 14.69 15.52 16.148 15.372 14.753 14.06 13.783 13.182 12.505 12.03 11.655 11.59 11.705 11.773 12.003 12.225 12.075 11.592 11.055 10.8 10.635 10.485 10.452 10.405 10.448 10.605 10.767 10.927 11.092 11.22 11.373 11.53 10.462 10.385 10.765 11.137 11.18 10.988 11 11.238 11.552 11.93 12.193 12.265 12.137 12.15 12.185 12.24 12.323 12.71 13.188 13.523 14.125 14.882 14.443 14.448 14.66 14.752 15.115 15.038 14.638 14.465 13.248 12.3 11.715 11.503 11.29 11.172 10.905 10.49 10.262 10.25 10.323 10.32 10.323 10.312 10.177 10.052 10.035 10.102 10.495 10.892 10.998 10.623 10.22 10.235 10.255 10.227 10.095 10.038 10.002 9.94 9.913 9.86 9.78 9.74 9.72 9.727 9.755 9.75 9.738 9.73 9.73 9.745 9.73 9.715 9.705 9.743 9.76 9.767 9.76 9.778 9.793 9.818 9.85 9.833 9.76 9.75 9.747 9.748 9.78 9.863 9.967 9.8 9.815 9.878 9.858 9.975 10.032 10.2 10.392 10.635 10.998 11.32 11.512 11.682 12.097 12.528 13.028 13.335 13.583 13.96 13.927 13.203 12.908 12.585 12.312 12.158 11.93 11.75 11.435 10.913 10.423 9.99 10.097 10.023 10.105 10.03
8.722 8.72 8.615 8.75 8.85 8.962 9.205 9.217 9.125 8.972 9.052 8.865 8.855 8.82 8.792 8.79 8.833 8.898 8.95 8.955 8.96 8.977 8.99 8.993 9.033 9.083 9.148 9.22 9.165 9.005 9.09 9.352 9.455 9.42 9.443 9.49 9.628 9.54 9.483 9.475 9.49 9.573 9.733 9.91 10.113 10.403 10.852 11.21 11.517 11.863 12.255 12.635 13.02 13.42 13.788 14.252 14.717 15.113 15.583 16.138 16.68 17.33 17.882 18.522 19.202 19.125 18.765 18.765 18.93 19.1 19.095 18.985 19.015 19.1 19.433 19.727 20.24 21.138 22.183 23.67 24.815 24.728 23.82 24.895 25.625 25.105 24.638 23.495 23.057 22.683 22.568 22.62 22.647 23.153 22.625 21.458 21.09 21.19 20.57 19.248 17.718 17.08 15.967 16.04 14.977 15.01 14.812 13.663 13.382 13.972 13.203 13.345 13.238 12.485 11.675 12.533 11.023 11.2 10.755 11.635 10.873 10.9 10.87 10.835 11.033 11.465 11.645 11.49 11.655 12.118 11.552 11.13 10.802 10.725 10.517 10.385 10.355 10.593 10.38 10.273 10.175 9.748 9.368 9.267 9.198 9.345 9.605 9.91 9.995 10.075 10.135 10.125 10.153 10.16 10.125 10.095 10.083 10.073 10.08 10.125 10.155 10.212 10.267 10.32 10.292 10.2 10.095 10.045 10.11 10.23 10.295 10.417 10.557 10.642 10.722 10.767 10.955 10.993 11.153 11.498 11.83 12.155 12.4 12.613 12.993 13.265 13.48 13.605 13.615 13.775 13.965 14.292 14.592 14.71 14.868 14.89 15.085 15.333 15.545 15.743 16.045 16.18 16.31 16.26 16.4 16.608 16.85 17.108 17.292 17.445 17.592 17.888 18.22 18.448 18.63 18.842 19.135 19.327 19.46 19.682 19.938 20.177 20.712 21.727 22.497 22.763 22.79 22.728 22.798 22.885 22.997 23.135 23.228 23.278 23.08 22.97 22.792 22.892 22.967 22.557 22.358 22.33 22.385 22.42 22.585 22.66 22.667 22.818 22.807 22.83 22.948 23.048 23.295 23.8 24.345 24.487 23.87 23.355 23.307 23.292 22.468 22.305 22.275 22.515 22.34 21.66 21.217 20.972 20.722 20.557 20.45 20.4 20.403 20.583 20.28 19.185 18.485 18.062 17.823 17.92 18.21 18.595 19.842 20.65 20.125 19.427 19.028 18.515 18.278 17.625 17.017 16.64 16.463 16.517 16.472 16.35 16.377 15.753 15.165 14.653 14.238 14.47 15.295 16.087 15.382 14.96 13.845 12.9 12.412 12.123 11.95 11.743 11.58 11.627 11.727 11.858 12.238 12.28 11.722 11.08 10.878 10.737 10.53 10.415 10.368 10.39 10.488 10.585 10.672 10.827 10.91 11.033 11.052 10.555 10.413 10.58 11.073 11.172 10.875 10.695 10.852 11.34 11.653 11.99 12.425 12.448 12.458 12.278 12.34 12.43 12.677 13.345 13.933 14.315 14.26 13.592 13.208 13.462 13.59 13.82 13.802 13.472 13.19 12.465 11.622 11.328 11.25 11.083 11.032 10.927 10.637 10.328 10.318 10.398 10.39 10.377 10.26 10.028 9.997 10.09 10.32 10.998 11.023 10.795 10.533 10.243 10.215 10.182 10.113 10.015 9.972 9.935 9.913 9.855 9.828 9.79 9.757 9.747 9.733 9.72 9.715 9.722 9.727 9.745 9.755 9.743 9.727 9.733 9.767 9.788 9.762 9.753 9.785 9.837 9.812 9.795 9.79 9.812 9.78 9.753 9.733 9.737 9.8 10.05 9.878 9.795 9.823 9.86 9.948 10.012 10.08 10.11 10.273 10.57 10.915 11.245 11.648 12.222 12.42 12.825 13.142 13.58 14.193 14.337 13.528 13.26 12.722 12.278 11.952 11.88 11.585 11.477 11.085 10.347 9.92 9.865 9.828 9.927 9.975
8.815 8.72 8.575 8.66 8.74 8.833 8.885 8.847 8.845 8.865 8.878 8.917 8.913 8.818 8.82 8.833 8.863 8.905 8.935 8.975 8.972 8.97 9 8.995 8.985 9.01 9.062 9.145 9.247 9.248 9.09 9.153 9.387 9.455 9.415 9.427 9.592 9.602 9.54 9.485 9.368 9.403 9.573 9.762 9.922 10.172 10.525 10.917 11.238 11.688 12.012 12.368 12.788 13.25 13.573 14.05 14.445 14.905 15.44 15.87 16.425 17.013 17.682 18.243 18.772 19.13 18.75 18.597 18.682 18.583 18.515 18.395 18.167 18.205 18.59 19.062 19.91 21.222 22.252 22.688 23.468 24.03 23.842 24.86 25.347 25.007 24.292 23.567 23.24 23.227 23.18 22.733 22.37 22.452 21.475 20.67 20.67 20.975 20.288 18.87 18.278 18.645 16.62 16.51 15.485 14.955 14.35 13.373 12.855 13.033 13.41 13.587 12.465 11.825 12.408 11.515 12.587 11.215 10.858 10.717 10.747 11.03 10.96 10.852 11.002 11.1 11.13 11.113 11.29 11.458 11.377 10.983 10.72 10.62 10.577 10.477 10.325 10.307 10.292 10.305 10.245 9.898 9.507 9.245 9.217 9.305 9.54 9.938 9.972 10.033 10.1 10.108 10.12 10.155 10.132 10.068 10.058 10.092 10.06 10.083 10.14 10.165 10.225 10.273 10.283 10.17 10.04 10.017 10.05 10.155 10.222 10.32 10.45 10.59 10.672 10.743 10.83 10.87 11.165 11.53 11.735 11.99 12.2 12.525 12.765 12.96 13.115 13.36 13.595 13.93 14.257 14.45 14.602 14.69 14.773 14.792 15.003 15.405 15.627 15.868 16.198 16.327 16.375 16.388 16.595 16.79 16.965 17.267 17.493 17.638 17.827 17.99 18.177 18.33 18.52 18.82 19.05 19.205 19.465 19.702 19.925 20.167 20.58 21.343 22.108 22.565 22.835 22.872 22.952 22.983 23.083 23.275 23.562 23.467 23.47 23.267 23.023 22.958 23.085 22.897 22.68 22.552 22.41 22.458 22.638 22.78 22.71 22.743 22.82 22.95 23.052 23.323 23.753 24.093 24.478 24.903 24.872 23.573 23.31 23.315 22.965 22.657 22.8 22.868 22.49 21.833 21.342 21.02 20.802 20.702 20.63 20.58 20.715 21.002 20.33 19.452 18.853 18.095 17.837 17.995 18.16 18.41 19.562 20.278 19.548 19.21 19.923 19.392 18.35 18.04 17.283 16.792 16.647 16.698 16.54 16.618 16.42 15.375 14.525 14.142 14.03 14.562 15.255 15.755 15.273 14.095 13.118 12.387 12.078 11.948 11.903 11.823 11.785 11.76 11.735 11.86 12.038 12.27 11.765 11.165 10.9 10.778 10.727 10.548 10.432 10.51 10.53 10.52 10.525 10.64 10.738 10.775 10.757 10.575 10.435 10.475 10.97 11.172 11.25 10.9 10.688 10.878 11.137 11.448 11.95 12.153 12.6 12.525 12.392 12.458 12.688 13.195 13.95 14.405 13.762 12.648 12.005 12.323 12.53 12.705 12.56 12.337 12.172 11.76 11.245 11.025 10.96 10.84 10.812 10.757 10.695 10.368 10.358 10.37 10.345 10.25 10.142 10.087 10.29 10.637 10.863 10.887 10.653 10.395 10.262 10.188 10.13 10.115 10.007 9.96 9.932 9.892 9.86 9.835 9.825 9.82 9.8 9.757 9.725 9.717 9.717 9.743 9.765 9.763 9.75 9.75 9.745 9.765 9.802 9.823 9.823 9.807 9.83 9.833 9.812 9.833 9.852 9.84 9.802 9.767 9.755 9.77 9.79 9.83 9.843 9.747 9.812 9.85 9.863 9.945 10.025 10.002 10.042 10.21 10.542 10.8 11.175 11.705 12.188 12.602 12.96 13.483 14.15 14.092 13.68 13.337 12.83 12.288 11.877 11.562 11.275 11.217 11.01 10.422 10.01 9.71 9.767 9.785 9.932
8.87 8.743 8.648 8.695 8.677 8.702 8.765 8.802 8.825 8.833 8.865 8.903 8.895 8.847 8.833 8.86 8.877 8.913 8.962 8.972 9.013 9.017 9.033 9.033 8.985 8.967 9.038 9.12 9.21 9.29 9.327 9.14 9.193 9.392 9.417 9.372 9.545 9.597 9.615 9.523 9.352 9.33 9.46 9.64 9.837 10.068 10.395 10.79 11.188 11.517 11.882 12.23 12.605 13.057 13.415 13.83 14.315 14.705 15.205 15.8 16.327 16.785 17.245 17.778 18.26 18.698 18.61 18.385 18.358 18.245 18.028 17.755 17.622 17.595 18.003 18.92 19.967 21.37 22.61 23.475 23.817 24.378 24.07 24.745 25.295 24.815 23.99 23.647 23.618 23.59 23.19 22.335 21.767 21.647 21.392 20.745 20.222 19.99 19.013 18.757 19.343 18.913 17.1 16.415 15.55 14.59 14.64 13.837 13.63 13.34 13.44 13.475 12.62 12.13 12.33 13.025 12.865 11.065 10.943 10.827 10.765 10.898 11.01 10.917 11.115 11.4 11.243 10.925 10.823 10.833 10.922 10.798 10.747 10.66 10.61 10.502 10.36 10.273 10.312 10.273 10.318 10.055 9.57 9.29 9.19 9.217 9.438 9.792 9.957 9.955 10.028 10.073 10.092 10.163 10.153 10.083 10.068 10.085 10.065 10.08 10.113 10.148 10.155 10.165 10.24 10.217 10.048 10.015 10.03 10.085 10.165 10.243 10.355 10.507 10.632 10.705 10.757 10.757 11.083 11.495 11.743 11.875 12.128 12.413 12.648 12.898 13.175 13.507 13.675 13.847 14.087 14.172 14.352 14.467 14.592 14.788 15.14 15.577 15.667 15.92 16.233 16.26 16.438 16.55 16.84 17.052 17.34 17.575 17.645 17.71 17.878 18.112 18.278 18.365 18.538 18.855 19.195 19.318 19.56 19.82 19.952 20.155 20.505 21.11 21.942 22.608 22.987 22.987 22.983 23.123 23.26 23.435 23.622 23.87 23.872 23.545 23.307 23.023 23 23.202 22.873 22.778 22.562 22.57 22.76 22.865 22.862 22.882 22.95 23.15 23.195 23.56 24.083 24.81 25.225 25.427 25.472 24.435 23.562 23.763 23.945 23.7 23.537 23.13 22.665 22.118 21.608 21.095 20.86 20.775 20.983 20.975 20.892 20.708 20.038 19.427 19.017 18.253 17.885 18.023 18.2 17.817 18.29 18.635 18.655 18.8 19.448 19.467 18.468 18.02 17.382 16.878 16.715 16.823 16.618 16.545 15.91 14.855 14.163 13.872 14.12 14.887 15.525 15.488 15.253 13.618 12.913 12.323 11.913 11.752 11.707 11.587 11.637 11.873 11.798 11.972 12.248 12.302 11.948 11.315 10.927 10.85 10.847 10.753 10.695 10.672 10.602 10.505 10.443 10.507 10.542 10.593 10.66 10.54 10.443 10.427 10.858 11.273 11.135 11.057 10.865 10.757 10.785 10.908 11.263 11.66 12.257 12.757 12.863 12.802 12.845 13.055 13.608 14.057 13.568 12.205 11.355 11.41 11.65 11.72 11.5 11.413 11.41 11.22 10.945 10.81 10.73 10.68 10.627 10.672 10.583 10.347 10.283 10.253 10.205 10.165 10.195 10.405 10.62 10.552 10.507 10.4 10.288 10.177 10.13 10.062 10.038 9.99 9.92 9.892 9.87 9.87 9.858 9.85 9.83 9.815 9.8 9.763 9.74 9.75 9.745 9.747 9.77 9.785 9.765 9.78 9.8 9.87 9.945 10.01 10.038 10.023 9.958 9.905 9.855 9.863 9.885 9.873 9.802 9.798 9.767 9.778 9.825 9.842 9.78 9.708 9.77 9.887 9.948 9.915 9.997 10.07 10.038 10.158 10.273 10.628 10.913 11.318 11.845 12.318 12.855 13.46 14.177 13.852 13.515 13.16 12.73 12.288 11.703 11.248 11.047 10.972 10.807 10.512 10.295 9.89 9.773 9.693 9.818
8.847 8.755 8.753 8.812 8.72 8.7 8.702 8.727 8.74 8.802 8.887 8.94 8.932 8.845 8.81 8.83 8.89 8.932 8.98 9.015 9.058 9.062 9.048 9.005 9.007 9.005 9.02 9.07 9.127 9.215 9.345 9.398 9.177 9.208 9.4 9.443 9.453 9.528 9.613 9.55 9.415 9.337 9.392 9.573 9.825 10.052 10.385 10.74 11.137 11.552 11.97 12.212 12.51 12.91 13.342 13.695 14.125 14.545 15.097 15.722 16.19 16.55 16.913 17.413 17.8 18.115 18.343 17.97 17.667 17.465 17.208 17.16 17.185 17.39 17.927 18.445 20.073 21.62 23.767 24.733 24.91 24.807 24.153 24.538 25.147 24.222 23.05 23.792 23.715 22.835 22.673 22.05 21.267 21.142 21.31 20.49 19.885 19.44 19.33 19.503 19.305 18.93 17.628 17.067 15.523 15.2 14.807 14.02 13.755 13.532 13.843 12.985 12.698 12.56 12.41 12.087 11.398 11.038 10.952 10.948 10.865 10.875 11 11.062 11.233 11.323 11.07 10.757 10.685 10.595 10.825 10.825 10.812 10.695 10.645 10.587 10.415 10.307 10.298 10.307 10.285 10.273 9.68 9.37 9.208 9.153 9.323 9.493 9.8 9.92 9.942 10.045 10.08 10.198 10.177 10.13 10.062 10.07 10.068 10.075 10.08 10.097 10.14 10.215 10.217 10.235 10.105 10.017 10.023 10.052 10.125 10.19 10.26 10.38 10.545 10.65 10.705 10.682 10.805 11.092 11.388 11.797 12.108 12.382 12.71 12.993 13.225 13.462 13.622 13.837 13.9 13.985 14.125 14.368 14.655 14.932 15.283 15.592 15.7 15.94 16.122 16.208 16.417 16.52 16.975 17.243 17.618 17.618 17.645 17.745 17.935 18.177 18.38 18.53 18.84 19.015 19.215 19.39 19.595 19.833 19.99 20.215 20.612 21.09 21.835 22.677 22.89 22.81 22.86 23.077 23.257 23.41 23.63 23.938 24.065 23.968 23.575 23.25 23.19 23.403 23.18 22.925 22.695 22.59 22.795 23.112 23.05 22.987 23.055 23.185 23.247 23.522 24.142 24.858 25.365 25.603 25.573 25.028 24.175 24.35 24.353 24.11 23.733 23.318 23.127 22.548 21.667 21.225 20.86 20.827 20.995 21.378 20.985 20.255 19.653 19.275 18.733 18.425 18.222 18.15 18.415 17.548 17.217 17.45 18.052 18.368 18.78 19.177 18.335 17.98 17.32 16.868 16.395 16.222 16.202 15.917 15.227 14.392 13.997 13.93 14.368 15.038 15.13 14.432 13.868 13.39 12.845 12.148 11.717 11.53 11.39 11.342 11.375 11.637 11.685 11.8 11.952 11.943 11.623 11.26 11.08 10.96 10.903 10.905 10.762 10.702 10.602 10.512 10.465 10.445 10.462 10.502 10.557 10.512 10.413 10.41 10.505 11.135 11.017 11.1 11 10.852 10.76 10.69 10.842 11.185 11.668 12.358 13.11 13.108 12.907 12.663 12.945 13.153 13.235 12.047 10.967 10.952 11.09 11.078 10.96 10.882 10.908 10.845 10.705 10.63 10.57 10.548 10.528 10.565 10.398 10.25 10.185 10.2 10.185 10.188 10.193 10.435 10.488 10.392 10.327 10.273 10.195 10.08 10.03 9.975 9.92 9.885 9.855 9.852 9.878 9.868 9.865 9.858 9.84 9.807 9.788 9.775 9.788 9.767 9.757 9.755 9.775 9.802 9.818 9.86 9.885 10.015 10.123 10.188 10.325 10.335 10.135 10.142 10.06 9.917 9.865 9.847 9.852 9.807 9.77 9.788 9.847 9.835 9.783 9.708 9.73 9.855 9.9 10.012 10.087 10.052 10.128 10 10.233 10.635 10.908 11.18 11.637 12.115 12.823 13.65 14.038 13.78 13.34 12.868 12.587 12.215 11.618 11.177 10.955 10.877 10.877 10.837 10.483 10.23 9.985 9.708 9.755
8.89 8.783 8.762 8.905 8.84 8.8 8.733 8.71 8.717 8.735 8.852 8.872 8.85 8.83 8.825 8.825 8.878 8.945 9.005 9.062 9.062 9.08 9.06 9.03 9.028 9.068 9.052 9.062 9.12 9.215 9.302 9.4 9.422 9.2 9.22 9.46 9.498 9.533 9.615 9.528 9.4 9.355 9.415 9.573 9.805 10.045 10.378 10.685 11.095 11.483 11.845 12.14 12.42 12.78 13.182 13.608 13.953 14.435 14.99 15.47 15.845 16.253 16.612 16.955 17.305 17.698 17.98 17.67 17.1 16.952 16.98 16.95 16.948 17.245 17.608 18.505 20.16 22.083 23.192 23.82 24.743 24.432 23.295 24.01 23.675 23 22.728 23.115 23.31 22.115 21.593 21.43 21.173 21.092 21.295 20.927 20.585 20.458 20.592 19.51 20.132 19.92 18.06 17.717 15.9 15.727 15.148 14.557 14.3 13.985 13.608 13.27 12.635 12.54 12.328 12.193 12.175 11.365 11.055 10.87 10.863 10.93 11.195 11.28 11.312 11.243 11.007 10.76 10.96 10.863 10.743 10.94 11.005 10.792 10.693 10.55 10.5 10.395 10.307 10.217 10.252 10.208 10.073 9.62 9.395 9.127 9.193 9.443 9.615 9.852 9.972 9.968 10.047 10.163 10.233 10.225 10.108 10.062 10.065 10.075 10.062 10.06 10.137 10.285 10.247 10.25 10.11 10.03 9.995 10.012 10.058 10.12 10.195 10.283 10.467 10.613 10.722 10.698 10.802 11.09 11.608 11.917 12.158 12.415 12.733 12.908 13.073 13.24 13.427 13.585 13.675 13.875 14.185 14.743 14.977 15.045 15.28 15.497 15.717 15.935 16.157 16.325 16.475 16.63 17.005 17.435 17.485 17.608 17.66 17.788 17.97 18.233 18.583 18.925 19.032 19.208 19.333 19.455 19.663 19.96 20.067 20.298 20.653 20.962 21.503 22.25 22.695 22.815 22.87 23.03 23.237 23.423 23.735 23.827 23.885 24.103 23.93 23.583 23.37 23.49 23.41 23.167 22.897 22.837 23.025 23.017 23.032 23.13 23.035 23.27 23.323 23.587 23.875 24.375 24.858 25.397 25.528 24.8 24.323 24.077 24.085 24.03 23.642 23.27 23.325 22.493 21.728 21.263 20.938 20.778 20.86 21.163 21.128 20.208 19.517 19.118 18.82 18.795 18.66 18.448 18.185 17.417 17.323 17.193 17.17 17.942 18.583 17.938 17.372 17.243 17.065 16.778 16.4 15.86 15.77 15.42 15.123 14.517 13.935 13.788 14.302 14.618 14.34 13.453 12.983 12.852 12.653 11.92 11.57 11.403 11.285 11.257 11.265 11.425 11.452 11.273 11.358 11.325 11.265 11.265 11.055 10.865 10.89 10.873 10.8 10.682 10.587 10.49 10.458 10.452 10.448 10.45 10.47 10.465 10.37 10.398 10.373 10.762 11.038 11.015 10.917 10.927 10.788 10.708 10.645 10.903 11.278 11.79 12.47 12.917 12.7 12.275 12.285 12.273 11.895 11.347 10.892 10.802 10.81 10.833 10.745 10.66 10.65 10.62 10.535 10.54 10.49 10.443 10.415 10.373 10.312 10.245 10.202 10.31 10.275 10.215 10.2 10.36 10.382 10.3 10.215 10.167 10.08 10.033 10.002 9.925 9.868 9.852 9.863 9.868 9.89 9.86 9.843 9.812 9.802 9.798 9.795 9.785 9.788 9.778 9.765 9.767 9.778 9.815 9.868 9.907 9.962 10.04 10.135 10.283 10.507 10.417 10.387 10.23 10.113 9.967 9.89 9.855 9.818 9.802 9.778 9.767 9.823 9.812 9.788 9.725 9.702 9.825 9.913 10.04 10.135 10.157 10.512 10.102 10.485 10.837 11.108 11.38 11.745 12.23 12.885 13.807 14.003 13.865 13.342 12.56 12.193 12.042 11.625 11.257 10.958 10.8 10.78 10.8 10.67 10.432 10.15 9.852 9.738
8.967 8.8 8.78 8.895 8.9 8.842 8.815 8.793 8.757 8.725 8.743 8.798 8.815 8.807 8.807 8.837 8.887 8.94 9.007 9.07 9.09 9.073 9.062 9.045 9.04 9.055 9.062 9.087 9.122 9.203 9.302 9.368 9.44 9.423 9.218 9.288 9.545 9.542 9.583 9.542 9.435 9.4 9.465 9.597 9.818 10.042 10.365 10.66 11.07 11.42 11.75 12.05 12.358 12.682 13.045 13.54 13.945 14.323 14.788 15.227 15.76 16.153 16.42 16.7 16.962 17.312 17.612 17.138 16.66 16.5 16.483 16.728 17 17.16 17.465 18.52 19.64 21.805 22.438 23.46 23.665 22.505 21.865 22.44 22.817 22.438 22.792 22.353 22.035 21.63 21.57 22.13 22.033 21.67 21.487 21.278 20.93 20.885 21.183 20.752 20.558 20.07 18.285 17.778 17.438 16.513 16.023 15.943 14.983 14.613 14.427 14.015 12.95 13.47 12.943 12.062 12.137 11.962 11.302 11.137 10.945 11.045 11.27 11.285 11.36 11.318 11.13 10.975 11.092 11.363 10.905 11.26 11.09 10.8 10.66 10.565 10.515 10.455 10.368 10.318 10.2 10.248 10.155 9.82 9.573 9.22 9.123 9.278 9.455 9.727 9.953 9.93 10.015 10.148 10.275 10.29 10.163 10.048 10.052 10.08 10.083 10.068 10.102 10.248 10.23 10.227 10.148 10.075 10.017 10.005 10.015 10.095 10.153 10.235 10.392 10.593 10.74 10.83 10.955 11.378 11.685 11.865 12.18 12.382 12.505 12.785 13.087 13.235 13.44 13.645 13.727 14.168 14.573 14.89 15.175 15.233 15.38 15.533 15.847 16.22 16.36 16.513 16.648 16.85 17.038 17.213 17.375 17.478 17.545 17.767 18.153 18.335 18.595 18.888 19.03 19.163 19.36 19.573 19.868 20.1 20.215 20.475 20.585 20.685 21.11 22.013 22.862 23.048 22.913 22.92 23.19 23.438 23.73 23.858 23.915 24.182 24.158 23.908 23.685 23.69 23.653 23.415 23.042 23.057 23.05 23.073 23.202 23.228 23.295 23.388 23.417 23.548 23.753 24.173 24.557 25.118 25.565 24.965 24.575 24.638 24.505 23.938 23.302 23.147 23.35 22.548 21.775 21.385 21.01 20.845 20.798 20.628 20.752 20.39 19.72 19.455 19.33 19.7 19.788 18.805 18.347 18.715 19.11 17.82 17.007 16.798 17.688 17.16 16.66 16.595 16.725 16.615 16.267 15.712 15.517 15.115 14.68 14.195 13.825 13.675 14.055 14.352 14.2 13.38 12.738 12.375 12.158 11.733 11.523 11.337 11.23 11.2 11.227 11.225 11.312 11.215 11.193 11.345 11.312 11.17 10.985 10.8 10.81 10.765 10.757 10.673 10.58 10.477 10.432 10.417 10.4 10.363 10.398 10.4 10.358 10.495 10.405 10.365 10.927 10.915 10.945 10.927 10.82 10.718 10.627 10.685 10.92 11.295 11.673 12.023 12.24 12.125 11.657 11.443 11.04 10.975 10.96 10.81 10.698 10.625 10.485 10.535 10.547 10.523 10.465 10.427 10.408 10.35 10.368 10.44 10.417 10.302 10.27 10.312 10.305 10.253 10.23 10.255 10.29 10.205 10.142 10.062 10.023 9.977 9.923 9.875 9.875 9.872 9.872 9.863 9.868 9.86 9.87 9.82 9.802 9.83 9.807 9.795 9.81 9.795 9.788 9.795 9.823 9.847 9.882 9.977 10.092 10.212 10.33 10.42 10.602 10.55 10.443 10.31 10.13 10.003 9.977 9.975 9.847 9.802 9.767 9.773 9.79 9.765 9.78 9.757 9.72 9.818 9.887 9.977 10.087 10.153 10.25 10.265 10.495 10.83 11.23 11.648 12.148 12.57 13.208 13.637 13.788 13.838 13.085 12.312 11.837 11.625 11.325 11.175 11.042 10.795 10.74 10.903 10.802 10.483 10.255 9.98 9.737
8.932 8.833 8.878 8.868 8.9 8.88 8.875 8.847 8.808 8.76 8.745 8.762 8.762 8.77 8.795 8.85 8.882 8.922 8.96 9.017 9.06 9.08 9.062 9.05 9.052 9.07 9.083 9.113 9.148 9.202 9.3 9.337 9.358 9.39 9.382 9.222 9.335 9.49 9.53 9.548 9.488 9.38 9.382 9.535 9.835 10.025 10.323 10.535 10.915 11.295 11.655 11.988 12.31 12.63 13.015 13.458 13.85 14.22 14.59 15.05 15.61 16.013 16.365 16.552 16.757 17.13 17.333 16.805 16.237 15.932 16.118 16.605 16.888 17.022 17.07 17.76 19.05 20.503 21.013 22.522 22.915 21.413 20.62 20.802 21.665 22.427 21.985 21.903 22.295 22.343 22.448 23.22 23.108 22.56 22.208 22.215 21.888 21.712 21.448 21.408 21.052 20.058 19.34 19.373 18.202 17.573 17.642 16.85 16.212 16.192 15.495 14.615 14.235 14.903 13.148 12.417 12.43 12.557 11.677 11.203 10.997 11.148 11.31 11.545 11.413 11.485 11.102 10.9 11.01 10.825 10.927 11.113 10.943 11.052 10.93 10.852 10.663 10.67 10.59 10.48 10.327 10.27 10.302 10.14 9.63 9.408 9.127 9.128 9.33 9.52 9.73 9.932 10.023 10.205 10.273 10.265 10.21 10.087 10.057 10.05 10.07 10.075 10.087 10.193 10.227 10.202 10.2 10.167 10.047 10.017 10.007 10.06 10.122 10.22 10.38 10.585 10.767 10.935 11.057 11.47 11.615 11.8 12.113 12.298 12.445 12.807 13.175 13.418 13.625 13.775 13.895 14.278 14.63 15.03 15.24 15.415 15.505 15.65 16.085 16.397 16.493 16.58 16.702 16.88 17.085 17.342 17.475 17.487 17.658 17.877 18.26 18.39 18.573 18.815 18.995 19.177 19.372 19.497 19.757 20.062 20.272 20.538 20.405 20.407 20.76 21.478 22.425 23.055 23.085 23.24 23.327 23.505 23.753 23.972 24.205 24.505 24.56 24.318 24.058 23.94 23.908 23.657 23.375 23.25 23.275 23.25 23.278 23.38 23.423 23.497 23.535 23.63 23.833 24.177 24.52 25.142 25.915 25.915 25.635 25.72 25.21 24.438 23.14 22.9 23.15 22.615 21.938 21.513 21.14 20.985 20.835 20.622 20.487 20.177 20.015 20.14 19.99 20.253 20.565 19.825 19.79 20.34 20.432 19.14 17.345 16.95 16.735 16.53 16.237 16.145 16 15.948 15.9 15.81 15.36 14.792 14.337 13.908 13.672 13.75 13.875 13.882 13.86 13.44 12.62 12.307 12.015 11.73 11.51 11.355 11.23 11.095 11.132 11.18 11.243 11.19 11.21 11.392 11.108 11 10.953 10.833 10.765 10.523 10.677 10.655 10.585 10.498 10.335 10.298 10.31 10.328 10.35 10.355 10.325 10.497 10.635 10.39 10.495 10.93 10.913 10.903 10.823 10.675 10.663 10.708 10.875 10.995 11.137 11.365 11.613 11.585 11.31 10.98 10.89 10.977 10.977 10.72 10.59 10.555 10.47 10.48 10.455 10.443 10.368 10.443 10.38 10.33 10.315 10.318 10.267 10.265 10.27 10.305 10.312 10.288 10.23 10.225 10.188 10.12 10.073 10.033 9.968 9.92 9.907 9.908 9.915 9.882 9.87 9.878 9.87 9.823 9.812 9.823 9.825 9.84 9.842 9.825 9.833 9.83 9.82 9.81 9.842 9.852 9.887 10.01 10.21 10.328 10.448 10.517 10.475 10.523 10.5 10.28 10.167 10.028 9.988 9.903 9.835 9.805 9.78 9.775 9.788 9.763 9.765 9.785 9.76 9.812 9.895 10.043 10.043 10.08 10.163 10.21 10.298 10.632 11.115 11.735 12.468 13.015 13.485 13.39 13.167 13.267 12.7 12.04 11.68 11.44 11.155 11.075 11.113 10.878 10.778 10.875 10.667 10.403 10.173 10.105 9.845
8.895 8.85 8.932 8.847 8.855 8.868 8.872 8.852 8.815 8.792 8.785 8.775 8.762 8.765 8.792 8.84 8.885 8.915 8.958 9.012 9.057 9.08 9.07 9.065 9.062 9.07 9.078 9.102 9.158 9.2 9.257 9.34 9.358 9.345 9.39 9.358 9.233 9.39 9.51 9.493 9.503 9.385 9.305 9.495 9.743 10.005 10.235 10.422 10.81 11.222 11.53 11.915 12.265 12.562 12.917 13.363 13.83 14.337 14.655 15.06 15.533 16.035 16.423 16.638 16.815 17.118 17.35 16.785 16.15 16.005 16.377 16.615 16.655 16.837 16.76 17.208 18.502 19.275 20.028 21.815 21.263 20.57 20.323 20.65 22.31 21.715 21.388 22.22 23.045 23.38 23.39 23.302 23.423 23.182 23.038 23.198 23.14 23.025 22.173 21.917 21.815 20.892 20.347 19.612 19.155 18.755 18.397 17.815 18.37 18.86 16.228 15.73 15.34 15.497 14.01 13.575 13.163 12.49 12.515 11.792 11.682 11.96 11.273 11.938 11.63 11.392 10.985 10.88 11.31 11.222 11.68 11.705 11.733 11.64 11.145 11.597 11.175 11.007 11.247 10.64 10.387 10.235 10.238 10.24 9.827 9.55 9.315 9.125 9.193 9.28 9.532 9.87 10.015 10.095 10.255 10.328 10.172 10.128 10.068 10.048 10.092 10.097 10.105 10.193 10.253 10.208 10.188 10.155 10.062 10.017 10.007 10.055 10.13 10.215 10.38 10.585 10.717 10.87 11.07 11.365 11.542 11.805 12.1 12.315 12.415 12.783 13.18 13.477 13.703 13.892 14.08 14.403 14.663 14.843 15.11 15.382 15.677 15.818 16.1 16.37 16.55 16.648 16.72 16.818 17.002 17.202 17.533 17.81 18.015 17.987 18.292 18.4 18.612 18.807 19.07 19.298 19.378 19.493 19.64 19.943 20.327 20.603 20.403 20.335 20.545 21.038 21.935 23.095 23.577 23.64 23.798 23.925 24.1 24.24 24.355 24.555 24.71 24.627 24.438 24.233 24.073 24.077 23.775 23.6 23.515 23.533 23.415 23.44 23.405 23.48 23.58 23.753 24.01 24.395 24.753 25.267 26.105 26.443 25.98 25.68 25.195 24.31 23.345 22.76 22.917 22.77 22.198 21.6 21.27 21.142 21.128 20.935 20.612 20.42 20.467 20.425 20.183 19.958 19.98 20.062 20.642 21.465 20.805 19.017 17.353 17.118 16.853 16.55 16.397 16.475 16.247 15.993 16.163 16.488 15.878 14.96 14.15 13.72 13.533 13.597 13.55 13.552 13.677 13.233 12.605 12.267 12.105 11.833 11.562 11.405 11.302 11.097 11.092 11.16 11.137 11.068 11.017 10.958 10.917 10.84 10.86 10.785 10.753 10.707 10.693 10.623 10.62 10.525 10.41 10.395 10.375 10.403 10.387 10.333 10.31 10.38 10.655 10.625 10.458 10.68 11.047 11.092 10.843 10.72 10.677 10.745 10.952 11.16 11.1 11.13 11.04 11.09 10.82 10.847 10.885 10.93 10.938 10.773 10.568 10.445 10.465 10.462 10.365 10.32 10.295 10.333 10.318 10.305 10.23 10.215 10.185 10.225 10.198 10.222 10.25 10.205 10.163 10.16 10.135 10.077 10.01 9.985 9.92 9.885 9.905 9.892 9.863 9.858 9.88 9.868 9.852 9.833 9.833 9.82 9.827 9.833 9.828 9.82 9.833 9.827 9.825 9.82 9.843 9.84 9.895 10.05 10.2 10.363 10.533 10.535 10.465 10.382 10.405 10.29 10.132 10.003 9.938 9.872 9.842 9.833 9.823 9.788 9.78 9.775 9.79 9.767 9.717 9.75 9.838 9.94 10.045 10.1 10.14 10.15 10.217 10.395 10.86 11.762 12.52 13.028 13.448 13.105 12.92 12.812 12.345 11.993 11.842 11.557 11.233 11.102 11.203 11.165 10.708 10.657 10.6 10.54 10.592 10.54 10.368
8.862 8.885 8.98 8.885 8.87 8.895 8.915 8.855 8.815 8.82 8.818 8.795 8.798 8.797 8.798 8.82 8.845 8.887 8.938 8.985 9.05 9.113 9.087 9.065 9.052 9.07 9.113 9.125 9.162 9.193 9.253 9.305 9.403 9.395 9.342 9.413 9.318 9.253 9.448 9.49 9.543 9.453 9.34 9.485 9.71 9.972 10.25 10.417 10.733 11.125 11.512 11.852 12.177 12.538 12.913 13.335 13.823 14.247 14.693 15.07 15.605 16.095 16.43 16.74 17.095 17.35 17.647 17.252 16.472 16.628 17.173 17.31 17.048 16.938 16.892 17.028 17.938 18.485 19.642 20.587 19.552 19.57 20.87 21.9 21.612 21.35 21.993 22.805 23.22 23.295 23.257 23.128 23.095 23.385 23.632 24.005 24.443 23.84 22.935 22.823 22.53 21.552 20.865 21.372 21.092 19.84 19.525 18.938 19.432 21.105 16.92 17.837 17.33 15.345 14.642 14.062 13.842 13.352 12.87 12.52 13.61 13.68 12.632 11.802 11.582 11.12 10.993 10.898 11.012 11.46 11.48 12.023 12.153 11.975 11.125 11.38 11.637 10.858 10.778 10.73 10.413 10.318 10.27 10.307 9.985 9.743 9.445 9.142 9.128 9.15 9.285 9.438 9.73 10.048 10.238 10.395 10.35 10.273 10.168 10.097 10.08 10.087 10.102 10.2 10.29 10.205 10.205 10.207 10.127 10.05 10.02 10.06 10.118 10.188 10.387 10.583 10.675 10.818 10.967 11.18 11.438 11.75 12.028 12.267 12.443 12.812 13.157 13.46 13.753 13.925 14.035 14.363 14.587 14.802 15.135 15.552 15.693 15.782 16.07 16.475 16.592 16.612 16.69 16.737 16.952 17.327 17.76 18.08 18.058 18.132 18.483 18.597 18.702 18.908 19.173 19.343 19.513 19.772 19.753 19.978 20.272 20.533 20.487 20.475 20.46 20.938 21.868 22.805 23.472 23.757 24.073 24.208 24.257 24.438 24.618 24.752 24.913 24.833 24.755 24.522 24.388 24.438 24.122 23.885 23.755 23.66 23.552 23.528 23.545 23.55 23.645 23.878 24.173 24.845 25.513 25.53 25.747 25.557 25.425 25.513 24.737 24.05 23.355 22.817 22.69 23.002 22.415 21.628 21.327 21.345 21.48 21.442 20.91 20.667 20.98 21.025 20.25 20.112 20.048 20.315 21.087 21.702 20.733 19.315 17.92 17.225 16.952 16.997 17.112 17.215 17.068 16.93 16.737 16.583 15.91 14.875 13.89 13.455 13.285 13.3 13.297 13.378 13.43 12.965 12.62 12.29 12.08 11.805 11.577 11.41 11.212 11.118 11.07 11.06 11.015 10.983 10.94 10.845 10.805 10.773 10.753 10.715 10.698 10.675 10.655 10.66 10.64 10.583 10.528 10.575 10.483 10.435 10.448 10.395 10.307 10.347 10.443 10.727 10.57 10.52 10.91 11.413 11.163 10.922 10.795 10.762 11.057 11.167 11.212 11.227 10.83 10.66 10.727 11.073 11.025 10.898 10.74 10.63 10.465 10.425 10.387 10.403 10.32 10.335 10.212 10.217 10.222 10.198 10.185 10.165 10.145 10.163 10.182 10.233 10.222 10.123 10.108 10.108 10.08 10.03 9.995 9.96 9.905 9.895 9.88 9.87 9.86 9.862 9.835 9.828 9.833 9.835 9.823 9.805 9.805 9.8 9.798 9.812 9.823 9.812 9.815 9.827 9.828 9.84 9.915 9.98 10.113 10.29 10.45 10.458 10.408 10.273 10.15 10.095 10.095 10.003 9.925 9.882 9.805 9.855 9.86 9.78 9.77 9.762 9.74 9.715 9.69 9.725 9.798 9.925 10.038 10.092 10.195 10.155 10.208 10.345 10.945 11.792 12.565 13.035 13.255 12.793 12.632 12.608 12.512 12.305 12.182 12.052 11.78 11.885 12.205 12.173 11.34 10.84 10.945 11.06 11.167 11.113 10.778
8.865 8.895 8.975 8.91 8.903 8.892 8.92 8.905 8.855 8.828 8.858 8.8 8.792 8.792 8.805 8.82 8.862 8.898 8.915 8.975 9.035 9.068 9.075 9.052 9.065 9.09 9.125 9.155 9.175 9.215 9.278 9.34 9.42 9.47 9.34 9.368 9.448 9.257 9.29 9.48 9.452 9.358 9.34 9.43 9.663 9.922 10.19 10.405 10.695 11.092 11.467 11.815 12.17 12.52 12.858 13.327 13.753 14.23 14.648 15.03 15.507 16.077 16.557 16.8 17 17.267 17.548 17.743 17.415 17.747 18.355 18.548 18.145 17.665 17.55 17.548 17.66 18.23 18.608 18.968 19.237 20.38 21.195 22.035 21.557 21.95 22.522 22.58 22.655 22.94 23.247 23.173 22.853 23.43 23.545 23.597 24.077 24.27 23.868 23.568 23.075 22.66 22.122 21.895 22.975 20.282 19.458 18.972 18.26 17.835 16.825 16.195 16.858 16.312 15.442 15.282 15.898 15.618 13.663 13.165 13.392 13.378 12.455 12.155 11.372 11.15 11.217 11.155 11.167 11.278 11.315 11.35 11.378 11.685 11.24 11.718 11.042 10.688 10.477 10.443 10.475 10.39 10.27 10.247 10.182 9.885 9.57 9.36 9.13 9.125 9.122 9.188 9.337 9.55 10.017 10.487 10.52 10.45 10.327 10.188 10.128 10.12 10.108 10.155 10.215 10.182 10.202 10.227 10.247 10.153 10.04 10.068 10.105 10.182 10.302 10.523 10.717 10.89 10.913 11.065 11.39 11.667 11.955 12.297 12.51 12.837 13.19 13.43 13.733 13.887 14.16 14.385 14.587 14.828 15.087 15.443 15.637 15.773 16.083 16.365 16.63 16.628 16.665 16.8 17.048 17.58 17.89 17.972 18.042 18.327 18.632 18.873 19.073 19.2 19.392 19.485 19.665 20.01 19.995 20.01 20.173 20.327 20.448 20.495 20.5 20.88 21.592 22.212 23.295 23.91 24.153 24.103 24.205 24.45 24.523 24.785 25.112 25.38 25.138 24.927 24.8 24.673 24.552 24.095 23.91 23.86 23.702 23.555 23.55 23.695 23.773 23.955 24.13 24.603 25.195 25.565 25.573 24.885 24.565 24.785 24.54 23.875 23.048 22.727 22.625 22.555 22.3 21.667 21.325 21.44 21.78 22.167 21.638 20.722 20.87 20.737 20.105 19.983 20.305 20.693 21.1 21.448 20.987 19.677 18.445 17.763 17.448 17.438 17.438 17.513 17.573 17.11 16.618 16.353 15.868 14.823 13.767 13.31 13.052 12.985 13.108 13.288 13.34 12.935 12.525 12.182 11.923 11.613 11.452 11.285 11.142 11.1 11.048 11.042 10.957 10.925 10.875 10.805 10.745 10.702 10.685 10.695 10.67 10.648 10.655 10.682 10.653 10.613 10.538 10.602 10.542 10.462 10.42 10.415 10.283 10.318 10.382 10.542 10.765 10.52 10.5 11.095 11.298 11.405 11.09 10.86 10.935 11.135 11.15 11.19 10.842 10.755 10.733 11.007 11.17 11.045 10.818 10.562 10.427 10.408 10.358 10.365 10.267 10.27 10.172 10.158 10.165 10.155 10.13 10.102 10.122 10.102 10.132 10.19 10.175 10.097 10.097 10.075 10.055 10.038 9.993 9.953 9.89 9.875 9.882 9.852 9.855 9.905 9.882 9.855 9.842 9.81 9.805 9.83 9.835 9.84 9.82 9.863 9.818 9.82 9.837 9.833 9.835 9.835 9.878 9.935 10.068 10.182 10.267 10.235 10.165 10.11 10.017 9.977 10.035 9.917 9.94 9.88 9.858 9.85 9.85 9.773 9.745 9.743 9.743 9.71 9.682 9.685 9.825 9.93 9.975 10.078 10.182 10.273 10.42 10.642 11.292 12.01 12.505 12.82 12.872 12.72 12.753 12.882 12.74 12.028 11.725 11.583 11.498 11.917 12.182 12.225 12.233 11.472 11.4 11.02 10.823 10.747 10.783
8.868 8.903 8.975 8.97 8.952 8.932 8.957 8.95 8.892 8.833 8.815 8.785 8.775 8.792 8.82 8.86 8.89 8.915 8.935 8.965 8.993 9.033 9.05 9.057 9.073 9.087 9.128 9.17 9.2 9.243 9.288 9.36 9.417 9.48 9.372 9.323 9.387 9.422 9.262 9.363 9.448 9.325 9.34 9.358 9.57 9.812 10.105 10.375 10.663 11.038 11.385 11.767 12.158 12.49 12.863 13.247 13.682 14.188 14.555 15.002 15.46 15.895 16.353 16.663 16.868 17.108 17.333 17.72 17.865 18.19 18.558 19.128 19.51 19.462 18.977 18.67 18.592 18.917 19.055 19.235 20.04 21.165 21.875 22.135 21.523 21.805 21.858 21.915 22.09 22.27 22.945 22.855 22.653 22.667 22.632 22.8 23.772 24.038 23.923 23.247 22.775 23.188 23.565 23.395 21.417 20.757 19.913 19.255 18.247 17.805 17.167 16.02 16.175 16.073 15.722 15.51 15.483 14.195 14.69 14.705 13.868 12.747 12.408 12.05 11.855 11.82 11.852 11.895 11.382 11.417 11.483 11.208 10.765 11.073 10.71 10.535 10.628 11.095 10.515 10.445 10.435 10.372 10.307 10.238 10.275 10.055 9.682 9.52 9.18 9.13 9.122 9.125 9.16 9.262 9.392 9.95 10.533 10.5 10.347 10.24 10.207 10.167 10.145 10.115 10.19 10.235 10.2 10.205 10.273 10.167 10.028 10.062 10.105 10.17 10.273 10.462 10.663 10.868 10.905 11.075 11.405 11.67 11.99 12.4 12.675 13.028 13.302 13.47 13.725 13.89 14.352 14.67 14.86 14.997 15.105 15.403 15.725 15.828 16.12 16.358 16.475 16.642 16.767 16.978 17.288 17.708 17.975 18.11 18.177 18.405 18.642 19.118 19.465 19.552 19.513 19.608 19.653 19.983 20.14 20.103 20.263 20.468 20.49 20.5 20.573 20.833 21.34 22.263 23.25 24.065 24.278 24.355 24.33 24.32 24.112 24.292 25.128 25.358 25.46 25.265 24.978 24.78 24.728 24.392 24.123 23.997 23.847 23.702 23.608 23.785 23.888 24.087 24.185 24.25 24.733 25.54 25.907 25.153 24.54 24.292 24.408 24.333 23.612 22.77 22.353 22.188 22.07 21.542 21.333 21.36 21.493 21.695 21.373 21.083 20.885 20.632 20.347 20.327 20.472 20.93 21.48 21.02 20.653 20.33 19.48 18.562 18.072 17.927 17.792 17.725 17.032 16.333 15.825 15.71 15.717 14.878 13.927 13.3 13.025 12.962 13.113 13.29 13.23 13.05 12.65 12.233 11.837 11.565 11.4 11.255 11.145 11.085 11.028 11.005 10.948 10.917 10.865 10.81 10.738 10.695 10.708 10.685 10.648 10.618 10.628 10.653 10.69 10.637 10.57 10.562 10.523 10.467 10.415 10.4 10.265 10.262 10.355 10.298 10.503 10.767 10.462 10.49 11.057 11.35 11.18 11.06 11.087 11.105 11.093 11.042 10.935 10.775 10.655 11.007 11.177 10.903 10.802 10.568 10.41 10.475 10.33 10.257 10.225 10.217 10.175 10.175 10.118 10.12 10.07 10.065 10.102 10.108 10.05 10.065 10.073 10.095 10.065 10.048 10.03 9.995 9.985 9.972 9.938 9.932 9.943 9.895 9.882 9.88 9.847 9.84 9.833 9.807 9.828 9.842 9.842 9.847 9.905 9.855 9.827 9.835 9.827 9.83 9.835 9.86 9.84 9.85 9.943 10.007 10.07 10.03 9.98 9.917 9.97 9.955 9.938 9.85 9.847 9.868 9.872 9.89 9.892 9.812 9.775 9.778 9.797 9.735 9.693 9.682 9.8 9.89 9.945 10.062 10.163 10.417 10.642 10.875 11.267 11.75 12.125 12.352 12.712 13.085 13.095 12.855 12.095 11.597 11.233 11.14 11.123 11.312 11.512 11.987 12.045 11.82 11.31 10.722 10.515 10.6 10.91
8.84 8.935 8.975 8.98 8.97 8.92 8.922 8.95 8.955 8.903 8.812 8.79 8.773 8.802 8.812 8.875 8.92 8.955 8.965 8.98 8.995 9.005 9.045 9.05 9.08 9.1 9.155 9.193 9.225 9.25 9.295 9.347 9.375 9.43 9.365 9.315 9.387 9.455 9.327 9.275 9.455 9.38 9.345 9.312 9.462 9.702 10.057 10.36 10.655 10.938 11.315 11.695 12.07 12.422 12.845 13.238 13.677 14.095 14.493 14.868 15.365 15.812 16.347 16.655 16.835 16.955 17.192 17.587 17.83 18.173 18.688 19.225 19.66 20.5 20.25 20.1 19.892 19.89 20.287 20.29 21.135 21.952 22.305 22.342 21.618 21.475 21.555 21.763 21.733 21.667 22.24 22.665 22.608 22.5 22.05 22.278 23.075 23.597 23.202 23.035 22.913 23.003 23.32 23.767 22.017 21.2 20.915 19.745 18.425 17.745 16.708 15.965 15.75 16.185 15.6 15.238 14.943 14.445 14.455 13.637 13.335 13.07 12.812 12.66 12.468 12.4 12.35 12.955 12.542 12.247 11.847 11.382 10.86 11.042 10.93 10.65 10.892 10.485 10.443 10.468 10.538 10.51 10.507 10.4 10.27 10.172 9.835 9.778 9.533 9.172 9.128 9.128 9.125 9.15 9.238 9.472 9.915 10.273 10.337 10.278 10.227 10.175 10.148 10.153 10.175 10.27 10.208 10.198 10.243 10.243 10.062 10.068 10.102 10.158 10.25 10.455 10.637 10.795 10.952 11.208 11.525 11.767 12.07 12.422 12.69 13.007 13.22 13.352 13.635 14.052 14.488 14.637 14.962 15.282 15.275 15.368 15.64 15.795 16.052 16.362 16.695 16.93 17.01 17.2 17.445 17.74 18.097 18.235 18.388 18.722 18.778 19.08 19.44 19.642 19.705 19.845 19.792 19.993 20.35 20.432 20.542 20.695 20.708 20.647 20.712 20.925 21.32 21.952 22.975 24.118 24.705 25.073 24.66 24.355 24.162 24.263 24.94 25.423 25.475 25.397 25.15 24.938 24.942 24.765 24.302 24.108 24.032 23.91 23.868 23.897 23.967 24.233 24.247 24.278 24.688 25.285 25.597 25.41 24.757 24.395 24.405 24.638 23.885 23.16 22.597 22.145 21.737 21.542 21.425 21.333 21.378 21.54 21.425 21.375 21.465 21.505 20.693 20.485 20.61 20.872 21.193 21.07 20.853 19.622 19.618 19.365 18.823 18.605 17.913 17.003 16.125 15.54 15.193 15.1 15.167 14.815 14.113 13.6 13.14 13.068 13.29 13.435 13.267 12.968 12.427 12.08 11.815 11.49 11.33 11.215 11.163 11.173 11.07 11.08 10.983 10.93 10.845 10.827 10.762 10.715 10.705 10.66 10.625 10.612 10.605 10.615 10.65 10.635 10.597 10.548 10.505 10.455 10.382 10.347 10.233 10.125 10.368 10.212 10.203 10.6 10.662 10.43 10.488 10.998 10.92 11.01 10.955 10.91 10.882 10.98 10.99 10.905 10.71 10.84 10.938 10.852 10.717 10.528 10.373 10.398 10.372 10.198 10.188 10.158 10.08 10.078 10.073 10.06 10 10.007 10.032 10.055 10.042 10.04 10.04 10.042 10.04 10.035 10.065 10.023 10.003 10.038 10.02 10.003 9.95 9.908 9.847 9.837 9.845 9.845 9.863 9.865 9.845 9.843 9.837 9.85 9.842 9.815 9.805 9.847 9.815 9.82 9.855 9.86 9.845 9.837 9.812 9.852 9.915 9.943 9.863 9.84 9.85 9.95 9.938 9.845 9.882 9.913 9.962 9.985 10 9.948 9.837 9.838 9.76 9.752 9.712 9.712 9.778 9.833 9.962 10.038 10.173 10.34 10.625 10.84 11.145 11.503 11.887 12.26 12.778 13.023 12.552 12.18 11.46 11.023 10.797 10.785 10.842 11.01 11.27 11.568 11.735 11.557 11.123 10.632 10.32 10.58 11.118
8.823 8.938 8.958 8.967 8.967 8.9 8.85 8.847 8.837 8.852 8.807 8.792 8.79 8.807 8.837 8.927 9.028 9.03 9 8.993 8.993 9.015 9.035 9.043 9.07 9.113 9.17 9.185 9.21 9.252 9.325 9.43 9.33 9.315 9.312 9.288 9.363 9.452 9.452 9.275 9.335 9.46 9.335 9.305 9.422 9.655 10.023 10.368 10.675 10.89 11.203 11.592 11.932 12.355 12.782 13.182 13.573 14.017 14.312 14.665 15.217 15.735 16.16 16.413 16.577 16.818 17.233 17.733 18.155 18.365 18.775 19.415 19.885 20.433 21.288 20.833 20.7 21.448 21.24 21.96 22.347 22.555 22.5 22.622 22.052 21.323 21.295 21.243 21.212 21.318 21.805 22.49 22.29 21.628 21.39 21.4 22.045 23.18 23.052 23.017 23.185 22.775 22.89 23.347 23.39 22.955 21.83 20.362 18.978 17.837 17.495 17.817 15.875 15.82 15.462 14.99 14.673 14.405 14.177 13.655 13.44 13.233 13.195 12.96 12.878 13.247 12.983 13.03 12.175 12.295 12.69 11.72 11.74 11.262 11.095 11.057 10.815 10.698 10.88 10.545 10.653 10.722 10.6 10.597 10.36 10.297 10.105 9.962 9.658 9.25 9.132 9.122 9.132 9.12 9.125 9.233 9.488 9.852 10.292 10.305 10.208 10.172 10.13 10.153 10.2 10.247 10.24 10.222 10.257 10.31 10.137 10.048 10.092 10.13 10.23 10.427 10.613 10.79 10.952 11.265 11.632 11.95 12.188 12.405 12.703 13 13.238 13.378 13.645 14.142 14.483 14.685 14.965 15.247 15.18 15.267 15.545 15.85 16.145 16.465 16.645 16.823 17.083 17.283 17.663 17.765 18 18.218 18.378 18.778 19.138 19.25 19.552 19.79 19.882 19.903 19.952 20.15 20.503 20.805 20.945 21.005 20.953 21.013 21.15 21.337 21.493 21.985 22.868 24.128 25.038 24.795 24.507 24.493 24.325 24.282 24.53 25.138 25.868 25.792 25.42 25.177 25.138 24.837 24.403 24.32 24.22 24.17 24.208 24.085 24.075 24.397 24.288 24.45 24.82 25.44 25.54 25.403 25.033 24.655 24.642 24.792 24.245 23.448 22.747 22.132 21.802 21.575 21.4 21.298 21.403 21.693 21.413 21.685 22.22 22.112 21.142 20.812 20.737 20.557 20.63 20.802 20.2 19.31 18.88 18.9 18.505 17.99 17.235 16.58 15.9 15.347 15.003 14.805 14.8 14.818 14.455 14.012 13.505 13.352 13.528 13.302 13.04 12.725 12.297 11.95 11.752 11.45 11.265 11.198 11.198 11.128 11.05 10.985 10.94 10.885 10.852 10.927 10.837 10.81 10.733 10.69 10.722 10.648 10.613 10.622 10.62 10.622 10.555 10.525 10.495 10.46 10.4 10.395 10.233 10.057 10.448 10.34 10.212 10.3 10.698 10.602 10.375 10.467 10.81 10.85 10.845 10.833 10.83 10.88 10.96 11.028 10.892 10.835 10.712 10.702 10.648 10.475 10.327 10.267 10.222 10.173 10.145 10.1 10.057 10.04 10.045 10.01 10.045 10.085 10.11 10.03 10.023 10.03 10.052 10.085 10.062 10.023 10.042 10.025 10.012 10.025 10.015 9.995 9.892 9.878 9.847 9.858 9.878 9.895 9.887 9.895 9.882 9.877 9.887 9.9 9.868 9.792 9.83 9.807 9.823 9.815 9.818 9.82 9.825 9.84 9.837 9.818 9.852 9.908 9.898 9.875 9.925 9.952 9.943 9.93 9.988 10.005 10.05 10.038 10.033 10.015 9.977 9.9 9.835 9.815 9.767 9.757 9.757 9.805 9.92 9.988 10.1 10.208 10.413 10.703 11.038 11.295 11.507 11.72 11.925 12.358 12.028 11.495 10.93 10.562 10.46 10.448 10.592 10.778 11.083 11.24 11.408 11.243 10.85 10.382 10.365 10.762 11.45
8.83 8.93 8.945 8.932 8.945 8.855 8.755 8.792 8.798 8.807 8.812 8.815 8.82 8.84 8.887 8.997 9.105 9.085 9.03 9.023 9.02 9.033 9.047 9.06 9.075 9.085 9.135 9.17 9.22 9.292 9.327 9.375 9.32 9.3 9.302 9.305 9.365 9.472 9.472 9.375 9.27 9.395 9.37 9.327 9.4 9.623 9.945 10.295 10.59 10.86 11.175 11.5 11.887 12.35 12.743 13.137 13.52 13.89 14.283 14.745 15.045 15.632 16.06 16.29 16.425 16.708 17.195 17.767 18.45 18.507 18.65 19.17 19.503 19.845 20.233 20.25 20.995 22.413 22.68 22.722 22.548 22.507 22.212 22.105 21.807 21.022 20.88 21.06 21.4 21.542 21.545 22.37 21.66 20.74 20.61 20.94 21.44 22.468 23.24 22.993 22.968 22.37 22.682 23.275 23.23 22.943 22.087 21.318 20.167 19.327 19.017 16.772 16.212 16.445 15.625 15.54 14.81 14.573 14.233 13.797 13.405 13.3 13.253 13.095 13.092 13.003 12.775 12.938 12.235 12.918 12.825 12.283 11.83 11.41 11.163 11.358 11.395 10.745 10.637 10.535 10.568 10.67 10.535 10.57 10.44 10.328 10.435 10.32 9.975 9.372 9.203 9.127 9.125 9.128 9.13 9.12 9.345 9.712 10.198 10.34 10.27 10.175 10.142 10.15 10.165 10.222 10.243 10.21 10.225 10.3 10.238 10.073 10.078 10.142 10.238 10.41 10.602 10.785 10.93 11.205 11.675 11.97 12.22 12.495 12.747 12.927 13.26 13.457 13.64 14.015 14.248 14.448 14.757 14.905 15.023 15.335 15.752 15.898 16.132 16.35 16.64 16.868 17.007 17.21 17.568 17.805 18.195 18.535 18.49 18.765 19.362 19.413 19.54 19.805 19.975 20.097 20.23 20.54 20.59 20.913 21.14 21.245 21.362 21.593 21.917 22.317 22.003 22.175 22.862 23.8 24.193 24.04 24.093 24.533 24.36 24.31 24.568 25.153 26.052 26.062 25.915 25.585 25.443 25.025 24.603 24.465 24.36 24.34 24.36 24.302 24.288 24.462 24.413 24.63 25.108 25.645 26 26.097 25.55 25.248 25.185 25.075 24.552 23.772 23.075 22.645 22.395 21.965 21.51 21.312 21.308 21.507 21.708 22.138 22.568 22.323 21.972 21.505 21.452 21.192 20.142 20.15 19.305 18.608 18.372 18.212 17.987 17.837 17.385 16.545 15.65 15.215 14.932 14.76 14.767 14.89 15.065 14.685 14.105 13.79 13.632 13.123 12.81 12.5 12.14 11.753 11.548 11.398 11.26 11.165 11.105 10.995 10.983 11.005 10.913 10.87 10.882 10.852 10.918 10.797 10.76 10.747 10.71 10.677 10.695 10.587 10.575 10.573 10.54 10.5 10.47 10.467 10.378 10.37 10.257 10.01 10.427 10.425 10.355 10.182 10.235 10.582 10.61 10.372 10.45 10.73 10.702 10.608 10.568 10.645 10.718 10.702 10.645 10.528 10.443 10.51 10.502 10.405 10.337 10.25 10.23 10.208 10.09 10.087 10.085 10.108 10.11 10.08 10.09 10.07 10.062 10.055 10.078 10.065 10.062 10.073 10.045 10.04 10.012 10.035 10.042 10.068 10.04 9.972 9.908 9.922 9.913 9.91 9.92 9.915 9.96 9.958 9.915 9.903 9.9 9.922 9.898 9.913 9.89 9.96 9.89 9.863 9.828 9.832 9.858 9.818 9.837 9.852 9.892 9.915 9.957 9.983 9.977 9.95 10.017 10.033 10.06 10.122 10.155 10.1 10.065 10.068 10.055 9.955 9.9 9.837 9.825 9.785 9.773 9.828 9.98 10.017 10.165 10.275 10.34 10.615 11.003 11.19 11.177 11.042 11.087 11.62 11.753 11.248 10.7 10.47 10.542 10.387 10.498 10.708 10.887 11.007 11.068 10.99 10.725 10.355 10.725 11.533 12.182
8.855 8.94 9.012 9.108 8.998 8.833 8.762 8.767 8.82 8.823 8.858 8.88 8.903 8.903 8.935 9.025 9.097 9.078 9.052 9.02 9.078 9.055 9.06 9.073 9.06 9.085 9.14 9.188 9.21 9.26 9.358 9.34 9.318 9.327 9.355 9.368 9.385 9.448 9.425 9.455 9.267 9.312 9.432 9.363 9.4 9.61 9.938 10.245 10.517 10.82 11.16 11.465 11.852 12.262 12.627 13.07 13.408 13.747 14.158 14.542 14.913 15.49 15.908 16.19 16.375 16.722 17.177 17.597 17.965 18.14 18.522 18.82 19.05 19.462 20.265 20.448 20.423 22.235 22.163 21.983 22.102 21.997 21.46 21.073 20.85 20.413 20.295 20.882 22.045 22.05 21.755 21.818 20.8 20.118 20.075 20.372 21.06 21.812 22.575 22.76 22.455 22.347 23.198 23.025 22.94 23.06 22.347 21.892 20.177 19.605 18.37 17.615 16.882 16.235 16.135 15.682 14.958 14.74 14.455 13.882 13.36 13.22 13.175 13.175 13.095 12.898 13.038 12.775 12.818 12.83 12.955 12.865 12.443 11.977 11.653 11.717 11.507 11.332 10.972 10.85 11.128 10.722 10.802 10.743 10.408 10.288 10.285 10.405 10.297 9.595 9.22 9.14 9.122 9.12 9.11 9.05 9.247 9.64 10.113 10.38 10.312 10.247 10.172 10.153 10.137 10.198 10.238 10.245 10.243 10.273 10.275 10.132 10.035 10.128 10.238 10.413 10.58 10.748 10.915 11.198 11.645 11.903 12.17 12.41 12.642 12.918 13.27 13.575 13.562 13.783 14.052 14.273 14.58 14.945 15.24 15.565 15.828 15.95 16.188 16.425 16.557 16.765 17.01 17.228 17.575 17.862 18.407 18.74 18.728 18.743 18.993 19.217 19.317 19.688 20.138 20.26 20.41 20.608 20.772 21.065 21.298 21.48 21.647 21.84 22.278 22.577 22.438 22.528 23.048 24.017 24.77 24.22 24.345 24.415 24.22 24.212 24.46 25.245 26.23 26.405 26.385 26.015 25.675 25.378 24.858 24.783 24.67 24.577 24.555 24.562 24.568 24.552 24.425 24.642 25.167 25.72 26.06 26.173 25.855 25.528 25.36 25.155 24.71 24.032 23.443 23.243 23.177 22.54 21.95 21.455 21.35 21.555 21.86 22.425 22.548 21.7 21.77 22.073 22.39 21.987 20.448 19.515 18.763 18.177 17.913 17.85 17.99 17.972 17.407 16.225 15.68 15.51 15.523 15.233 15.158 15.253 15.312 14.825 14.363 14.025 13.69 13.188 12.75 12.427 12.052 11.705 11.477 11.337 11.29 11.205 11.033 10.977 10.965 11.042 11.095 10.917 10.865 10.812 10.907 10.667 10.663 10.698 10.733 10.625 10.595 10.575 10.635 10.505 10.497 10.467 10.462 10.443 10.392 10.345 10.29 10.023 10.36 10.435 10.44 10.385 10.23 10.32 10.69 10.653 10.387 10.497 10.615 10.462 10.41 10.413 10.448 10.493 10.448 10.38 10.43 10.5 10.46 10.425 10.358 10.325 10.398 10.378 10.257 10.502 10.33 10.32 10.167 10.095 10.095 10.1 10.12 10.083 10.105 10.07 10.042 10.05 10.06 10.055 10.065 10.068 10.045 10.095 10.078 10.028 9.988 9.998 9.957 9.972 9.943 9.965 10.015 10.007 10.007 9.96 9.985 10.057 10.003 9.97 9.945 10.007 9.965 9.945 9.952 9.908 9.885 9.87 9.837 9.86 9.868 9.917 9.962 9.93 9.965 9.94 9.972 10.087 10.118 10.217 10.2 10.145 10.145 10.14 10.113 10.05 10.057 9.99 9.858 9.778 9.785 9.845 10.015 10.09 10.177 10.257 10.337 10.538 10.97 11.17 11.118 10.868 10.698 11.012 11.248 11.14 10.815 10.682 10.703 10.68 10.682 10.663 10.74 10.56 10.625 10.59 10.382 10.392 10.885 11.497 11.673
8.878 9.068 9.29 9.55 9.693 8.935 8.835 8.798 8.865 8.903 8.943 8.988 8.985 8.98 8.948 9.007 9.035 9.03 9.023 9.02 9.042 9.055 9.073 9.068 9.087 9.105 9.148 9.182 9.21 9.267 9.328 9.335 9.333 9.35 9.39 9.42 9.427 9.45 9.382 9.417 9.37 9.267 9.403 9.415 9.438 9.64 9.948 10.22 10.515 10.795 11.102 11.425 11.79 12.18 12.585 13.023 13.392 13.815 14.253 14.567 15.038 15.52 15.917 16.222 16.497 16.905 17.29 17.565 17.84 18.017 18.305 18.618 18.925 19.423 20.003 20.81 20.263 20.93 21.458 21.805 21.562 21.083 20.597 20.275 20.167 19.938 19.897 20.355 21.653 21.472 21.708 21.43 20.55 20.435 20.667 20.33 20.715 21.38 22.02 22.505 22.385 22.46 22.667 22.528 22.667 22.415 22.05 21.743 21.177 20.24 19.3 19 19.592 18.028 17.288 17.125 15.938 15.045 14.753 14.17 13.68 13.552 13.395 13.365 13.203 12.93 12.977 12.84 12.757 12.615 13.045 12.587 12.115 11.887 12.012 11.257 11.355 11.865 12.892 11.483 11.663 11.545 11.59 11.007 10.618 10.273 10.31 10.302 10.253 9.905 9.395 9.2 9.195 9.15 9.102 9.115 9.243 9.57 10.175 10.41 10.358 10.267 10.193 10.142 10.132 10.172 10.238 10.267 10.22 10.245 10.265 10.102 10.042 10.092 10.205 10.362 10.562 10.735 10.915 11.24 11.762 12.017 12.328 12.54 12.743 12.94 13.195 13.507 13.57 13.693 14 14.363 14.693 15.065 15.37 15.59 15.802 16.105 16.39 16.647 16.688 16.792 17.092 17.43 17.778 18.015 18.478 18.815 18.82 18.855 19.023 19.142 19.445 19.84 20.252 20.408 20.677 20.98 21.115 21.272 21.425 21.74 21.845 22.068 22.448 22.835 22.817 22.862 23.417 24.625 25.478 25.443 24.815 24.625 24.413 24.603 25.343 26.262 26.558 26.635 26.615 26.365 26.103 25.948 25.173 24.975 24.903 24.845 24.772 24.853 24.85 24.6 24.545 24.79 25.34 25.842 26.052 25.968 25.78 25.57 25.483 25.26 24.858 24.28 23.872 23.885 23.78 22.938 22.275 21.767 21.595 21.75 22.112 22.592 22.375 21.08 20.655 20.805 21.218 21.64 20.39 19.255 18.497 17.895 17.597 17.542 17.365 17.057 16.743 16.215 15.93 15.907 16.417 16.237 15.76 15.477 14.95 14.41 14.22 14.012 13.852 13.355 12.955 12.55 12.24 11.823 11.575 11.415 11.395 11.273 11.068 10.983 11.03 11.3 11.66 11.205 10.913 10.837 10.835 10.61 10.74 10.648 10.642 10.573 10.62 10.59 10.568 10.493 10.495 10.51 10.525 10.465 10.417 10.33 10.312 10.035 10.262 10.485 10.445 10.39 10.273 10.212 10.387 10.655 10.637 10.43 10.512 10.585 10.45 10.407 10.458 10.475 10.477 10.472 10.51 10.608 10.625 10.61 10.613 10.512 10.538 10.505 10.41 10.523 10.43 10.233 10.17 10.123 10.108 10.127 10.108 10.115 10.077 10.038 10.033 10.04 10.048 10.097 10.243 10.212 10.085 10.047 10.057 10.07 10.062 10.047 10.038 10.023 10.035 10.02 10.113 10.073 10.033 10.028 10.118 10.218 10.175 10.127 10.235 10.203 10.108 10.08 10.155 10.06 10.012 9.985 9.935 9.872 9.85 9.87 9.93 9.988 9.983 9.985 10.035 10.105 10.217 10.318 10.37 10.29 10.285 10.342 10.302 10.212 10.15 10.023 9.908 9.798 9.763 9.837 9.98 10.057 10.065 10.278 10.285 10.41 10.895 11.153 11.08 10.778 10.677 10.685 10.785 11.003 10.872 10.983 11.275 11.275 10.948 11.073 11.01 10.76 10.497 10.34 10.363 10.56 10.948 11.328 11.34
8.915 9.095 9.497 9.825 9.8 9.085 8.9 8.86 8.89 8.948 8.977 8.997 8.99 8.95 8.938 8.948 8.972 8.993 9.01 9.017 9.015 9.032 9.043 9.055 9.087 9.1 9.132 9.17 9.22 9.285 9.368 9.365 9.315 9.375 9.457 9.538 9.54 9.448 9.375 9.413 9.457 9.262 9.333 9.448 9.443 9.653 9.93 10.198 10.528 10.842 11.173 11.485 11.832 12.245 12.675 13.123 13.55 13.927 14.443 14.785 15.28 15.55 15.885 16.323 16.712 17.157 17.647 18.048 17.978 18.323 18.455 18.882 19.267 19.56 19.83 20.24 20.468 20.625 21.035 21.577 21.077 20.305 19.98 20.055 20.042 20 20.185 20.177 20.712 20.823 20.802 20.952 20.895 21.195 22.415 21.785 21.683 21.94 22.073 22.345 22.455 22.315 22.263 22.28 22.562 22.915 22.59 22.865 22.068 21.517 20.495 19.882 19.702 19.372 18.24 18.407 17.235 16.013 15.472 14.828 14.557 15.3 14.475 14.05 13.695 13.238 13.085 12.988 12.895 12.833 13.025 12.55 12.77 12.53 12.135 11.935 11.198 11.267 12.935 12.37 11.12 11.028 10.945 10.677 10.365 10.217 10.222 10.315 10.392 10.3 9.878 9.458 9.3 9.395 9.37 9.443 9.483 9.602 9.91 10.37 10.36 10.312 10.222 10.137 10.13 10.157 10.225 10.278 10.233 10.24 10.275 10.115 10.055 10.08 10.163 10.33 10.565 10.755 10.932 11.132 11.783 12.033 12.325 12.565 12.815 12.965 13.113 13.398 13.6 13.757 14.097 14.455 14.847 15.175 15.422 15.667 15.92 16.218 16.368 16.528 16.745 16.845 17.123 17.513 17.872 18.13 18.65 18.82 18.845 18.94 19.11 19.39 19.858 20.077 20.138 20.39 20.74 21.267 21.333 21.478 21.62 21.927 22.07 22.247 22.665 23.04 23.15 23.193 23.595 24.595 25.292 25.382 25.1 24.955 24.993 25.47 26.205 26.465 26.487 26.54 26.507 26.35 26.24 26.283 25.528 25.255 25.142 25.077 25.05 25.105 24.92 24.688 24.722 25.015 25.435 25.782 26.055 25.932 25.653 25.53 25.35 25.125 24.807 24.478 24.185 23.855 23.577 23.222 22.802 22.365 21.892 22.005 22.397 22.858 21.882 20.693 20.01 19.833 20.11 20.538 19.95 18.985 18.333 17.7 17.362 17 16.647 16.333 16.073 15.913 15.905 16.062 16.39 16.235 15.568 14.89 14.265 13.932 13.878 13.738 13.578 13.32 13.135 12.705 12.46 12.097 11.855 11.57 11.47 11.365 11.165 11.155 11.235 11.29 11.69 11.443 10.907 10.865 10.788 10.74 10.775 10.823 10.677 10.635 10.655 10.622 10.51 10.538 10.528 10.608 10.56 10.54 10.472 10.4 10.398 10.04 10.202 10.44 10.36 10.305 10.253 10.238 10.255 10.275 10.45 10.658 10.42 10.462 10.592 10.52 10.53 10.673 10.722 10.785 10.798 11.007 11.028 10.872 10.89 10.7 10.58 10.507 10.552 10.597 10.48 10.24 10.17 10.153 10.1 10.115 10.083 10.113 10.09 10.048 10.045 10.04 9.983 10.028 10.028 10.047 10.068 9.997 10.07 10.052 10.08 10.023 10.06 10.068 10.052 10.04 10.092 10.095 10.092 10.135 10.198 10.273 10.413 10.49 10.698 10.825 10.58 10.28 10.243 10.195 10.102 10.108 10.105 10.025 9.91 9.858 9.87 9.983 10.065 10.062 10.11 10.243 10.312 10.43 10.443 10.387 10.443 10.375 10.3 10.285 10.217 10.057 9.998 9.833 9.792 9.855 9.975 10.007 10.065 10.2 10.31 10.347 10.458 10.705 10.882 10.44 10.092 9.955 10.035 10.347 10.778 10.708 11.075 11.065 11.24 11.755 11.855 11.122 10.715 10.432 10.355 10.903 10.81 10.64 10.677
8.913 8.92 9 9.115 9.06 8.988 8.905 8.878 8.885 8.927 8.948 8.952 8.93 8.922 8.9 8.88 8.882 8.92 8.97 8.995 9.007 9.017 9.04 9.073 9.065 9.08 9.145 9.2 9.208 9.267 9.305 9.33 9.31 9.337 9.405 9.452 9.483 9.387 9.352 9.39 9.47 9.33 9.305 9.455 9.485 9.655 9.945 10.26 10.552 10.818 11.13 11.467 11.94 12.302 12.68 13.142 13.602 14.105 14.538 14.9 15.375 15.778 16.208 16.623 16.952 17.42 17.885 18.095 18.272 18.423 18.718 18.997 19.667 20.243 20.028 19.9 19.938 19.935 20.692 21.185 20.685 20.1 19.708 20.02 20.097 20.167 20.318 20.45 20.733 21.267 21.853 21.717 21.858 22.455 22.978 22.653 22.763 23.413 22.783 22.432 22.218 22.147 22.24 22.458 22.882 23.555 23.445 23.315 22.692 22.185 21.608 20.74 20.345 19.993 20.16 19.485 17.783 17.302 16.688 15.885 15.775 17.183 16.182 15.625 14.327 13.682 13.505 14.012 12.995 12.847 12.79 12.85 13.062 12.335 12.048 12.165 11.562 11.347 11.835 11.02 11.198 10.88 10.87 10.56 10.395 10.25 10.175 10.21 10.327 10.24 10.135 10.002 9.86 9.827 9.932 10.085 10.153 10.118 10.068 10.32 10.33 10.323 10.235 10.142 10.12 10.17 10.22 10.275 10.265 10.227 10.255 10.222 10.068 10.087 10.153 10.325 10.53 10.743 10.935 11.06 11.703 12.033 12.345 12.523 12.733 13 13.29 13.54 13.698 13.913 14.405 14.725 15.08 15.333 15.477 15.693 16.007 16.228 16.318 16.52 16.767 16.915 17.185 17.573 17.875 18.29 18.807 18.998 19.062 19.105 19.278 19.642 19.885 20.32 20.347 20.432 20.847 21.222 21.558 21.787 21.802 22.017 22.253 22.56 22.972 23.403 23.52 23.562 24.038 24.912 25.417 25.52 25.465 25.493 25.97 26.318 26.423 26.343 26.342 26.41 26.397 26.36 26.305 26.285 25.847 25.573 25.445 25.46 25.435 25.44 25.19 25.045 25.075 25.522 26.013 26.202 26.63 26.595 26.003 25.68 25.49 25.325 24.87 24.475 24.182 23.818 23.397 23.028 22.642 22.285 22.048 22.068 22.505 21.985 21.467 20.753 19.935 19.403 19.195 19.705 19.51 18.967 18.548 17.795 17.155 16.64 16.25 15.858 15.745 15.662 15.623 15.8 16.057 15.83 15.16 14.41 13.87 13.612 13.432 13.14 12.97 12.885 12.76 12.648 12.62 12.358 12.06 11.802 11.655 11.627 11.618 11.425 11.525 11.917 11.602 12.05 10.975 10.917 10.788 10.755 10.717 10.727 10.688 10.693 10.757 10.805 10.535 10.54 10.608 10.665 10.595 10.542 10.523 10.488 10.45 10.09 10.142 10.392 10.333 10.292 10.255 10.257 10.253 10.243 10.257 10.413 10.645 10.49 10.46 10.618 10.685 10.96 11.052 11.26 11.355 11.17 11.218 11.115 10.882 10.642 10.545 10.565 10.622 10.632 10.408 10.302 10.193 10.1 10.12 10.085 10.052 10.075 10.068 10.057 9.99 9.972 9.94 9.965 9.938 9.9 9.995 10.085 10.057 10.045 10.048 10.078 10.07 10.083 10.163 10.097 10.115 10.17 10.243 10.29 10.323 10.605 11.057 11.222 11.56 11.54 11.292 10.945 10.635 10.342 10.345 10.327 10.39 10.358 10.06 9.948 9.85 9.948 10.097 10.11 10.092 10.245 10.358 10.452 10.467 10.36 10.273 10.182 10.217 10.305 10.198 10.038 10.012 9.908 9.823 9.9 9.988 9.945 9.995 10.102 10.262 10.477 10.347 10.033 10.2 9.85 9.722 9.68 9.735 10.062 10.275 10.425 10.608 10.967 11.528 12.12 11.305 10.613 9.882 9.708 10.045 11.148 11.578 10.573 10.548
8.792 8.752 8.725 8.733 8.77 8.783 8.783 8.785 8.798 8.837 8.87 8.903 8.917 8.898 8.9 8.89 8.905 8.93 8.962 8.955 9 9.015 9.043 9.057 9.08 9.105 9.175 9.215 9.27 9.327 9.337 9.355 9.358 9.347 9.38 9.403 9.425 9.443 9.405 9.403 9.48 9.382 9.267 9.37 9.505 9.653 9.923 10.205 10.477 10.738 11.087 11.495 11.93 12.345 12.79 13.21 13.747 14.22 14.665 15.092 15.562 15.975 16.57 17.2 17.562 18.12 18.647 18.743 18.748 18.85 18.98 19.2 19.573 20.25 20.18 19.983 20.585 20.16 19.885 20.085 19.913 19.66 19.88 20.542 20.86 21.305 20.98 20.625 20.952 21.948 22.805 22.77 22.502 23.45 23.452 23.362 23.625 24.18 23.337 22.685 22.42 22.597 22.6 22.818 23.635 23.66 23.355 22.917 22.208 21.728 21.515 21.2 21.065 20.438 19.993 19.37 18.455 17.97 17.72 17.18 16.753 16.718 16.052 15.858 14.76 14.19 14.497 14.243 13.48 12.983 12.92 13.407 13.445 12.775 12.613 12.195 11.635 11.448 11.855 11.167 11.148 11.507 12.472 11.725 10.51 10.905 10.405 10.233 10.165 10.22 10.145 10.055 9.98 9.988 9.993 10.015 10.218 10.25 10.288 10.25 10.283 10.288 10.243 10.122 10.115 10.173 10.2 10.273 10.325 10.273 10.292 10.182 10.055 10.1 10.172 10.32 10.547 10.767 10.955 10.983 11.44 11.835 12.208 12.488 12.76 13.092 13.453 13.703 13.943 14.185 14.573 14.88 15.17 15.337 15.523 15.743 16.073 16.31 16.472 16.495 16.63 16.91 17.28 17.693 18.035 18.507 18.933 19.17 19.302 19.377 19.452 19.795 19.993 20.375 20.628 20.6 20.9 21.323 21.84 22.167 22.15 22.288 22.535 22.84 23.222 23.573 23.775 24.03 24.43 25.257 26.1 26.302 26.225 26.21 26.307 26.46 26.535 26.45 26.423 26.458 26.517 26.52 26.548 26.68 26.45 26.175 26.165 26.087 25.917 25.812 25.647 25.647 25.63 26.127 26.487 26.675 26.815 26.798 26.263 25.898 25.62 25.46 25.062 24.763 24.663 24.57 24.323 23.59 23.002 22.403 21.72 21.362 21.382 21.385 21.15 20.995 20.09 19.285 18.987 19.147 19.03 18.712 18.388 17.967 17.237 16.69 16.145 15.79 15.618 15.608 15.66 15.712 15.837 15.78 15.415 14.695 14.038 13.635 12.958 12.682 12.55 12.7 12.73 12.767 12.675 12.392 12.132 11.983 11.915 11.905 12.115 11.535 11.582 11.815 12.29 11.783 11.06 11.253 10.922 10.778 10.717 10.73 10.757 10.727 10.92 10.762 10.68 10.67 10.637 10.602 10.555 10.53 10.545 10.488 10.432 10.155 10.075 10.392 10.345 10.398 10.453 10.477 10.488 10.415 10.33 10.292 10.387 10.632 10.472 10.41 10.59 10.935 11.015 11.102 11.24 11.185 11.035 10.95 10.807 10.67 10.693 10.69 10.725 10.655 10.507 10.415 10.318 10.245 10.14 10.083 10.06 10.023 9.977 9.962 9.97 9.96 9.962 9.91 9.967 9.955 9.943 10.047 10.04 10.06 10.097 10.102 10.102 10.068 10.137 10.108 10.137 10.275 10.41 10.467 10.65 11.085 11.618 12.042 12.262 12.312 12.09 11.913 11.48 11.057 10.653 10.675 10.852 10.82 10.37 10.052 9.955 9.895 10.025 10.062 10.097 10.22 10.425 10.457 10.352 10.195 10.102 10.137 10.235 10.145 10.163 10.055 10 9.915 9.858 9.895 9.943 9.932 9.972 10.062 10.205 10.355 10.49 10.153 9.913 9.862 9.9 9.832 9.898 10.048 10.188 10.295 10.613 11.36 11.868 12.097 11.472 10.17 9.797 9.738 9.875 10.278 11.01 10.907 10.86
8.755 8.733 8.738 8.755 8.775 8.785 8.812 8.823 8.837 8.907 8.993 9.042 9.007 8.99 8.965 8.925 8.92 8.935 8.955 8.975 9.007 9.057 9.095 9.112 9.13 9.142 9.203 9.26 9.312 9.422 9.427 9.352 9.363 9.398 9.42 9.477 9.485 9.45 9.435 9.465 9.452 9.41 9.273 9.34 9.512 9.672 9.898 10.155 10.48 10.797 11.157 11.545 12.003 12.467 12.827 13.36 13.895 14.385 14.91 15.422 16.083 16.72 17.495 17.853 18.248 18.765 18.94 18.972 19.315 19.408 19.392 19.49 19.833 20.57 20.673 20.555 21.618 21.575 20.345 20.005 19.798 19.66 20.112 21.038 21.76 21.975 21.737 21.097 21.147 21.943 22.642 23.035 22.532 23.125 23.533 23.795 24.1 24.307 23.85 23.04 23.09 23.445 22.872 22.855 23.63 23.64 23.208 22.778 21.927 21.573 21.065 20.847 20.78 20.215 19.69 19.56 19.08 18.483 18.173 17.733 17.435 16.977 16.438 15.983 15.725 15.307 14.852 14.865 14.057 13.49 13.243 13.273 13.57 13.365 13.005 13 11.932 11.943 11.575 11.427 11.613 11.962 11.988 12.15 11.215 11.062 10.59 10.59 10.217 10.207 10.205 10.12 9.99 10.062 10.017 10.05 10.177 10.302 10.273 10.23 10.225 10.22 10.238 10.185 10.118 10.155 10.173 10.265 10.365 10.327 10.265 10.113 10.05 10.105 10.207 10.343 10.562 10.738 10.935 10.958 11.33 11.82 12.307 12.62 12.828 13.163 13.507 13.9 14.113 14.28 14.438 14.79 15.122 15.443 15.663 15.8 16.112 16.52 16.7 16.677 16.783 17.025 17.415 17.68 18.118 18.48 18.905 19.205 19.39 19.528 19.7 19.86 20.022 20.355 20.783 20.735 21.062 21.51 21.945 22.2 22.365 22.685 22.862 22.927 23.09 23.448 23.86 24.21 24.667 25.555 26.19 26.532 26.635 26.612 26.525 26.595 26.66 26.693 26.712 26.725 26.875 26.875 26.93 27.145 26.958 26.812 27.097 27.108 26.743 26.195 26.05 26.205 26.217 26.382 26.782 27.18 27.267 26.825 26.397 26.083 25.82 25.59 25.4 25.445 25.38 25.12 24.478 23.847 23.445 23.478 22.61 21.3 20.903 20.517 20.295 20.085 20.095 19.423 19.215 19.003 18.46 18.347 18.257 18.11 17.993 17.112 16.61 16.278 16.05 16.083 15.903 15.995 16.195 15.898 15.565 15.225 15.382 13.927 12.955 12.597 12.452 12.523 12.595 12.585 12.555 12.218 12.005 11.967 11.993 12.158 12.693 11.548 11.503 11.642 11.523 11.28 11.163 11.295 11.22 10.948 10.773 10.868 10.767 10.75 10.795 11.105 10.743 10.695 10.645 10.595 10.677 10.61 10.573 10.517 10.462 10.23 10.087 10.41 10.467 10.545 10.483 10.465 10.475 10.59 10.54 10.355 10.245 10.358 10.573 10.45 10.35 10.525 11.007 10.882 10.865 11.025 11.023 10.94 10.73 10.825 10.783 10.727 10.718 10.608 10.562 10.485 10.425 10.342 10.182 10.137 10.09 10.02 9.955 9.97 9.903 9.945 9.9 9.898 10.017 10.097 10.045 10.087 10.09 10.122 10.075 10.1 10.142 10.17 10.195 10.318 10.292 10.477 10.915 11.163 11.23 11.435 11.938 12.37 12.61 12.717 12.743 12.765 12.56 11.688 11.02 11.205 11.352 11.39 11.033 10.512 10.218 9.922 9.938 9.995 10.045 10.145 10.3 10.377 10.368 10.158 10.115 10.155 10.177 10.15 10.077 10.057 10.033 9.927 9.852 9.872 9.927 9.962 9.955 10.06 10.135 10.23 10.358 10.2 10.302 10.158 10.057 10.285 10.835 10.98 10.573 10.462 10.337 10.87 11.28 11.568 10.755 9.823 9.825 9.775 9.887 9.915 10.005 10.142 10.205
8.895 8.938 9.002 9.11 9.105 9.01 8.908 8.885 8.92 9.012 9.102 9.105 9.048 9.017 9.005 8.92 8.93 8.957 8.97 8.995 9.02 9.057 9.092 9.105 9.132 9.177 9.208 9.28 9.363 9.46 9.485 9.375 9.36 9.398 9.44 9.483 9.52 9.542 9.475 9.47 9.458 9.373 9.283 9.318 9.503 9.66 9.887 10.233 10.555 10.855 11.273 11.695 12.205 12.562 13.068 13.53 14.085 14.688 15.238 15.903 16.72 17.525 18.35 18.615 19.132 19.017 19.265 19.528 19.69 19.778 19.97 19.895 20.135 20.54 20.677 21.058 21.995 22.358 21.485 21.035 20.98 20.8 20.8 21.142 21.46 21.765 21.57 21.682 21.47 21.712 21.94 22.185 22.218 22.823 23.63 23.472 23.892 24.013 23.76 23.222 23.125 23.31 22.647 22.605 22.923 23.112 23.19 22.535 21.712 21.272 20.993 21.02 20.562 19.975 19.57 19.378 19.01 18.532 18.16 17.827 17.528 17.265 16.838 16.487 16.27 15.85 15.4 15.127 14.71 14.17 13.917 13.665 13.5 13.115 13.177 13.467 12.48 12.065 11.875 11.833 12.347 13.035 12.405 12.533 12.095 11.43 10.545 10.925 11.16 10.545 10.18 10.12 10.017 9.962 10.023 10.07 10.158 10.25 10.26 10.218 10.233 10.227 10.222 10.193 10.145 10.14 10.17 10.26 10.358 10.36 10.225 10.06 10.052 10.118 10.235 10.365 10.542 10.74 10.938 10.913 11.392 11.797 12.145 12.425 12.63 13.065 13.542 13.842 14.165 14.408 14.497 14.825 15.148 15.368 15.59 15.9 16.253 16.593 16.82 16.9 17.02 17.272 17.64 17.903 18.275 18.592 18.925 19.22 19.423 19.695 19.94 19.97 20.147 20.465 20.818 20.958 21.173 21.683 22.212 22.443 22.54 22.62 22.583 22.608 22.878 23.325 23.855 24.285 24.805 25.495 26.173 26.395 26.595 26.82 26.878 26.94 26.98 27.057 27.12 27.205 27.225 27.257 27.288 27.522 27.507 27.483 27.715 27.705 27.095 26.835 26.408 26.35 26.612 26.958 27.222 27.545 27.587 27.163 26.562 26.26 26.002 25.798 25.68 25.93 26.167 25.34 24.587 23.755 23.215 23.205 23.097 21.853 21.908 21.368 20.128 19.567 19.155 19.085 19.038 18.865 18.233 17.948 17.725 17.895 18.042 17.787 17.243 16.93 16.692 16.432 16.36 16.638 16.085 15.517 15.13 15.09 15.113 13.807 12.97 12.608 12.472 12.5 12.515 12.4 12.457 12.175 12.048 12.073 12.398 12.745 12.653 11.73 11.455 11.673 11.562 11.325 11.22 11.097 11.16 11.17 10.87 10.842 10.86 10.78 10.715 10.733 10.825 10.708 10.943 10.74 10.725 10.702 10.61 10.503 10.467 10.267 10.08 10.415 10.6 10.575 10.517 10.513 10.475 10.53 10.587 10.542 10.467 10.312 10.315 10.528 10.465 10.288 10.39 10.712 10.727 10.797 10.87 10.812 10.762 10.79 10.82 10.823 10.757 10.648 10.58 10.568 10.525 10.4 10.307 10.22 10.157 10.068 10.05 10.028 9.967 9.995 10.012 9.975 9.935 10.045 10.125 10.123 10.175 10.18 10.142 10.1 10.222 10.375 10.525 10.908 11.255 10.788 11.075 11.693 11.913 11.71 11.943 12.295 12.552 12.587 12.64 12.538 12.193 11.405 11.17 11.37 11.515 11.72 11.385 11.075 10.562 10 9.89 9.917 9.932 9.988 10.153 10.262 10.22 10.205 10.227 10.247 10.22 10.177 10.095 10.087 10.033 9.952 9.865 9.865 9.898 9.92 9.94 10.045 10.185 10.285 10.58 10.9 11.19 10.923 10.855 11.36 11.727 11.295 10.86 10.493 10.21 10.12 10.373 10.59 10.71 10.312 9.985 9.825 9.858 9.858 9.88 9.873 9.818
9.083 9.16 9.347 9.54 9.42 9.118 8.945 8.942 8.977 9.055 9.075 9.045 8.993 8.988 8.965 8.94 8.958 8.975 8.98 9.003 9.04 9.113 9.145 9.165 9.172 9.19 9.243 9.31 9.395 9.477 9.465 9.395 9.408 9.39 9.39 9.425 9.505 9.548 9.475 9.392 9.32 9.345 9.323 9.293 9.503 9.722 9.977 10.27 10.61 10.915 11.425 11.842 12.42 12.79 13.34 13.807 14.39 15.097 15.733 16.63 17.31 17.895 18.307 18.43 19.16 19.908 20.16 20.033 20.145 20.103 20.228 20.333 20.785 21.34 21.215 21.795 22.305 22.522 22.455 21.745 21.54 21.642 21.7 21.75 21.862 21.72 21.923 22.24 21.858 21.882 21.802 21.903 22.362 22.92 23.815 23.763 23.642 23.595 23.952 23.952 23.263 23.048 22.665 22.555 22.865 23.13 23.377 22.395 21.657 21.278 21.083 21.095 20.98 20.14 19.775 19.49 19.015 18.705 18.215 17.872 17.635 17.372 16.952 16.568 16.378 16.01 15.648 15.44 15.108 14.7 14.347 14.14 13.788 13.432 13.385 13.488 13.03 12.578 12.465 12.425 12.878 13.45 12.328 14.028 14.21 10.83 10.542 10.8 11.122 10.778 10.205 10.205 10.188 10.025 9.948 9.958 10.057 10.167 10.195 10.173 10.203 10.217 10.215 10.18 10.135 10.14 10.177 10.307 10.382 10.345 10.215 10.092 10.08 10.17 10.28 10.43 10.605 10.745 10.95 10.915 11.42 11.663 11.943 12.278 12.577 13.1 13.655 13.958 14.24 14.507 14.733 14.98 15.153 15.405 15.708 16.147 16.5 16.695 16.98 17.19 17.31 17.557 17.812 18.06 18.32 18.688 19.125 19.333 19.697 20.193 20.29 20.237 20.445 20.688 20.885 21.04 21.307 21.755 22.192 22.243 22.19 22.205 22.298 22.48 22.737 23.312 23.875 24.507 24.94 25.455 25.908 26.368 26.985 27.205 27.218 27.31 27.365 27.37 27.51 27.642 27.833 27.795 27.84 27.998 28.052 28.355 27.963 27.975 27.415 27.345 26.975 26.608 26.792 27.335 27.59 27.792 28.105 27.532 26.927 26.483 26.155 25.995 25.923 26.128 25.88 25.193 24.597 24.06 23.38 22.755 22.74 21.99 21.833 21.413 20.987 20.035 19.115 18.688 18.362 18.077 17.855 17.72 17.61 17.585 17.64 17.897 17.583 17.125 17.06 16.79 16.865 16.448 16.07 15.215 14.698 14.58 14.257 13.488 13.057 12.802 12.733 12.852 12.472 12.3 12.375 12.3 12.068 12.085 12.767 13.083 12.562 11.73 11.452 11.578 11.658 11.458 11.31 11.142 11.175 11.032 10.8 10.773 10.75 10.708 10.785 10.77 10.69 10.827 10.83 10.81 10.727 10.755 10.71 10.535 10.5 10.315 10.075 10.465 10.558 10.56 10.547 10.503 10.487 10.503 10.495 10.56 10.525 10.403 10.302 10.307 10.495 10.448 10.235 10.203 10.405 10.675 10.738 10.788 10.738 10.778 10.757 10.733 10.67 10.597 10.548 10.54 10.52 10.45 10.405 10.36 10.257 10.167 10.127 10.065 9.943 10.035 10.21 10.035 10.048 10.07 10.09 10.115 10.113 10.182 10.297 10.225 10.39 10.68 10.823 11.328 11.785 11.87 11.51 12.33 12.535 12.085 11.903 12.02 12.173 12.27 12.215 12.085 11.578 11.113 11.023 11.055 11.373 11.48 11.292 10.702 10.32 10.388 9.998 9.825 9.852 9.898 9.952 10.057 10.102 10.14 10.233 10.163 10.125 10.102 10.08 10.097 10.035 9.925 9.83 9.833 9.913 9.91 9.917 10.108 10.193 10.292 10.642 11.08 11.15 11.37 11.557 11.7 11.365 10.86 10.8 10.637 10.318 10.16 10.077 10.057 10.155 10.215 10.083 10.017 10.045 9.988 9.948 9.835 9.92
9.045 9.333 9.62 9.672 9.392 9.16 9.025 8.995 9.005 9.038 9.015 8.99 8.97 8.97 8.962 8.97 8.983 8.993 9.007 9.038 9.078 9.13 9.16 9.17 9.193 9.225 9.292 9.368 9.443 9.528 9.455 9.375 9.387 9.438 9.415 9.373 9.422 9.43 9.363 9.298 9.298 9.333 9.377 9.267 9.502 9.735 10.012 10.328 10.655 11.038 11.53 11.922 12.465 12.965 13.505 14.167 14.77 15.45 16.12 16.58 17.167 17.497 17.962 18.255 18.785 19.83 20.438 20.51 20.802 20.97 20.81 20.833 21.11 21.542 21.965 22.913 24.103 23.972 23.72 23.073 22.33 22.288 22.165 22.34 22.728 22.275 22.477 22.427 22.005 21.965 22.1 22.417 22.908 23.222 23.647 23.805 23.98 23.897 24.06 24.413 23.66 23.038 22.925 22.812 23.052 23.333 23.448 22.353 21.5 21.067 20.778 20.94 21.045 20.13 19.69 19.407 19.013 18.693 18.25 17.885 17.938 17.905 17.175 16.583 16.365 16.12 16.17 15.615 15.31 14.987 14.7 14.408 14.198 13.915 13.85 13.753 13.262 13.03 13.06 13.055 13.69 14.028 12.618 12.71 11.755 11.048 10.785 10.578 10.4 10.273 10.29 10.347 10.302 10.288 10.148 10.085 9.962 10.062 10.145 10.193 10.155 10.132 10.19 10.2 10.16 10.155 10.2 10.307 10.342 10.368 10.19 10.118 10.078 10.207 10.335 10.493 10.62 10.762 10.945 10.955 11.398 11.538 11.762 12.24 12.577 12.988 13.535 13.975 14.275 14.592 14.833 15.035 15.275 15.605 16.052 16.365 16.615 16.788 17.05 17.358 17.495 17.628 17.788 18.01 18.328 18.693 19.102 19.408 19.958 20.318 20.423 20.5 20.61 20.905 21.075 21.375 21.642 21.792 22.028 22.132 22.2 22.378 22.452 22.575 23.233 24.4 25.368 25.59 25.71 25.995 26.595 27.35 27.763 27.635 27.757 27.938 28.035 27.91 27.985 28.045 28.41 28.595 28.67 28.615 28.882 29.022 28.237 27.647 27.658 27.807 27.585 27.085 27.067 27.583 28.118 28.368 28.433 27.892 27.278 26.808 26.362 26.163 26.007 26.278 26.163 25.32 24.83 24.312 23.855 23.08 22.442 21.7 21.23 21.065 21.013 20.382 19.045 18.595 18.353 18.085 17.923 17.802 17.555 17.368 17.29 17.4 17.51 17.347 17.057 17 16.997 16.305 15.677 15.057 14.517 14.288 14.033 13.52 13.205 13.128 12.99 12.7 12.42 12.292 12.39 12.655 12.525 12.148 12.562 12.448 11.618 11.705 11.472 11.805 11.775 11.602 11.387 11.215 11.122 10.903 10.755 10.685 10.79 10.73 10.8 10.845 10.767 10.7 10.85 10.747 11.017 10.642 10.695 10.585 10.515 10.385 10.075 10.417 10.613 10.625 10.587 10.488 10.458 10.475 10.432 10.44 10.485 10.43 10.427 10.36 10.335 10.46 10.477 10.17 10.108 10.265 10.618 10.69 10.653 10.64 10.57 10.592 10.622 10.595 10.575 10.52 10.55 10.457 10.448 10.398 10.31 10.172 10.128 10.005 10.048 10.092 10.055 10.097 10.06 10.04 10.097 10.173 10.19 10.198 10.3 10.377 10.675 10.993 11.21 11.597 12.097 12.495 12.44 12.95 13.155 12.675 12.312 12.137 12.155 11.962 11.785 11.632 11.335 11.07 10.795 10.762 11 11.113 10.952 10.56 10.583 10.32 9.938 9.767 9.78 9.802 9.845 9.948 9.98 10.035 10.095 10.083 10.078 10.153 10.217 10.227 10.092 9.967 9.802 9.807 9.858 9.852 9.892 10.055 10.145 10.288 10.58 10.663 10.648 11.235 11.462 11.65 11.677 11.297 11.597 11.267 10.82 10.38 10.27 10.075 9.985 10.017 9.995 9.913 10.007 10.073 9.967 9.863 9.82
8.955 9.265 9.55 9.515 9.312 9.135 9.028 9.015 9.005 9.012 8.99 8.96 8.917 8.9 8.945 8.975 8.983 8.997 9.03 9.085 9.092 9.118 9.155 9.198 9.222 9.24 9.307 9.46 9.497 9.43 9.403 9.342 9.377 9.417 9.44 9.368 9.4 9.418 9.35 9.342 9.363 9.318 9.435 9.26 9.48 9.727 9.98 10.35 10.68 11.09 11.51 11.99 12.54 13.137 13.675 14.205 15.057 15.587 15.9 16.395 17.055 17.445 17.903 18.28 18.685 19.375 20.235 21.032 21.215 21.307 21.382 21.335 21.462 21.958 22.745 23.663 24.275 24.042 24.605 23.757 23.525 23.305 22.86 22.927 22.663 22.545 22.375 22.208 21.927 22.108 22.177 22.6 23.045 23.372 23.767 24.205 24.202 24.285 23.92 23.75 23.378 23.193 23.065 23.252 23.27 23.503 23.415 22.255 21.28 20.858 20.705 20.835 20.757 20.08 19.673 19.362 18.952 18.583 18.18 17.805 17.577 17.44 17.037 16.663 16.385 16.29 16.538 16.017 15.302 15.012 14.76 14.555 14.448 14.177 13.948 13.757 13.55 13.443 13.435 13.525 13.837 13.765 12.773 12.023 11.422 11.233 11.22 10.91 10.525 10.38 10.935 10.552 10.39 10.29 10.315 10.32 10.06 10.057 10.1 10.142 10.097 10.087 10.16 10.202 10.175 10.188 10.255 10.352 10.35 10.288 10.155 10.07 10.057 10.2 10.345 10.49 10.625 10.778 10.977 10.965 11.368 11.51 11.675 12.153 12.69 13.04 13.378 13.91 14.25 14.512 14.755 14.997 15.24 15.585 16.153 16.443 16.638 16.855 17.045 17.427 17.615 17.75 17.83 18.05 18.378 18.7 19.042 19.548 20.067 20.39 20.495 20.61 20.932 21.26 21.35 21.628 21.958 22.247 22.455 22.663 22.822 23.007 23.08 23.763 24.73 25.407 26.257 26.66 26.608 26.795 27.657 27.943 27.892 28.042 28.185 28.423 28.525 28.612 28.577 28.483 28.943 29.193 28.847 28.76 29.22 29.448 29.17 28.368 28.057 28.03 27.92 27.595 27.645 28.122 28.397 28.537 28.18 27.8 27.788 27.202 26.815 26.655 26.222 26.138 25.835 25.438 25.115 24.603 24.123 23.435 22.597 22.017 20.938 20.65 20.647 20.195 19.42 18.655 18.205 18.08 18.843 18.573 18.378 18.335 17.438 16.993 17 17.305 17.278 17.36 16.767 16.295 15.602 15.033 14.585 14.113 14.172 13.455 13.26 13.327 12.882 12.405 12.337 12.408 12.538 12.745 12.985 12.305 12.693 12.233 11.685 11.922 11.403 11.613 11.825 12.007 11.425 11.142 11.083 10.87 10.82 10.717 10.763 10.858 10.81 10.788 10.76 10.823 10.733 10.833 11.427 10.895 10.7 10.615 10.55 10.438 10.062 10.35 10.685 10.667 10.605 10.52 10.485 10.48 10.48 10.47 10.513 10.472 10.445 10.443 10.398 10.34 10.392 10.452 10.227 10.085 10.097 10.467 10.693 10.642 10.585 10.513 10.483 10.467 10.493 10.495 10.467 10.475 10.457 10.35 10.312 10.172 10.065 10.095 10.14 10.102 10.083 10.087 10.108 10.097 10.08 10.085 10.198 10.193 10.342 10.635 10.708 11.015 11.54 11.938 12.285 12.8 13.03 13.333 13.547 13.297 12.97 12.585 12.275 11.997 11.618 11.328 11.193 10.665 10.59 10.637 10.547 10.43 10.512 10.46 10.567 10.255 9.93 9.722 9.745 9.78 9.785 9.843 9.958 9.985 10.048 10.073 10.11 10.285 10.368 10.283 10.13 10.012 9.795 9.778 9.83 9.903 9.885 9.997 10.188 10.387 10.57 10.422 10.65 11.265 11.405 11.76 12.375 12.488 12.095 11.785 11.363 10.815 10.485 10.337 10.12 10.17 10.02 9.945 9.943 9.925 9.95 9.81 9.89
8.962 9.095 9.365 9.203 9.15 9.083 8.99 8.997 8.993 8.988 8.983 8.962 8.895 8.89 8.95 8.985 8.993 9.023 9.052 9.073 9.085 9.12 9.16 9.21 9.222 9.227 9.312 9.503 9.548 9.382 9.37 9.363 9.372 9.395 9.47 9.47 9.375 9.378 9.305 9.298 9.302 9.298 9.46 9.265 9.49 9.718 10.005 10.38 10.738 11.135 11.568 12.06 12.653 13.208 13.837 14.512 15.227 15.67 15.928 16.37 17.06 17.51 18.2 18.655 19.04 19.3 20.257 20.57 20.397 21.062 21.522 21.625 21.765 21.967 22.505 23.84 23.823 23.353 23.26 22.855 22.833 22.865 23.055 22.627 22.448 22.347 22.132 21.782 21.53 21.86 22.105 22.443 22.938 23.388 23.785 24.118 24.387 24.33 23.858 23.533 23.32 23.478 23.528 23.483 23.475 23.657 23.315 22.165 21.295 20.968 20.92 21.135 20.568 20.13 19.622 19.263 18.948 18.673 18.542 17.905 17.522 17.285 16.975 16.66 16.49 16.173 15.925 15.655 15.312 15.08 14.87 14.665 14.488 14.28 14.177 14.055 13.915 13.722 13.663 13.898 13.81 13.335 12.7 12.062 11.79 11.705 11.67 11.208 10.79 10.887 10.53 10.403 10.355 10.36 10.618 10.248 10.135 10.115 10.245 10.222 10.145 10.1 10.142 10.217 10.205 10.217 10.275 10.382 10.392 10.318 10.217 10.095 10.05 10.137 10.298 10.44 10.625 10.765 10.97 10.988 11.295 11.615 11.765 12.108 12.69 13.057 13.378 13.727 14.095 14.39 14.743 15.015 15.25 15.555 16.013 16.45 16.677 16.98 17.1 17.285 17.478 17.75 17.91 18.167 18.443 18.81 19.263 19.938 20.577 20.81 20.923 21.138 21.283 21.487 21.667 22.05 22.502 22.987 23.257 23.343 23.48 23.667 24.055 24.52 25.193 25.81 26.573 27.142 27.267 27.407 27.605 27.85 28.035 28.217 28.71 29.325 29.663 29.03 28.77 28.733 28.905 28.983 29.087 29.427 29.307 29.305 29.655 29.458 28.807 28.49 28.485 28.435 28.235 28.363 28.64 28.555 28.17 27.755 27.472 27.278 27.235 27.298 26.73 26.16 25.855 25.54 25.305 24.972 24.485 24.243 23.118 21.952 20.9 20.595 20.42 19.935 19.557 18.802 18.605 18.798 19.57 19.02 19.145 19.307 18.298 17.23 16.538 16.443 17.07 17.15 16.562 15.915 15.227 14.892 14.788 14.903 14.39 13.275 13.08 13.135 12.753 12.352 12.302 12.382 12.44 12.557 12.722 12.618 12.07 11.73 11.605 11.47 11.275 11.38 11.517 11.43 11.177 10.965 10.915 10.852 10.835 11.003 10.85 10.863 10.855 10.733 10.717 10.8 10.922 10.88 10.778 10.815 10.805 10.663 10.587 10.513 10.085 10.312 10.767 10.677 10.645 10.597 10.59 10.538 10.51 10.523 10.558 10.583 10.548 10.502 10.44 10.41 10.368 10.323 10.382 10.35 10.087 10.07 10.318 10.592 10.46 10.382 10.388 10.443 10.48 10.472 10.443 10.435 10.423 10.37 10.34 10.267 10.153 10.175 10.155 10.083 10.105 10.06 10.1 10.12 10.118 10.085 10.205 10.278 10.55 10.785 10.833 10.698 11.422 11.977 12.145 12.887 13.12 13.185 13.07 13.005 12.92 12.735 12.35 11.878 11.36 10.895 10.685 10.445 10.247 10.325 10.455 10.467 10.448 10.23 10.542 10.385 9.842 9.767 9.727 9.738 9.757 9.793 9.85 9.967 10.095 10.118 10.153 10.345 10.325 10.288 10.137 9.983 9.783 9.778 9.807 9.94 9.888 10.028 10.182 10.155 10.448 10.568 10.872 11.227 11.337 11.685 12.38 12.955 12.958 12.365 11.833 11.213 10.65 10.532 10.275 10.142 10.003 10.017 9.953 9.845 9.765 9.823 9.952
8.988 9.023 9.17 9.13 9.165 9.08 9.01 9.028 9.025 8.985 8.952 8.935 8.892 8.917 8.98 8.985 9.01 9.025 9.048 9.078 9.115 9.15 9.165 9.177 9.215 9.21 9.337 9.53 9.38 9.342 9.347 9.37 9.365 9.36 9.432 9.465 9.388 9.337 9.225 9.285 9.29 9.325 9.45 9.27 9.475 9.73 10.005 10.425 10.815 11.225 11.677 12.245 12.673 13.195 13.948 14.628 15.463 15.887 15.815 16.26 16.923 17.557 17.862 18.403 18.783 19.032 19.355 19.517 20.007 20.858 21.737 22.105 22.487 22.6 22.96 23.302 23.025 22.733 22.745 22.562 23.145 23.022 22.427 21.997 21.837 21.74 21.405 21.068 20.95 21.368 21.96 22.135 22.748 23.302 24.135 24.528 24.623 23.9 23.362 23.04 23.135 23.208 23.545 23.247 23.18 22.895 23.29 22.12 21.435 21.108 21.045 21.08 20.517 20.087 19.647 19.362 19.017 18.925 18.98 18.177 17.733 17.438 17.085 16.763 16.542 16.21 15.943 15.738 15.53 15.328 15.195 15.047 14.877 14.715 14.555 14.328 14.19 14.01 13.882 13.965 13.872 13.792 13.483 12.755 12.305 12.278 12.097 11.472 11.087 10.85 10.637 10.448 10.385 10.615 11.17 10.908 10.08 10.087 10.163 10.312 10.212 10.155 10.157 10.233 10.245 10.252 10.315 10.41 10.442 10.51 10.455 10.142 10.07 10.108 10.253 10.42 10.613 10.745 10.958 10.972 11.155 11.65 11.778 12.028 12.61 13.095 13.403 13.727 14.023 14.38 14.715 15.015 15.22 15.517 15.96 16.548 16.835 16.975 17.165 17.285 17.62 18.025 18.185 18.503 18.575 18.952 19.468 20.19 20.905 21.115 21.312 21.362 21.43 21.753 22.29 22.872 23.028 23.52 23.632 23.775 23.985 24.218 24.542 25.038 25.645 26.073 26.655 27.03 27.292 27.63 28.275 28.772 28.51 28.47 29.255 30.128 29.743 28.917 28.317 28.41 28.94 29.335 29.573 29.958 30.08 29.845 29.495 30.163 30.18 29.68 29.5 29.603 29.497 28.96 28.882 28.9 28.757 28.238 27.43 27.362 27.555 27.557 27.132 26.372 25.958 25.843 25.6 25.225 24.78 24.145 23.358 22.158 21.058 20.735 20.878 20.138 19.71 19.695 19.472 19.73 19.302 19.06 19.505 19.61 19.007 17.807 16.82 16.075 15.908 16.198 16.052 15.33 14.69 14.587 14.57 14.24 13.597 13.173 12.892 12.738 12.547 12.417 12.39 12.325 12.233 12.222 12.297 12.355 12.005 11.87 11.747 11.635 11.372 11.36 11.31 11.385 11.35 11.055 11.007 10.945 10.895 10.872 10.85 10.878 10.96 10.958 10.917 10.908 10.9 10.802 10.825 10.83 10.755 10.677 10.642 10.602 10.122 10.283 10.715 10.685 10.64 10.628 10.648 10.562 10.552 10.565 10.61 10.625 10.642 10.613 10.513 10.458 10.47 10.413 10.26 10.295 10.382 10.227 10.155 10.247 10.46 10.42 10.403 10.45 10.427 10.427 10.398 10.413 10.43 10.408 10.365 10.3 10.245 10.212 10.205 10.065 10.132 10.173 10.158 10.148 10.255 10.243 10.283 10.413 10.69 11.003 11.045 10.667 10.58 11.073 11.355 12.087 12.425 12.34 12.295 12.288 12.182 12.095 11.88 11.465 10.895 10.443 10.352 10.333 10.172 10.113 10.23 10.19 10.193 9.972 9.895 9.86 9.812 9.783 9.727 9.738 9.757 9.835 9.878 9.908 10.015 10.078 10.095 10.27 10.29 10.132 10.017 9.94 9.802 9.775 9.783 9.898 9.887 9.922 10.155 10.15 10.828 10.835 10.913 11.267 11.305 11.453 12.15 12.708 13.193 12.608 12.238 11.628 10.783 10.412 10.46 10.275 10.07 9.925 10.087 9.79 9.788 9.755 9.835
