ncols 420
nrows 30
xllcorner    245142
yllcorner    140896
cellsize     2
NODATA_value -9999
50.308 50.52 50.743 50.953 51.2 51.418 51.718 51.99 52.293 52.628 52.948 53.278 53.608 53.96 54.29 54.62 54.963 55.268 55.595 55.903 56.21 56.548 56.85 57.163 57.445 57.743 58.073 58.378 58.728 59.063 59.433 59.758 60.113 60.478 60.828 61.155 61.508 61.88 62.248 62.598 62.948 63.288 63.605 64.035 64.565 65.348 64.725 64.548 64.855 65.233 65.325 65.693 66.098 66.593 67.033 67.493 67.918 68.24 68.553 68.863 69.165 69.483 69.793 70.123 70.408 70.73 71.045 71.365 71.683 71.998 72.318 72.618 72.958 73.308 73.653 73.955 74.29 74.618 74.95 75.265 75.625 75.953 76.263 76.63 76.95 77.32 77.655 78.015 78.355 78.7 79.065 79.423 79.778 80.133 80.493 80.843 81.195 81.528 81.913 82.233 82.6 82.94 83.275 83.6 83.91 84.22 84.528 84.833 85.113 85.398 85.68 85.953 86.203 86.48 86.74 86.975 87.238 87.465 87.733 87.97 88.22 88.455 88.703 88.943 89.163 89.38 89.615 89.855 90.075 90.291 90.531 90.771 90.998 91.198 91.376 91.601 91.866 92.138 93.106 93.321 92.733 92.941 93.163 93.381 93.593 93.756 93.931 94.121 94.341 94.553 94.796 95.041 95.241 95.486 95.726 95.943 96.201 96.423 96.653 96.873 97.108 97.331 97.536 97.761 97.968 98.178 98.391 98.558 98.753 98.936 99.131 99.318 99.523 99.708 99.908 100.093 100.253 100.391 100.543 100.688 100.828 100.971 101.123 101.268 101.368 101.513 101.633 101.761 101.871 101.983 102.093 102.211 102.311 102.428 102.561 102.676 102.803 102.928 103.046 103.196 103.328 103.421 103.558 103.678 103.758 103.848 103.913 103.991 105.098 106.411 106.543 106.181 105.203 105.128 105.046 104.991 105.246 105.558 105.643 105.848 105.431 105.671 105.678 105.703 105.873 105.863 106.288 106.806 106.181 105.106 105.174 105.606 107.534 109.121 108.991 106.901 106.919 106.971 107.031 107.081 107.186 107.239 107.296 107.399 107.466 107.564 107.681 110.201 111.284 111.434 110.956 108.989 108.311 108.344 108.384 108.411 108.454 108.511 108.664 111.419 112.286 112.904 113.491 115.084 115.414 115.711 111.001 109.316 109.036 109.021 109.114 109.216 112.779 115.864 115.261 110.881 109.754 109.744 109.714 109.724 109.761 109.761 109.814 109.899 109.996 110.101 114.036 114.969 113.844 111.276 111.251 110.881 110.796 110.834 110.876 110.924 111.056 112.401 111.121 111.169 111.226 111.286 111.319 111.364 111.419 111.446 111.494 111.476 111.511 111.554 111.636 111.689 111.774 111.809 111.906 112.656 112.141 112.211 112.214 112.319 114.051 114.321 113.664 115.031 116.701 116.771 117.951 116.204 114.856 113.459 112.364 111.809 111.084 110.601 110.406 110.964 110.191 110.681 110.584 111.401 112.156 113.454 114.711 114.826 114.519 114.109 114.101 115.551 114.076 114.081 113.969 113.984 114.116 114.176 114.221 114.321 114.366 114.461 114.534 114.584 114.654 114.674 114.764 114.806 114.896 114.931 115.014 115.089 115.179 115.341 115.446 115.629 115.714 116.739 119.511 119.489 116.511 116.786 116.939 117.167 117.392 117.737 118.234 119.984 119.244 118.907 119.199 119.334 119.589 119.822 120.054 120.317 120.587 120.834 121.122 121.414 121.669 121.932 122.192 122.424 122.694 123.014 123.302 123.564 123.854 124.167 124.414 124.699 124.937 125.134 125.339 125.524 125.647 125.822 126.022 126.267 126.487 126.622 126.727 127.804
50.495 50.7 50.88 51.095 51.328 51.56 51.838 52.1 52.395 52.715 53.053 53.358 53.688 54.03 54.34 54.68 54.99 55.32 55.63 55.948 56.285 56.595 56.898 57.18 57.463 57.77 58.075 58.428 58.763 59.108 59.435 59.78 60.128 60.51 60.873 61.215 61.578 61.918 62.275 62.643 63.01 63.318 63.66 63.998 64.248 64.453 64.47 65.098 65.853 65.85 65.658 65.578 65.89 66.33 66.803 67.353 67.84 68.133 68.418 68.733 69.065 69.408 69.733 70.06 70.365 70.688 71.015 71.33 71.653 71.975 72.303 72.643 72.983 73.298 73.643 73.97 74.305 74.615 74.94 75.245 75.573 75.938 76.255 76.59 76.928 77.27 77.625 77.978 78.315 78.66 79.03 79.39 79.74 80.09 80.45 80.81 81.165 81.53 81.865 82.22 82.568 82.908 83.238 83.585 83.883 84.193 84.503 84.78 85.098 85.36 85.63 85.893 86.15 86.43 86.665 86.923 87.18 87.43 87.665 87.905 88.15 88.38 88.64 88.868 89.075 89.31 89.533 89.753 89.988 90.218 90.476 90.693 90.883 91.068 91.266 91.518 91.776 92.571 93.181 92.576 92.671 92.891 93.103 93.316 93.493 93.661 93.841 94.048 94.248 94.491 94.726 94.948 95.173 95.398 95.638 95.881 96.098 96.336 96.556 96.778 96.991 97.221 97.441 97.636 97.846 98.043 98.246 98.433 98.616 98.798 98.983 99.176 99.378 99.573 99.758 99.938 100.098 100.233 100.391 100.536 100.688 100.811 100.958 101.111 101.211 101.343 101.468 101.596 101.716 101.816 101.938 102.046 102.151 102.278 102.403 102.538 102.643 102.778 102.908 103.038 103.166 103.268 103.391 103.493 103.593 103.651 103.723 103.926 105.511 106.246 106.081 105.371 105.058 104.831 104.801 104.846 104.973 105.308 105.223 105.548 105.163 105.401 105.483 105.548 105.618 105.676 106.091 106.633 105.656 104.839 104.981 105.851 107.781 109.091 107.904 106.701 106.706 106.759 106.821 106.894 106.989 107.061 107.141 107.244 107.316 107.391 107.851 110.889 111.396 111.351 110.796 108.484 108.264 108.324 108.364 108.396 108.444 108.791 108.496 108.529 108.564 108.589 108.674 110.471 111.024 111.741 109.066 108.891 108.879 108.866 108.934 109.126 113.624 115.834 114.849 110.401 109.651 109.614 109.576 109.571 109.576 109.584 109.624 109.701 109.791 109.911 113.914 114.779 113.516 111.451 111.414 110.611 110.599 110.579 110.609 110.721 110.779 111.121 110.864 110.936 111.011 111.026 111.069 111.094 111.124 111.161 111.224 111.239 111.266 111.304 111.354 111.426 111.506 111.621 111.639 112.081 112.064 113.214 112.156 112.126 113.511 112.816 113.254 114.504 115.339 115.354 115.404 115.336 114.906 113.574 111.956 110.946 110.514 110.506 110.199 110.751 110.451 110.284 111.334 111.624 112.694 113.694 114.676 114.679 114.839 114.106 113.916 113.949 113.839 113.824 114.069 113.821 113.916 113.951 113.986 114.074 114.169 114.229 114.269 114.324 114.369 114.434 114.496 114.556 114.596 114.666 114.736 114.819 114.919 115.059 115.181 115.314 115.506 115.846 116.941 119.676 118.696 117.199 116.906 117.164 117.369 117.934 118.044 119.294 118.897 118.807 118.934 119.194 119.384 119.672 119.909 120.164 120.429 120.699 120.967 121.249 121.497 121.774 122.072 122.317 122.557 122.817 123.112 123.387 123.667 123.952 124.249 124.497 124.724 124.934 125.147 125.269 125.424 125.619 125.872 126.107 126.289 126.279 126.654 128.579
50.695 50.873 51.055 51.27 51.473 51.695 51.94 52.235 52.503 52.813 53.123 53.453 53.76 54.083 54.41 54.733 55.023 55.333 55.665 55.985 56.31 56.615 56.945 57.233 57.53 57.838 58.148 58.493 58.843 59.143 59.493 59.823 60.168 60.525 60.888 61.248 61.603 61.95 62.323 62.68 63.025 63.36 63.693 64.053 64.305 64.43 64.533 64.79 65.225 65.988 67.17 66.82 66.238 66.315 66.615 67.035 67.558 68.06 68.365 68.595 68.928 69.283 69.635 69.965 70.318 70.658 71.005 71.33 71.655 71.98 72.318 72.635 72.98 73.288 73.645 73.973 74.298 74.613 74.925 75.275 75.598 75.92 76.255 76.575 76.913 77.263 77.615 77.928 78.303 78.645 79.01 79.338 79.695 80.068 80.425 80.8 81.158 81.52 81.868 82.21 82.548 82.898 83.233 83.555 83.858 84.173 84.465 84.753 85.043 85.33 85.59 85.848 86.098 86.365 86.618 86.858 87.118 87.353 87.603 87.825 88.083 88.285 88.548 88.778 88.998 89.238 89.458 89.68 89.905 90.131 90.361 90.536 90.748 90.953 91.191 91.433 92.073 93.018 92.258 92.378 92.601 92.808 93.028 93.216 93.393 93.586 93.791 93.978 94.196 94.431 94.651 94.863 95.058 95.298 95.553 95.761 96.003 96.213 96.456 96.663 96.868 97.106 97.313 97.526 97.731 97.916 98.106 98.283 98.473 98.661 98.846 99.026 99.226 99.416 99.586 99.773 99.913 100.078 100.241 100.383 100.546 100.666 100.808 100.936 101.068 101.211 101.336 101.451 101.558 101.666 101.791 101.891 102.006 102.111 102.233 102.366 102.483 102.621 102.753 102.871 102.996 103.116 103.208 103.333 103.413 103.483 103.553 104.058 105.616 106.003 105.598 104.971 104.583 104.573 104.543 104.633 104.706 104.893 104.963 105.001 105.061 105.081 105.341 105.548 105.523 105.688 105.938 106.436 105.136 104.714 104.879 106.369 108.259 109.181 107.936 107.009 106.711 106.581 106.646 106.706 106.776 106.871 106.951 107.054 107.141 107.239 107.696 111.021 111.486 111.219 110.501 108.261 108.301 108.304 108.346 108.379 108.476 109.046 108.996 108.864 109.106 109.056 108.761 108.631 108.594 108.629 108.649 108.679 108.684 108.674 108.779 109.861 114.141 115.681 113.781 109.804 109.654 109.609 109.521 109.506 109.476 109.511 109.504 109.564 109.621 109.701 113.791 114.586 113.424 112.396 110.631 110.391 110.411 110.416 110.461 110.494 110.581 111.749 110.631 110.691 110.784 110.826 110.869 110.874 110.919 110.951 110.981 111.016 111.014 111.084 111.106 111.154 111.239 111.326 111.384 112.314 112.241 112.384 111.764 111.819 113.526 112.464 113.419 113.974 114.621 114.989 114.629 114.761 114.201 113.106 112.264 111.659 111.066 110.811 110.836 111.106 111.806 111.616 112.044 112.401 113.189 113.876 114.734 114.729 114.196 113.816 113.596 113.639 113.664 113.551 113.589 113.621 113.744 113.751 113.809 113.921 113.951 113.966 113.996 114.076 114.089 114.184 114.239 114.261 114.324 114.376 114.471 114.561 114.664 114.786 114.906 115.341 115.836 115.516 116.026 118.366 117.821 117.281 117.079 117.379 118.654 119.284 119.002 119.722 118.904 118.629 118.882 119.019 119.272 119.529 119.782 120.032 120.309 120.559 120.854 121.084 121.317 121.597 121.862 122.122 122.384 122.644 122.927 123.212 123.507 123.817 124.069 124.299 124.544 124.757 124.894 125.047 125.262 125.482 125.724 125.942 125.982 125.927 127.384 127.987
50.9 51.055 51.255 51.423 51.633 51.85 52.085 52.345 52.598 52.888 53.195 53.505 53.828 54.148 54.5 54.78 55.095 55.395 55.693 56 56.335 56.663 56.978 57.275 57.588 57.903 58.218 58.54 58.878 59.23 59.555 59.87 60.228 60.58 60.915 61.278 61.633 61.968 62.355 62.693 63.043 63.39 63.703 64.068 64.343 64.438 64.605 64.983 65.373 65.76 66.02 66.688 67.518 67.485 67.038 66.995 67.205 67.693 68.175 68.61 68.895 69.145 69.498 69.895 70.253 70.63 70.98 71.333 71.633 71.998 72.318 72.648 72.975 73.295 73.653 73.973 74.33 74.648 74.968 75.295 75.598 75.943 76.263 76.575 76.908 77.243 77.57 77.938 78.298 78.638 78.973 79.325 79.683 80.055 80.433 80.798 81.153 81.518 81.855 82.2 82.555 82.885 83.205 83.533 83.858 84.155 84.453 84.748 85.023 85.27 85.543 85.795 86.043 86.313 86.565 86.813 87.053 87.293 87.523 87.745 88.013 88.223 88.448 88.69 88.913 89.138 89.348 89.57 89.815 90.038 90.251 90.431 90.626 90.851 91.101 91.551 92.753 92.288 92.066 92.286 92.521 92.738 92.946 93.106 93.293 93.511 93.698 93.911 94.131 94.351 94.556 94.728 94.981 95.221 95.426 95.661 95.906 96.141 96.341 96.553 96.781 97.003 97.181 97.393 97.583 97.791 97.981 98.136 98.331 98.516 98.708 98.903 99.086 99.258 99.426 99.618 99.763 99.911 100.066 100.236 100.378 100.531 100.658 100.796 100.923 101.061 101.188 101.318 101.411 101.513 101.633 101.733 101.833 101.973 102.086 102.198 102.336 102.473 102.606 102.731 102.828 102.953 103.066 103.166 103.253 103.303 103.376 104.351 105.641 106.561 105.206 104.303 104.413 104.408 104.371 104.526 104.486 104.596 104.756 104.803 105.103 105.013 105.346 105.216 105.381 105.656 106.096 106.133 104.568 104.539 104.904 106.611 108.736 109.009 107.666 107.029 106.741 107.029 106.719 106.611 106.696 106.764 106.841 106.949 107.124 107.269 108.941 111.091 111.499 111.121 109.636 108.276 108.319 108.314 108.329 108.441 108.754 108.859 108.889 108.139 108.309 108.561 108.729 108.921 108.586 108.451 108.464 108.459 108.471 108.491 108.596 111.844 114.896 115.491 113.931 112.794 112.319 111.906 111.474 111.071 110.796 110.151 110.346 110.564 110.366 110.151 113.669 114.451 112.689 110.821 110.384 110.186 110.184 110.234 110.276 110.309 110.386 111.721 110.429 110.491 110.809 110.859 110.676 110.711 110.731 110.751 110.766 110.824 110.834 110.859 110.884 110.931 111.014 111.101 111.136 111.384 112.496 111.589 111.609 113.914 113.511 112.334 112.446 112.836 113.809 114.509 114.469 114.701 114.444 113.411 112.889 112.759 112.479 112.296 112.661 112.169 112.859 113.046 113.061 113.611 113.969 114.541 114.859 114.639 113.964 113.409 113.234 113.451 113.319 113.251 113.289 113.329 113.376 113.676 113.596 113.629 113.814 113.749 113.724 113.764 113.836 113.891 113.939 113.959 114.039 114.089 114.181 114.309 114.561 115.304 115.011 115.271 115.629 115.224 115.384 115.674 115.816 116.449 116.591 118.109 118.119 119.417 118.502 119.342 119.162 118.544 118.789 118.927 119.177 119.404 119.672 119.902 120.142 120.387 120.677 120.944 121.192 121.447 121.722 121.942 122.184 122.462 122.744 123.027 123.317 123.639 123.907 124.109 124.324 124.537 124.657 124.847 125.107 125.312 125.569 125.759 125.667 126.192 128.072 127.152
51.078 51.23 51.415 51.6 51.798 52.025 52.235 52.475 52.718 52.99 53.275 53.57 53.9 54.223 54.535 54.858 55.158 55.448 55.75 56.07 56.368 56.648 56.965 57.283 57.628 57.94 58.28 58.61 58.94 59.26 59.583 59.918 60.26 60.61 60.93 61.295 61.67 62.03 62.375 62.718 63.048 63.388 63.715 64.063 64.343 64.463 64.755 65.213 65.543 65.893 66.168 66.418 66.718 67.543 68.308 68.45 67.488 67.485 67.793 68.185 68.683 69.185 69.445 69.773 70.14 70.543 70.933 71.305 71.653 71.995 72.333 72.64 72.975 73.308 73.65 73.99 74.328 74.683 74.995 75.305 75.62 75.938 76.253 76.585 76.9 77.24 77.57 77.925 78.278 78.63 78.973 79.353 79.7 80.053 80.423 80.79 81.148 81.505 81.858 82.213 82.55 82.893 83.21 83.525 83.818 84.133 84.425 84.703 84.98 85.233 85.508 85.755 86.003 86.26 86.5 86.753 86.968 87.205 87.45 87.685 87.898 88.125 88.355 88.588 88.82 89.038 89.255 89.498 89.725 89.938 90.116 90.311 90.508 90.778 91.181 92.428 92.248 91.746 91.991 92.246 92.441 92.658 92.853 93.038 93.223 93.433 93.618 93.841 94.048 94.256 94.438 94.658 94.891 95.118 95.351 95.563 95.791 96.003 96.188 96.421 96.646 96.843 97.068 97.278 97.463 97.648 97.833 98.008 98.191 98.378 98.596 98.776 98.943 99.116 99.296 99.458 99.611 99.771 99.943 100.076 100.248 100.373 100.488 100.631 100.786 100.906 101.026 101.161 101.256 101.361 101.481 101.576 101.673 101.796 101.933 102.056 102.178 102.311 102.438 102.548 102.666 102.768 102.898 103.008 103.091 103.143 103.261 104.778 105.561 105.448 104.613 104.126 104.443 104.126 104.153 104.268 104.433 104.676 104.691 105.346 104.748 104.773 104.776 104.951 105.003 105.316 105.971 105.471 104.411 104.594 105.044 107.116 108.576 108.256 106.616 106.314 106.236 106.426 106.546 106.379 106.504 106.636 106.774 106.871 107.199 107.979 108.561 109.341 109.294 110.079 109.181 108.024 108.011 108.106 108.181 108.326 108.549 108.199 109.739 110.611 110.536 110.401 109.431 109.569 108.476 108.236 108.224 108.264 108.269 108.331 108.449 110.494 115.001 115.526 115.356 115.294 115.214 115.156 115.161 115.076 115.001 113.981 112.504 112.449 112.376 112.361 113.579 114.196 111.874 110.084 110.006 109.996 110.009 110.041 110.069 110.121 110.286 110.526 110.229 110.271 110.569 110.589 110.534 110.509 110.521 110.549 110.574 110.621 110.616 110.664 110.691 110.741 110.784 110.844 110.956 111.159 111.441 111.576 113.571 116.744 113.091 111.794 111.999 112.039 113.574 114.591 114.131 114.549 114.986 114.186 113.759 113.459 113.401 113.984 113.521 113.534 113.611 113.896 114.086 114.996 114.736 114.794 114.934 115.461 114.094 113.181 113.074 113.246 113.016 113.036 112.984 113.151 113.609 114.991 113.324 113.421 113.521 113.621 113.429 113.461 113.506 113.589 113.654 113.684 113.714 113.806 114.344 114.994 115.21 114.635 114.499 114.641 114.845 115.015 115.224 115.397 115.599 116.064 120.281 120.869 117.312 117.729 118.034 118.439 118.937 118.442 118.732 118.889 119.074 119.282 119.509 119.749 120.012 120.277 120.532 120.802 121.037 121.304 121.547 121.789 122.022 122.289 122.592 122.869 123.134 123.419 123.697 123.927 124.109 124.297 124.449 124.664 124.924 125.162 125.397 125.494 125.502 127.334 127.409 126.339
51.263 51.42 51.585 51.768 51.945 52.163 52.378 52.605 52.85 53.125 53.388 53.683 54.018 54.308 54.6 54.898 55.198 55.488 55.813 56.11 56.413 56.72 57.028 57.333 57.643 57.98 58.323 58.655 58.988 59.305 59.618 59.96 60.288 60.63 60.985 61.338 61.71 62.068 62.398 62.723 63.06 63.37 63.72 64.055 64.35 64.563 64.933 65.313 65.645 65.958 66.245 66.528 66.785 67.033 67.278 68.088 68.883 69.12 68.34 68.098 68.348 68.823 69.383 69.835 70.11 70.445 70.823 71.208 71.598 71.97 72.328 72.683 73.003 73.355 73.71 74.015 74.345 74.683 74.998 75.325 75.62 75.943 76.253 76.6 76.91 77.243 77.585 77.918 78.28 78.635 79.005 79.345 79.703 80.063 80.443 80.783 81.133 81.503 81.888 82.213 82.545 82.87 83.208 83.52 83.825 84.095 84.393 84.67 84.938 85.218 85.48 85.715 85.97 86.2 86.423 86.663 86.888 87.113 87.363 87.595 87.82 88.035 88.263 88.485 88.71 88.928 89.18 89.403 89.62 89.801 90.008 90.213 90.461 90.741 92.073 92.138 91.423 91.673 91.913 92.156 92.366 92.546 92.731 92.923 93.113 93.321 93.533 93.741 93.933 94.126 94.351 94.578 94.776 95.011 95.218 95.426 95.638 95.868 96.073 96.291 96.503 96.733 96.926 97.141 97.326 97.508 97.696 97.883 98.043 98.241 98.443 98.631 98.786 98.973 99.128 99.296 99.446 99.618 99.781 99.928 100.081 100.221 100.376 100.486 100.633 100.756 100.858 100.986 101.106 101.211 101.326 101.431 101.531 101.633 101.763 101.911 102.013 102.148 102.268 102.378 102.506 102.623 102.718 102.833 102.886 102.948 103.446 105.628 105.763 105.053 104.273 103.936 104.178 103.951 104.056 104.168 104.143 104.546 104.488 104.568 104.548 104.623 104.658 104.888 104.873 105.231 105.738 105.098 104.226 104.284 105.209 107.444 108.486 107.581 106.039 105.934 106.011 106.099 106.126 106.206 106.311 106.419 106.554 106.654 106.764 106.921 107.131 107.366 107.551 107.514 108.731 107.644 107.576 107.621 107.629 107.609 107.719 109.444 114.314 114.204 114.136 114.126 113.964 112.031 107.176 107.434 107.771 108.049 108.051 108.164 108.234 111.021 114.756 114.926 114.861 114.919 114.984 115.046 115.086 115.114 115.164 114.594 113.571 113.541 113.484 113.436 113.484 113.941 111.611 109.804 109.821 109.771 109.769 109.826 109.874 109.911 110.034 110.494 110.039 110.074 110.171 110.211 110.271 110.309 110.319 110.359 110.429 110.464 110.466 110.464 110.481 110.526 110.529 110.566 110.794 111.256 111.284 111.161 113.869 113.426 112.641 111.474 111.716 111.614 112.001 112.459 113.044 115.499 116.041 114.511 114.421 114.689 114.459 114.311 114.341 114.391 115.531 114.709 114.359 115.269 114.131 114.369 114.219 114.006 113.641 112.814 112.829 114.526 112.764 112.704 112.786 112.846 113.909 113.609 113.099 113.201 113.194 113.184 113.166 113.186 113.231 113.271 113.349 113.461 113.889 114.136 114.315 114.335 113.871 114.026 114.199 114.397 114.624 114.803 115.03 115.211 115.418 115.669 116.788 117.277 116.594 117.167 117.369 118.239 119.007 118.302 118.529 118.724 118.944 119.162 119.392 119.619 119.869 120.152 120.394 120.639 120.887 121.119 121.397 121.629 121.844 122.137 122.437 122.702 122.997 123.272 123.524 123.754 123.932 124.084 124.279 124.494 124.747 125.007 125.182 125.242 125.977 127.737 126.742 126.174
51.458 51.59 51.753 51.925 52.093 52.32 52.513 52.728 53 53.255 53.515 53.78 54.098 54.373 54.665 54.933 55.248 55.518 55.83 56.148 56.443 56.755 57.06 57.388 57.693 58.035 58.38 58.678 59 59.35 59.68 60.023 60.343 60.673 61.025 61.398 61.765 62.103 62.438 62.745 63.083 63.378 63.7 64.03 64.323 64.633 65.003 65.365 65.673 65.975 66.29 66.57 66.825 67.163 67.43 67.67 67.905 68.455 69.325 69.615 68.963 68.733 69.028 69.463 70.018 70.53 70.81 71.125 71.525 71.938 72.313 72.69 73.048 73.393 73.725 74.06 74.378 74.705 75.028 75.368 75.693 76.013 76.313 76.633 76.96 77.26 77.603 77.953 78.315 78.673 79.018 79.373 79.73 80.08 80.428 80.788 81.14 81.51 81.855 82.19 82.528 82.863 83.17 83.493 83.805 84.08 84.35 84.62 84.88 85.153 85.413 85.68 85.89 86.093 86.283 86.54 86.803 87.045 87.29 87.538 87.748 87.973 88.175 88.403 88.635 88.843 89.09 89.278 89.483 89.683 89.886 90.126 90.373 91.406 91.811 91.096 91.331 91.583 91.843 92.053 92.253 92.433 92.621 92.823 93.023 93.256 93.448 93.638 93.826 94.018 94.261 94.476 94.666 94.881 95.091 95.293 95.503 95.736 95.953 96.146 96.378 96.598 96.783 96.988 97.173 97.371 97.536 97.713 97.898 98.093 98.278 98.448 98.636 98.806 98.968 99.138 99.296 99.446 99.596 99.746 99.903 100.038 100.186 100.321 100.483 100.581 100.693 100.836 100.941 101.046 101.141 101.248 101.371 101.493 101.601 101.748 101.853 101.971 102.083 102.193 102.313 102.443 102.563 102.638 102.701 102.758 104.666 105.506 105.103 104.906 103.721 103.688 103.926 103.741 103.943 104.011 104.183 104.246 104.311 104.306 104.348 104.718 104.561 104.786 105.083 105.123 105.406 104.553 103.996 104.131 105.441 107.774 108.184 106.829 105.724 105.694 105.771 105.851 105.959 106.031 106.126 106.224 106.336 106.426 106.564 106.744 106.956 107.191 107.311 107.264 109.044 107.439 107.426 107.506 107.564 107.564 107.876 109.921 114.604 114.724 114.824 114.819 114.506 112.039 107.159 107.356 107.574 107.724 107.861 107.989 108.074 108.221 109.161 109.559 109.921 110.284 110.746 111.369 112.139 112.576 111.511 111.294 111.374 112.256 112.686 111.916 113.464 113.789 111.509 109.591 109.639 109.614 109.614 109.659 109.679 109.744 110.166 109.871 109.836 109.889 109.926 110.001 110.059 110.134 110.164 110.239 110.289 110.269 110.274 110.294 110.309 110.334 110.349 110.369 110.849 110.474 110.526 110.689 111.746 111.594 111.104 111.174 111.244 111.339 111.249 111.609 112.139 112.671 119.396 117.246 115.434 114.266 114.089 114.169 113.814 114.001 114.564 114.134 113.521 113.216 112.936 112.954 113.116 112.921 112.464 112.614 112.609 114.941 112.844 112.529 112.484 112.589 112.556 112.671 112.709 112.876 112.761 113.076 113.396 112.936 112.979 113.329 113.369 113.309 113.208 113.304 113.461 113.56 113.718 113.904 114.163 114.297 114.439 114.673 114.853 115.077 115.303 115.692 115.96 116.02 116.334 116.657 116.934 117.962 119.292 118.127 118.414 118.564 118.797 119.029 119.249 119.489 119.752 119.997 120.227 120.494 120.744 120.979 121.179 121.457 121.672 121.952 122.244 122.517 122.802 123.087 123.344 123.572 123.707 123.854 124.072 124.314 124.559 124.822 124.932 124.992 126.664 127.072 125.819 126.039
51.663 51.788 51.948 52.108 52.278 52.475 52.68 52.898 53.148 53.375 53.635 53.903 54.17 54.44 54.72 54.975 55.265 55.568 55.86 56.178 56.488 56.815 57.11 57.443 57.76 58.078 58.395 58.695 59.035 59.38 59.705 60.048 60.37 60.725 61.088 61.458 61.818 62.138 62.425 62.775 63.09 63.398 63.725 64.04 64.348 64.688 65.048 65.368 65.71 66.01 66.31 66.575 66.843 67.173 67.505 67.795 68.098 68.348 68.588 68.898 69.83 70.745 69.8 69.378 69.655 70.14 70.753 71.16 71.47 71.858 72.243 72.63 73.035 73.405 73.73 74.095 74.443 74.753 75.093 75.413 75.725 76.033 76.355 76.683 77.01 77.32 77.633 77.985 78.335 78.678 79.033 79.388 79.753 80.098 80.468 80.795 81.165 81.513 81.845 82.185 82.513 82.855 83.168 83.475 83.763 84.053 84.313 84.573 84.838 85.12 85.378 85.63 85.848 85.988 86.198 86.463 86.725 86.983 87.21 87.445 87.675 87.89 88.113 88.33 88.56 88.778 88.98 89.16 89.358 89.561 89.791 90.043 90.948 91.618 90.841 90.978 91.246 91.506 91.736 91.938 92.103 92.296 92.511 92.721 92.931 93.136 93.326 93.501 93.716 93.933 94.136 94.336 94.563 94.771 94.973 95.176 95.388 95.598 95.831 96.023 96.231 96.416 96.638 96.801 96.998 97.206 97.381 97.551 97.746 97.921 98.108 98.288 98.466 98.638 98.798 98.973 99.128 99.283 99.446 99.586 99.741 99.866 100.036 100.168 100.291 100.403 100.538 100.651 100.771 100.886 100.986 101.078 101.183 101.311 101.441 101.561 101.701 101.801 101.896 102.021 102.138 102.268 102.363 102.463 102.523 102.578 104.846 105.073 105.076 104.871 103.851 103.371 103.648 103.686 103.653 103.741 104.058 104.026 104.091 104.333 104.153 104.973 104.316 104.523 104.776 105.011 105.193 103.911 103.876 104.011 105.714 107.921 108.091 106.169 105.421 105.471 105.536 105.661 105.746 105.824 105.931 106.004 106.151 106.244 106.369 106.531 106.766 106.996 107.114 107.206 108.691 107.191 107.259 107.356 107.449 107.511 107.576 109.106 113.511 113.519 113.494 113.484 113.489 110.311 107.199 107.289 107.406 107.459 107.749 107.924 107.984 109.266 109.441 108.986 109.394 108.596 108.499 108.896 109.609 109.994 108.651 108.641 108.806 108.889 108.906 108.901 113.171 113.536 111.379 110.996 109.601 109.489 109.509 109.554 109.544 109.641 109.679 109.591 109.669 109.719 109.789 109.864 109.936 109.991 110.034 110.101 110.109 110.069 110.044 110.056 110.071 110.151 110.231 110.334 110.596 110.479 110.464 110.531 110.599 110.921 110.924 110.821 110.946 111.636 111.714 111.241 111.294 111.374 115.146 112.951 115.114 113.836 115.546 117.886 112.464 112.649 112.529 112.354 112.304 112.306 112.009 112.176 113.389 112.101 112.106 112.431 112.351 113.606 114.314 112.154 112.274 112.361 112.294 112.379 112.371 112.404 112.626 113.089 114.596 113.496 113.154 113.254 112.786 112.769 112.903 113.094 113.234 113.382 113.583 113.741 113.949 114.078 114.33 114.48 114.684 114.956 115.175 115.424 115.704 115.91 116.326 116.616 116.722 117.419 119.267 118.134 118.274 118.492 118.644 118.877 119.097 119.354 119.619 119.864 120.122 120.339 120.594 120.809 121.044 121.307 121.492 121.769 122.057 122.359 122.617 122.884 123.152 123.337 123.457 123.659 123.854 124.102 124.357 124.594 124.657 125.249 127.157 126.034 125.637 125.884
51.855 51.99 52.135 52.293 52.465 52.633 52.845 53.063 53.303 53.51 53.75 54.005 54.245 54.5 54.75 55.018 55.323 55.61 55.94 56.225 56.523 56.86 57.193 57.508 57.83 58.148 58.448 58.758 59.075 59.405 59.723 60.095 60.428 60.788 61.165 61.513 61.845 62.185 62.5 62.82 63.108 63.415 63.735 64.08 64.375 64.72 65.043 65.373 65.703 66.018 66.335 66.618 66.908 67.243 67.58 67.905 68.208 68.503 68.778 69.03 69.273 69.813 70.723 71.195 70.495 70.02 70.3 70.89 71.448 71.908 72.138 72.54 72.965 73.345 73.735 74.103 74.448 74.785 75.12 75.448 75.74 76.068 76.405 76.718 77.04 77.373 77.703 78.04 78.373 78.72 79.063 79.42 79.785 80.135 80.465 80.835 81.178 81.515 81.838 82.183 82.513 82.835 83.138 83.448 83.705 84.01 84.308 84.553 84.81 85.08 85.333 85.573 85.73 85.92 86.17 86.418 86.668 86.895 87.113 87.368 87.583 87.8 88.023 88.238 88.458 88.675 88.858 89.058 89.238 89.466 89.726 90.468 91.428 90.476 90.641 90.926 91.181 91.406 91.608 91.781 91.986 92.183 92.408 92.628 92.851 93.033 93.221 93.426 93.616 93.818 94.018 94.238 94.446 94.651 94.848 95.058 95.271 95.456 95.663 95.858 96.051 96.271 96.483 96.663 96.856 97.038 97.216 97.411 97.578 97.763 97.946 98.131 98.298 98.461 98.643 98.801 98.971 99.118 99.271 99.423 99.548 99.698 99.843 99.966 100.071 100.228 100.356 100.483 100.591 100.706 100.798 100.923 101.043 101.163 101.283 101.416 101.531 101.638 101.738 101.871 101.988 102.096 102.221 102.288 102.336 102.753 106.273 105.083 105.126 104.581 103.368 103.276 103.393 103.508 103.463 103.631 103.758 105.431 103.878 104.421 103.986 104.311 104.286 104.546 104.513 104.873 104.683 103.561 103.583 104.044 106.134 107.664 107.461 105.711 105.169 105.269 105.349 105.466 105.561 105.646 105.761 105.826 105.961 106.069 106.196 106.314 106.519 106.706 106.829 106.941 108.411 106.981 107.066 107.154 107.266 107.376 107.464 110.124 113.976 114.306 114.226 114.179 113.981 110.736 107.164 107.211 107.196 107.401 107.521 107.679 107.976 108.121 108.114 108.321 109.734 108.474 108.371 108.766 109.561 109.539 108.511 108.511 108.614 108.701 108.754 108.834 112.739 113.364 111.419 112.124 109.649 109.204 109.221 109.276 109.319 109.381 109.446 109.521 109.589 109.581 109.639 109.724 109.791 109.821 109.859 110.139 109.806 109.684 109.731 109.624 109.571 109.816 110.219 110.519 110.666 110.274 110.291 110.349 110.419 110.479 110.464 110.544 110.556 110.899 110.694 111.059 111.009 110.916 110.769 110.876 114.026 114.879 111.376 113.404 111.461 111.591 111.409 111.496 111.459 112.734 113.299 111.726 111.774 111.804 111.864 111.934 112.041 112.291 112.029 111.921 112.101 113.151 112.719 112.116 112.224 112.186 112.521 112.399 112.681 113.071 112.752 112.423 112.463 112.589 112.702 112.863 113.003 113.163 113.375 113.583 113.715 113.913 114.154 114.323 114.558 114.787 115.084 115.417 115.522 115.899 116.175 116.534 116.622 117.322 118.902 118.232 118.004 118.429 118.509 118.772 118.949 119.194 119.517 119.739 120.012 120.229 120.477 120.687 120.889 121.144 121.367 121.604 121.904 122.192 122.474 122.702 122.919 123.072 123.259 123.457 123.597 123.892 124.174 124.327 124.377 125.949 126.979 125.222 125.484 125.672
52.018 52.13 52.305 52.475 52.665 52.82 53.02 53.265 53.483 53.685 53.865 54.11 54.348 54.568 54.838 55.095 55.39 55.705 55.988 56.275 56.59 56.888 57.223 57.548 57.855 58.158 58.473 58.803 59.143 59.453 59.793 60.138 60.475 60.835 61.21 61.553 61.903 62.24 62.555 62.84 63.145 63.448 63.79 64.118 64.47 64.78 65.075 65.403 65.71 66.013 66.353 66.643 66.978 67.308 67.635 67.955 68.288 68.59 68.89 69.175 69.448 69.675 69.9 70.778 71.79 71.345 70.573 70.613 70.95 71.608 72.338 72.603 72.883 73.295 73.69 74.073 74.453 74.813 75.143 75.47 75.79 76.12 76.435 76.753 77.08 77.418 77.748 78.065 78.415 78.758 79.093 79.435 79.793 80.143 80.51 80.843 81.183 81.5 81.855 82.165 82.488 82.795 83.103 83.388 83.68 83.97 84.24 84.503 84.763 85.02 85.275 85.508 85.703 85.898 86.133 86.378 86.603 86.838 87.068 87.288 87.498 87.72 87.935 88.145 88.36 88.528 88.74 88.928 89.143 89.391 90.123 91.138 90.321 90.306 90.576 90.843 91.091 91.291 91.483 91.673 91.873 92.101 92.323 92.531 92.706 92.911 93.101 93.293 93.503 93.701 93.898 94.106 94.318 94.511 94.726 94.908 95.113 95.313 95.511 95.711 95.916 96.108 96.316 96.508 96.691 96.873 97.063 97.241 97.408 97.601 97.788 97.953 98.111 98.288 98.451 98.623 98.783 98.943 99.096 99.241 99.381 99.543 99.661 99.763 99.916 100.066 100.186 100.296 100.408 100.521 100.608 100.746 100.871 100.998 101.123 101.228 101.356 101.476 101.578 101.696 101.813 101.953 102.071 102.128 102.176 103.241 105.171 104.681 104.066 103.483 104.348 103.148 103.221 103.198 103.243 103.358 103.793 103.766 103.906 103.981 103.988 104.153 104.531 104.476 104.618 105.096 104.216 103.323 103.461 104.294 106.426 107.561 106.781 105.494 105.306 105.074 105.171 105.281 105.404 105.489 105.574 105.649 105.769 105.846 105.989 106.121 106.251 106.431 107.439 107.279 107.841 106.776 106.861 106.961 107.061 107.146 107.161 109.259 113.959 114.406 114.486 114.554 114.174 110.724 107.099 107.066 107.124 107.214 107.246 107.396 108.896 109.244 109.059 108.909 108.844 108.956 109.001 108.369 108.491 108.666 109.131 108.421 108.474 108.816 108.881 108.546 110.164 110.711 110.621 110.389 109.349 109.026 109.064 109.101 109.151 109.216 109.259 109.344 109.319 109.321 109.581 109.886 109.599 109.611 109.699 109.691 110.109 111.804 111.681 112.164 112.056 110.086 110.096 110.119 110.984 110.159 110.019 110.136 110.204 110.184 110.139 110.276 110.211 110.266 110.456 111.269 110.591 110.636 110.576 110.606 110.581 110.756 110.844 110.979 111.001 110.879 110.941 111.044 111.009 111.409 112.629 111.549 111.586 111.459 111.756 112.264 111.831 111.809 111.826 111.861 111.894 111.901 111.894 111.961 112.126 112.119 112.439 112.679 112.326 112.351 112.253 112.128 112.245 112.364 112.511 112.682 112.85 113.026 113.29 113.482 113.584 113.805 114.018 114.225 114.414 114.532 114.893 115.194 115.536 116.573 117.447 116.921 116.522 118.149 118.582 117.979 117.927 118.462 118.392 118.637 118.904 118.959 119.377 119.597 119.867 120.132 120.337 120.537 120.747 120.964 121.184 121.454 121.754 122.009 122.274 122.487 122.699 122.884 123.022 123.192 123.447 123.707 123.967 124.089 124.587 126.484 125.569 125.054 125.269 125.482
52.21 52.343 52.48 52.645 52.83 53 53.2 53.403 53.613 53.793 54.005 54.235 54.455 54.67 54.92 55.173 55.47 55.76 56.058 56.34 56.643 56.928 57.258 57.55 57.865 58.19 58.495 58.815 59.148 59.493 59.833 60.195 60.55 60.893 61.248 61.593 61.933 62.268 62.595 62.903 63.203 63.528 63.858 64.175 64.513 64.843 65.163 65.463 65.763 66.065 66.375 66.688 67.013 67.358 67.725 68.033 68.348 68.67 68.965 69.273 69.583 69.883 70.168 70.375 70.623 71.79 72.618 71.573 71.03 71.24 71.72 72.51 72.995 73.298 73.635 74.018 74.415 74.793 75.153 75.498 75.82 76.148 76.47 76.81 77.13 77.453 77.77 78.11 78.45 78.793 79.125 79.465 79.818 80.175 80.538 80.848 81.195 81.503 81.848 82.16 82.453 82.763 83.055 83.353 83.645 83.903 84.165 84.448 84.705 84.948 85.203 85.43 85.638 85.848 86.09 86.318 86.545 86.768 87 87.21 87.398 87.633 87.855 88.05 88.25 88.433 88.608 88.818 89.058 89.551 90.791 90.231 89.956 90.238 90.511 90.776 90.991 91.168 91.381 91.548 91.761 91.966 92.198 92.381 92.578 92.768 92.988 93.193 93.388 93.586 93.786 93.973 94.176 94.381 94.608 94.783 94.983 95.173 95.368 95.551 95.761 95.948 96.151 96.313 96.503 96.693 96.878 97.048 97.226 97.436 97.596 97.776 97.953 98.131 98.291 98.451 98.613 98.778 98.931 99.083 99.221 99.351 99.488 99.603 99.748 99.878 99.998 100.118 100.243 100.353 100.466 100.576 100.708 100.833 100.936 101.063 101.183 101.298 101.413 101.526 101.651 101.798 101.891 101.961 102.016 103.391 104.926 105.233 104.756 103.241 103.256 103.006 103.066 103.098 103.166 103.273 103.546 103.553 103.606 103.708 103.831 103.916 104.098 104.331 104.446 104.908 103.551 103.191 103.536 104.656 106.779 107.446 107.581 105.746 105.614 104.826 104.959 105.106 105.284 105.339 105.381 105.441 105.531 105.596 105.764 105.904 106.039 106.486 107.419 106.951 107.334 106.584 106.669 106.741 106.801 106.834 106.841 109.209 111.944 111.166 111.039 110.881 111.349 109.629 107.036 107.186 107.119 107.001 107.006 107.381 107.374 106.601 108.374 109.181 109.146 109.144 108.536 108.719 108.771 109.249 109.384 109.289 109.316 109.411 109.691 111.619 112.206 112.656 111.544 108.629 109.069 108.881 108.876 108.984 109.056 109.616 110.256 109.191 109.351 109.461 110.364 110.124 109.459 109.491 109.526 109.891 110.499 111.039 110.526 110.651 110.616 109.986 110.424 110.709 110.821 109.934 109.724 110.096 110.031 109.919 109.896 109.876 109.846 109.959 110.109 110.091 110.151 110.304 110.269 110.151 110.141 110.379 110.551 110.879 110.714 110.719 111.089 110.781 110.881 111.359 111.044 111.041 111.011 111.239 111.426 111.514 111.446 111.681 111.601 111.726 111.739 111.746 114.206 112.296 112.049 113.011 114.836 112.839 112.209 112.127 111.869 111.897 112.127 112.244 112.39 112.52 112.685 112.869 113.039 113.213 113.46 113.683 113.863 114.026 114.23 114.434 114.71 115.016 115.465 118.169 119.607 117.616 116.459 118.211 118.417 117.967 117.759 118.424 118.244 118.514 118.777 119.067 119.302 119.484 119.744 119.949 120.177 120.392 120.584 120.807 121.014 121.292 121.587 121.852 122.074 122.324 122.457 122.672 122.832 123.014 123.284 123.519 123.767 123.857 125.334 126.489 124.724 124.907 125.087 125.292
52.455 52.55 52.7 52.845 53.035 53.218 53.398 53.58 53.768 53.965 54.155 54.363 54.57 54.803 55.038 55.298 55.565 55.843 56.145 56.448 56.713 57.018 57.31 57.62 57.913 58.22 58.52 58.87 59.213 59.52 59.865 60.23 60.565 60.928 61.285 61.618 61.933 62.273 62.61 62.94 63.285 63.593 63.925 64.233 64.56 64.895 65.2 65.53 65.828 66.13 66.448 66.755 67.105 67.455 67.775 68.103 68.435 68.738 69.06 69.358 69.663 69.98 70.303 70.585 70.84 71.075 71.628 72.425 73.063 72.353 71.785 71.925 72.525 73.328 73.738 74.008 74.31 74.73 75.1 75.483 75.85 76.17 76.503 76.835 77.18 77.503 77.815 78.15 78.478 78.833 79.198 79.528 79.87 80.208 80.545 80.863 81.188 81.52 81.818 82.133 82.41 82.72 83.015 83.305 83.565 83.855 84.123 84.39 84.613 84.888 85.128 85.365 85.585 85.793 86.02 86.243 86.46 86.69 86.903 87.103 87.323 87.528 87.728 87.928 88.103 88.303 88.483 88.735 89.063 90.361 90.141 89.588 89.876 90.163 90.431 90.661 90.843 91.046 91.253 91.436 91.651 91.848 92.056 92.228 92.423 92.643 92.856 93.056 93.258 93.451 93.651 93.876 94.051 94.273 94.471 94.668 94.851 95.051 95.231 95.443 95.618 95.813 95.996 96.178 96.348 96.528 96.706 96.881 97.066 97.243 97.406 97.606 97.776 97.943 98.113 98.258 98.448 98.601 98.763 98.893 99.056 99.168 99.288 99.436 99.588 99.698 99.823 99.951 100.098 100.203 100.301 100.408 100.526 100.681 100.778 100.883 101.026 101.138 101.256 101.361 101.501 101.623 101.721 101.771 101.953 104.601 104.421 104.323 103.896 104.151 102.746 102.888 102.858 102.938 103.163 103.221 103.273 103.533 103.598 103.638 103.706 103.886 103.871 104.221 104.353 104.431 103.196 102.983 103.453 105.096 107.026 106.946 106.194 105.521 105.164 104.684 104.749 105.024 105.111 105.214 105.244 105.269 105.344 105.446 105.574 105.714 105.874 106.001 106.129 106.479 106.446 106.416 106.459 106.514 106.541 106.559 106.609 106.926 107.119 107.196 107.334 107.079 107.209 107.576 111.584 115.069 109.021 107.704 106.836 107.301 106.824 105.719 106.681 107.026 107.386 108.304 110.826 110.929 111.051 111.099 111.184 111.294 111.389 111.339 111.381 112.234 114.596 114.411 112.504 108.434 109.129 109.924 109.806 109.701 109.139 111.056 111.539 109.591 108.899 108.046 108.194 108.369 108.754 108.391 107.264 107.479 109.844 109.639 109.716 109.401 109.704 110.179 109.854 109.639 109.766 109.716 109.451 109.544 109.586 109.599 109.594 109.844 109.601 109.796 109.666 109.774 110.046 110.136 110.094 110.056 110.041 110.031 110.109 110.311 110.391 110.366 110.704 111.599 111.434 112.359 113.366 110.866 110.979 111.156 111.234 111.299 111.479 113.604 111.424 111.296 111.624 111.469 114.386 112.566 111.746 112.389 112.219 112.324 112.321 111.755 111.645 111.719 111.884 112.053 112.182 112.337 112.512 112.704 112.876 113.052 113.275 113.459 113.672 113.855 114.086 114.269 114.521 114.86 115.314 116.237 117.305 116.437 116.329 116.764 118.309 118.182 117.664 118.159 118.147 118.412 118.634 118.944 119.152 119.369 119.582 119.807 119.999 120.229 120.432 120.622 120.847 121.157 121.419 121.682 121.894 122.104 122.299 122.459 122.667 122.839 123.089 123.344 123.517 123.672 126.087 125.202 124.484 124.707 124.879 125.064
52.66 52.808 52.938 53.098 53.263 53.44 53.598 53.79 53.958 54.165 54.33 54.515 54.695 54.915 55.168 55.403 55.67 55.943 56.24 56.525 56.813 57.09 57.39 57.675 57.98 58.278 58.565 58.933 59.23 59.58 59.92 60.268 60.61 60.963 61.285 61.613 61.935 62.29 62.618 62.97 63.33 63.645 63.978 64.318 64.613 64.94 65.258 65.58 65.865 66.18 66.515 66.848 67.205 67.545 67.853 68.178 68.5 68.823 69.115 69.42 69.725 70.053 70.353 70.658 70.973 71.268 71.505 71.738 72.803 73.615 73.468 72.52 72.338 72.655 73.228 74.065 74.473 74.68 75.038 75.433 75.825 76.178 76.535 76.865 77.195 77.523 77.855 78.193 78.52 78.863 79.233 79.563 79.898 80.22 80.563 80.873 81.185 81.488 81.795 82.11 82.41 82.7 82.975 83.278 83.535 83.818 84.078 84.308 84.575 84.808 85.053 85.285 85.518 85.743 85.965 86.188 86.403 86.6 86.813 87.018 87.23 87.413 87.635 87.795 87.978 88.19 88.395 88.698 89.923 89.991 89.283 89.528 89.816 90.073 90.328 90.511 90.703 90.921 91.133 91.326 91.541 91.736 91.918 92.098 92.313 92.513 92.721 92.908 93.113 93.298 93.498 93.708 93.918 94.113 94.318 94.521 94.713 94.923 95.108 95.291 95.486 95.656 95.841 96.008 96.188 96.358 96.538 96.701 96.901 97.086 97.251 97.441 97.626 97.781 97.961 98.121 98.266 98.438 98.606 98.741 98.881 99.003 99.153 99.301 99.403 99.523 99.653 99.771 99.911 100.031 100.138 100.258 100.371 100.491 100.616 100.718 100.816 100.953 101.078 101.203 101.326 101.461 101.543 101.591 102.693 104.701 104.091 103.653 103.403 102.763 102.576 102.648 102.621 102.773 103.886 103.098 103.263 103.431 103.461 103.348 103.433 103.538 104.133 104.131 104.408 103.781 102.716 102.781 103.246 105.646 106.791 106.231 105.199 105.114 104.756 105.006 105.274 105.674 104.944 105.611 105.531 105.176 105.184 105.321 105.981 106.164 106.019 105.839 106.009 106.174 106.246 106.249 106.296 106.326 106.351 106.389 106.416 107.761 108.131 107.929 107.431 107.736 107.404 108.956 115.534 117.616 110.124 106.964 106.609 106.616 106.654 106.466 106.056 105.774 105.376 105.489 111.256 111.196 111.104 111.021 110.956 110.861 110.766 110.706 110.696 112.389 114.554 114.496 112.096 108.801 107.444 107.199 106.371 107.014 106.416 110.864 111.521 109.101 107.801 107.786 107.784 107.771 107.831 107.921 106.514 105.934 108.974 109.086 109.281 109.346 109.259 109.446 109.396 111.281 109.434 109.271 109.109 109.171 109.319 109.216 109.199 109.216 109.314 109.391 109.409 109.824 109.626 109.824 109.836 109.761 109.801 109.706 109.801 110.316 110.196 109.946 110.206 110.146 110.404 111.254 111.369 110.859 111.551 111.676 111.266 111.444 111.126 111.164 111.239 111.444 111.831 111.511 111.699 111.639 111.956 114.326 113.969 112.219 111.866 111.593 111.491 111.61 111.735 111.881 111.98 112.117 112.311 112.482 112.703 112.955 113.147 113.336 113.508 113.738 113.934 114.163 114.4 114.722 115.12 115.503 115.787 116.433 116.309 117.179 117.866 118.389 117.532 118.139 118.017 118.252 118.514 118.814 119.032 119.207 119.447 119.649 119.832 120.067 120.267 120.492 120.732 120.994 121.269 121.507 121.687 121.904 122.082 122.257 122.487 122.677 122.952 123.189 123.314 123.894 125.947 124.372 124.282 124.504 124.702 124.854
52.86 52.995 53.16 53.318 53.498 53.678 53.84 53.99 54.165 54.335 54.515 54.698 54.88 55.073 55.318 55.57 55.8 56.055 56.328 56.615 56.893 57.17 57.47 57.763 58.058 58.36 58.68 59.02 59.33 59.645 59.963 60.305 60.64 60.943 61.298 61.615 61.928 62.278 62.633 62.99 63.333 63.668 64.023 64.385 64.733 65.04 65.323 65.638 65.935 66.273 66.588 66.948 67.283 67.595 67.933 68.26 68.545 68.858 69.173 69.5 69.828 70.125 70.438 70.723 71.04 71.343 71.638 71.91 72.138 72.345 73.353 74.773 73.99 72.808 72.945 73.413 74.16 74.883 75.1 75.353 75.745 76.133 76.498 76.883 77.235 77.563 77.895 78.233 78.578 78.903 79.233 79.558 79.895 80.228 80.578 80.888 81.185 81.518 81.783 82.093 82.37 82.643 82.935 83.225 83.493 83.758 84.008 84.235 84.505 84.738 84.975 85.208 85.453 85.673 85.893 86.115 86.308 86.495 86.705 86.915 87.13 87.328 87.505 87.695 87.86 88.085 88.338 89.24 89.858 88.983 89.186 89.441 89.738 89.988 90.196 90.398 90.591 90.808 91.026 91.216 91.426 91.601 91.786 91.983 92.183 92.378 92.556 92.743 92.923 93.138 93.351 93.571 93.771 93.976 94.178 94.391 94.578 94.768 94.968 95.163 95.343 95.528 95.708 95.866 96.031 96.196 96.373 96.556 96.733 96.916 97.106 97.266 97.441 97.606 97.781 97.936 98.101 98.271 98.416 98.581 98.711 98.846 98.968 99.121 99.246 99.358 99.491 99.613 99.736 99.863 99.996 100.096 100.233 100.351 100.468 100.568 100.663 100.788 100.923 101.058 101.181 101.303 101.373 101.446 103.211 103.876 103.688 103.068 102.823 102.601 102.313 102.513 102.451 102.466 102.723 102.928 103.103 103.161 103.158 103.173 103.456 103.508 105.366 110.501 109.128 103.291 102.438 102.623 103.453 105.786 106.796 106.601 105.271 105.116 104.911 104.774 105.059 105.544 105.176 107.194 107.236 106.876 106.231 105.504 106.716 105.989 106.064 106.059 106.101 108.674 106.199 106.246 106.444 106.494 106.719 106.534 106.514 107.314 107.001 106.789 106.864 106.976 107.089 107.151 112.231 110.204 107.774 106.459 106.434 106.391 106.399 106.329 106.156 105.966 105.644 104.856 110.076 110.144 109.769 110.129 109.626 110.101 109.611 109.506 109.794 112.531 114.834 114.801 112.196 108.609 105.184 105.396 105.401 105.356 105.759 105.296 105.076 105.686 105.064 105.289 105.944 105.311 104.596 104.591 105.184 105.236 107.434 108.821 108.946 108.984 108.991 109.114 109.134 109.211 109.024 109.086 108.906 109.004 108.841 108.824 108.906 109.199 109.399 109.494 109.179 109.234 109.296 109.609 109.591 109.554 109.641 109.491 109.686 109.726 109.744 109.851 110.074 109.984 109.974 110.239 110.741 110.816 112.134 112.089 112.581 112.099 111.064 112.359 116.419 111.119 115.374 115.731 111.779 111.649 113.704 115.584 116.079 112.386 111.768 111.472 111.368 111.516 111.563 111.64 111.788 111.944 112.166 112.32 112.654 112.882 113.034 113.198 113.469 113.634 113.798 114.214 114.319 114.631 114.987 115.308 115.79 115.965 116.042 116.394 117.323 118.577 117.444 117.887 117.909 118.144 118.409 118.674 118.859 119.087 119.332 119.519 119.682 119.889 120.104 120.352 120.607 120.839 121.077 121.329 121.527 121.724 121.882 122.079 122.312 122.522 122.762 122.987 123.129 124.264 124.502 123.907 124.114 124.302 124.487 124.644
53.055 53.195 53.343 53.52 53.703 53.878 54.05 54.215 54.368 54.545 54.703 54.88 55.088 55.298 55.523 55.753 55.99 56.215 56.463 56.71 56.988 57.278 57.573 57.863 58.18 58.483 58.775 59.103 59.405 59.685 60.028 60.335 60.665 60.978 61.293 61.628 61.955 62.293 62.66 63.023 63.35 63.708 64.063 64.408 64.733 65.053 65.393 65.705 66.018 66.37 66.705 67.048 67.375 67.713 68.043 68.348 68.625 68.92 69.245 69.568 69.875 70.195 70.518 70.828 71.118 71.43 71.718 72.003 72.31 72.558 72.823 73.143 74.348 74.918 73.745 73.335 73.605 74.103 74.983 75.54 75.765 76.048 76.428 76.84 77.19 77.578 77.913 78.248 78.588 78.92 79.268 79.595 79.913 80.275 80.56 80.885 81.19 81.468 81.758 82.063 82.343 82.613 82.913 83.168 83.415 83.683 83.923 84.165 84.428 84.675 84.903 85.125 85.365 85.583 85.798 86.005 86.228 86.423 86.638 86.84 87.048 87.218 87.38 87.553 87.76 88.015 88.695 89.613 88.6 88.851 89.103 89.386 89.633 89.851 90.041 90.238 90.461 90.688 90.886 91.086 91.273 91.483 91.676 91.848 92.053 92.228 92.418 92.608 92.811 93.003 93.221 93.428 93.623 93.816 94.031 94.253 94.451 94.628 94.843 95.016 95.203 95.373 95.561 95.731 95.891 96.053 96.253 96.406 96.588 96.786 96.938 97.118 97.278 97.443 97.603 97.776 97.948 98.091 98.258 98.391 98.536 98.686 98.806 98.936 99.068 99.188 99.318 99.441 99.571 99.716 99.823 99.926 100.048 100.171 100.276 100.388 100.488 100.636 100.758 100.901 101.036 101.138 101.203 101.348 103.183 103.833 103.748 102.666 102.261 102.161 102.261 102.398 102.318 102.481 102.568 102.916 102.836 103.676 102.966 102.983 103.261 103.183 105.243 106.473 107.668 104.468 102.298 102.431 103.866 106.019 106.829 105.714 105.204 105.804 105.924 105.749 105.659 105.321 105.464 105.486 106.364 106.089 105.749 107.781 106.036 106.131 106.374 106.379 106.491 106.649 106.979 108.411 107.006 106.906 107.119 107.321 107.176 109.614 106.636 106.506 106.641 106.594 106.624 106.699 106.624 106.889 107.191 107.019 106.421 106.126 106.091 106.056 105.949 105.831 105.624 104.826 107.686 107.986 108.219 107.294 106.549 107.011 107.216 106.114 106.356 111.666 115.064 115.911 112.381 108.204 105.566 105.369 105.366 105.329 105.306 105.451 105.196 104.674 104.579 104.574 104.931 105.384 104.569 104.554 104.896 104.689 107.264 108.594 108.626 108.574 108.551 108.551 108.726 108.669 108.566 108.601 108.629 110.024 108.459 108.634 108.869 108.859 108.964 109.044 109.044 109.321 109.231 109.344 109.361 109.369 109.366 109.271 109.279 109.431 109.549 109.571 109.679 109.744 109.881 110.169 110.094 110.781 112.359 111.839 110.666 111.186 110.761 115.186 115.754 112.041 111.199 111.659 112.216 112.971 116.371 116.651 117.541 117.375 112.798 111.677 111.166 111.26 111.354 111.468 111.702 111.899 114.305 113.657 112.877 113.408 112.897 113.092 113.464 113.533 113.709 113.992 114.306 114.527 114.841 115.147 115.456 115.758 115.972 116.182 117.42 118.656 117.317 117.879 117.787 118.017 118.292 118.539 118.727 118.964 119.152 119.362 119.532 119.732 119.932 120.182 120.449 120.672 120.922 121.164 121.322 121.522 121.709 121.892 122.119 122.359 122.594 122.789 123.034 124.734 123.617 123.744 123.907 124.089 124.267 124.474
53.283 53.408 53.563 53.715 53.895 54.073 54.26 54.428 54.598 54.74 54.905 55.098 55.308 55.505 55.733 55.948 56.173 56.395 56.635 56.88 57.115 57.4 57.695 57.988 58.288 58.583 58.893 59.178 59.455 59.755 60.085 60.413 60.718 61.035 61.348 61.668 62.008 62.368 62.708 63.068 63.373 63.73 64.063 64.405 64.708 65.055 65.4 65.755 66.095 66.445 66.78 67.135 67.453 67.8 68.148 68.44 68.718 69.02 69.338 69.663 69.973 70.283 70.605 70.92 71.215 71.5 71.8 72.07 72.38 72.68 72.995 73.278 73.523 74.005 75.453 75.285 73.898 73.98 74.358 74.915 75.698 76.215 76.398 76.728 77.105 77.515 77.883 78.25 78.588 78.928 79.26 79.585 79.91 80.233 80.555 80.878 81.14 81.44 81.73 82.003 82.295 82.58 82.833 83.11 83.348 83.598 83.855 84.103 84.345 84.575 84.808 85.045 85.27 85.488 85.718 85.913 86.11 86.338 86.535 86.738 86.923 87.08 87.255 87.428 87.688 88.178 89.363 88.495 88.5 88.781 89.026 89.268 89.498 89.673 89.866 90.116 90.336 90.538 90.736 90.968 91.148 91.341 91.528 91.721 91.908 92.076 92.273 92.466 92.663 92.868 93.073 93.268 93.488 93.668 93.873 94.106 94.301 94.503 94.693 94.878 95.066 95.251 95.403 95.576 95.733 95.908 96.078 96.256 96.433 96.598 96.763 96.956 97.106 97.273 97.448 97.606 97.776 97.931 98.061 98.208 98.368 98.503 98.641 98.763 98.898 99.023 99.166 99.293 99.413 99.533 99.633 99.773 99.858 99.986 100.108 100.191 100.316 100.453 100.598 100.711 100.848 100.946 100.991 101.618 103.216 103.368 102.908 102.313 102.138 102.123 102.156 102.078 102.338 102.761 102.498 102.761 102.738 103.483 102.716 102.868 102.941 102.888 107.308 107.463 112.348 102.078 102.226 102.396 104.233 106.216 106.756 104.791 104.211 104.776 105.129 104.929 104.674 104.379 104.486 104.709 104.766 104.966 104.991 112.039 106.561 105.309 107.274 106.729 105.516 105.734 106.004 106.486 106.619 106.581 106.419 106.536 106.741 106.611 106.806 106.584 106.279 106.111 106.236 106.579 106.424 106.604 107.576 107.969 106.409 105.989 105.796 105.816 105.729 105.704 105.601 104.784 104.776 104.784 104.766 104.791 104.761 104.759 104.956 104.734 104.999 111.006 114.254 114.934 112.916 108.431 105.814 105.339 105.344 105.359 105.329 105.469 105.169 104.606 104.579 104.556 104.529 104.719 104.536 104.534 104.556 104.524 107.409 108.286 108.189 108.169 108.221 108.334 108.304 108.131 108.031 108.131 108.179 108.471 108.296 108.326 108.726 108.814 108.719 108.736 108.779 108.911 109.146 109.131 109.256 109.174 109.131 109.216 109.114 109.246 109.286 109.341 109.506 110.001 109.816 109.716 109.924 110.616 111.609 110.304 110.984 110.109 110.714 111.171 110.016 110.209 110.316 110.186 110.264 110.429 112.626 114.736 114.566 114.498 112.987 111.877 111.033 111.028 111.151 111.312 111.479 111.691 115.485 118.034 114.237 113.623 112.698 112.931 113.145 113.344 113.57 113.792 114.079 114.371 114.705 115.029 115.365 115.679 115.893 116.137 117.404 118.477 117.229 117.552 117.664 117.884 118.154 118.427 118.574 118.819 118.959 119.202 119.354 119.539 119.807 120.029 120.257 120.509 120.754 120.947 121.134 121.317 121.519 121.737 121.954 122.179 122.409 122.582 123.817 124.069 123.359 123.572 123.699 123.917 124.092 124.289
53.485 53.633 53.78 53.915 54.093 54.285 54.45 54.613 54.775 54.925 55.118 55.288 55.498 55.71 55.93 56.145 56.373 56.613 56.833 57.058 57.288 57.56 57.85 58.133 58.445 58.72 59 59.295 59.563 59.868 60.158 60.45 60.758 61.063 61.393 61.738 62.048 62.378 62.718 63.083 63.38 63.75 64.088 64.44 64.753 65.095 65.435 65.78 66.14 66.503 66.843 67.218 67.55 67.858 68.205 68.518 68.82 69.115 69.438 69.75 70.065 70.365 70.69 71 71.293 71.59 71.903 72.168 72.47 72.783 73.098 73.403 73.688 73.925 74.178 74.925 75.46 75.088 74.48 74.665 75.11 75.748 76.498 76.84 77.068 77.43 77.83 78.21 78.59 78.943 79.273 79.595 79.918 80.21 80.54 80.83 81.103 81.395 81.69 81.983 82.24 82.525 82.788 83.035 83.28 83.523 83.763 84.025 84.28 84.49 84.738 84.96 85.185 85.385 85.608 85.828 86.033 86.248 86.46 86.635 86.798 86.958 87.14 87.38 87.733 88.978 88.508 88.165 88.44 88.693 88.913 89.143 89.331 89.526 89.746 89.988 90.201 90.416 90.613 90.803 90.993 91.186 91.373 91.573 91.741 91.946 92.133 92.316 92.516 92.726 92.933 93.096 93.306 93.506 93.751 93.963 94.163 94.363 94.566 94.726 94.933 95.096 95.261 95.431 95.583 95.748 95.933 96.106 96.271 96.431 96.606 96.773 96.931 97.073 97.243 97.416 97.578 97.726 97.886 98.041 98.186 98.313 98.453 98.583 98.726 98.851 98.988 99.111 99.233 99.341 99.453 99.581 99.701 99.816 99.941 100.028 100.138 100.266 100.411 100.553 100.688 100.753 100.833 101.938 103.316 103.091 102.213 101.996 101.886 101.866 102.026 101.973 102.246 102.411 102.838 102.486 102.716 102.528 102.498 102.751 102.668 102.648 103.028 107.128 113.746 101.778 102.003 102.376 104.443 106.006 106.171 104.864 104.401 104.044 105.059 104.541 104.326 104.224 105.759 104.404 104.481 104.591 106.009 108.446 104.976 105.119 105.246 105.336 105.339 105.531 105.671 105.796 105.881 105.976 106.356 109.284 106.451 106.281 106.724 106.951 106.179 105.966 105.979 106.081 106.114 107.134 106.931 107.394 107.159 105.851 105.594 105.621 105.591 105.559 105.441 104.756 104.769 104.766 104.751 104.734 104.724 104.736 107.949 108.429 108.554 110.936 113.876 114.989 112.666 108.956 106.569 105.519 106.459 107.026 107.554 107.154 105.514 105.389 105.136 104.529 104.539 104.534 104.524 104.519 104.524 104.496 106.341 107.846 107.971 107.924 108.056 108.044 107.881 107.856 107.729 107.869 107.816 108.004 108.181 108.746 108.344 113.389 110.146 110.126 108.599 108.774 109.579 111.454 109.266 115.289 110.879 109.141 109.039 108.976 109.054 109.239 109.419 109.261 109.499 109.591 109.671 109.896 112.186 109.996 109.974 109.836 109.791 109.941 109.941 110.004 109.926 109.989 110.024 110.116 110.149 110.174 110.314 110.394 110.872 110.825 111.208 110.959 111.032 111.257 111.342 111.499 115.519 116.753 113.206 112.394 113.138 115.508 113.784 113.184 113.39 113.663 113.976 114.223 114.595 114.917 115.25 115.573 115.805 116.07 116.797 118.142 117.119 117.332 117.529 117.719 118.027 118.262 118.452 118.622 118.804 119.027 119.207 119.402 119.622 119.872 120.104 120.327 120.544 120.767 120.927 121.132 121.349 121.597 121.822 122.029 122.199 122.497 123.984 123.119 123.132 123.337 123.524 123.699 123.884 124.119
53.725 53.848 53.975 54.135 54.293 54.465 54.655 54.8 54.963 55.143 55.325 55.523 55.703 55.91 56.11 56.308 56.538 56.785 57.01 57.233 57.483 57.725 58.003 58.3 58.558 58.84 59.115 59.405 59.673 59.973 60.268 60.553 60.845 61.138 61.428 61.768 62.093 62.435 62.775 63.118 63.428 63.795 64.138 64.45 64.775 65.115 65.463 65.828 66.178 66.54 66.9 67.263 67.583 67.928 68.233 68.563 68.86 69.188 69.503 69.85 70.15 70.465 70.765 71.078 71.373 71.675 71.97 72.273 72.593 72.898 73.193 73.48 73.795 74.085 74.34 74.568 74.88 76.04 76.66 75.708 75.028 75.35 75.858 76.628 77.27 77.503 77.73 78.11 78.513 78.895 79.245 79.6 79.898 80.205 80.505 80.785 81.09 81.38 81.65 81.908 82.185 82.463 82.725 82.973 83.225 83.468 83.713 83.953 84.203 84.438 84.67 84.898 85.11 85.318 85.525 85.725 85.93 86.16 86.355 86.5 86.655 86.818 87.03 87.32 88.575 88.555 87.853 88.1 88.355 88.573 88.803 89.001 89.183 89.411 89.638 89.871 90.076 90.301 90.506 90.661 90.861 91.051 91.246 91.423 91.593 91.791 91.988 92.198 92.376 92.576 92.768 92.961 93.166 93.376 93.613 93.821 94.021 94.246 94.413 94.583 94.758 94.941 95.093 95.283 95.421 95.611 95.781 95.968 96.116 96.293 96.446 96.598 96.768 96.913 97.076 97.221 97.386 97.551 97.691 97.831 97.991 98.131 98.281 98.403 98.546 98.656 98.811 98.938 99.066 99.173 99.293 99.426 99.513 99.648 99.723 99.848 99.968 100.093 100.223 100.378 100.493 100.553 100.658 102.983 103.161 102.591 101.773 101.598 101.573 101.671 102.391 110.086 102.311 101.958 102.258 102.288 102.393 102.436 102.328 102.508 102.578 102.753 103.236 107.493 111.566 103.383 101.768 102.636 104.623 105.806 105.539 104.256 103.691 103.909 104.149 104.194 105.916 104.169 104.081 104.126 104.456 104.551 104.696 104.626 104.621 104.666 104.866 104.974 105.001 105.414 105.509 109.016 105.766 105.441 105.729 107.269 105.954 106.221 106.369 106.566 105.934 105.764 105.831 105.801 105.911 106.146 106.534 110.369 109.494 105.786 105.461 105.404 105.419 105.411 105.366 104.751 104.739 104.719 104.709 104.706 104.704 105.234 112.376 112.634 113.014 112.911 113.876 115.044 112.904 112.581 111.951 112.609 113.479 114.121 113.191 112.701 108.531 106.714 107.021 105.196 104.769 105.001 104.681 104.541 104.511 104.501 104.639 106.539 107.439 107.716 107.724 109.111 108.621 107.649 107.661 107.864 107.704 107.726 107.856 108.016 111.681 116.129 123.386 114.141 117.024 114.929 109.736 111.126 114.441 119.109 112.571 111.616 108.841 108.701 108.786 108.941 109.119 109.811 109.351 110.034 109.574 109.956 111.631 109.931 109.584 109.546 109.571 109.516 109.579 109.684 109.819 109.811 109.916 109.929 109.984 110.084 110.349 110.981 110.874 110.598 110.815 111.181 110.884 111.056 111.124 111.449 115.412 114.771 113.909 112.999 116.806 119.622 118.742 114.045 113.243 113.501 113.823 114.131 114.487 114.792 115.14 115.477 115.715 115.894 116.648 118.279 117.137 117.119 117.514 117.592 117.847 118.144 118.312 118.479 118.654 118.874 119.067 119.254 119.487 119.724 119.962 120.202 120.342 120.564 120.747 120.944 121.179 121.427 121.662 121.827 121.957 123.179 123.422 122.784 122.939 123.152 123.339 123.522 123.729 123.902
53.98 54.088 54.22 54.368 54.523 54.66 54.823 55.005 55.188 55.355 55.525 55.75 55.925 56.125 56.318 56.528 56.735 56.975 57.165 57.413 57.64 57.89 58.165 58.425 58.705 58.97 59.248 59.543 59.833 60.103 60.385 60.628 60.915 61.225 61.53 61.838 62.153 62.483 62.813 63.13 63.468 63.81 64.138 64.473 64.818 65.185 65.515 65.865 66.23 66.608 66.945 67.32 67.648 67.983 68.293 68.633 68.918 69.228 69.545 69.883 70.228 70.55 70.848 71.133 71.443 71.733 72.018 72.335 72.663 72.988 73.278 73.595 73.89 74.173 74.453 74.72 74.96 75.163 75.64 76.735 76.728 75.855 75.81 76.1 76.645 77.385 77.943 78.14 78.42 78.79 79.168 79.55 79.868 80.18 80.463 80.76 81.068 81.34 81.598 81.875 82.135 82.413 82.673 82.908 83.17 83.395 83.648 83.883 84.135 84.35 84.61 84.8 85.018 85.228 85.433 85.64 85.868 86.055 86.203 86.37 86.538 86.745 86.96 87.963 88.43 87.555 87.803 88.035 88.25 88.461 88.661 88.846 89.056 89.258 89.496 89.723 89.928 90.148 90.328 90.498 90.708 90.901 91.076 91.268 91.451 91.643 91.853 92.028 92.216 92.408 92.628 92.831 93.026 93.256 93.468 93.666 93.876 94.086 94.256 94.443 94.606 94.773 94.946 95.116 95.286 95.476 95.628 95.796 95.976 96.136 96.278 96.443 96.591 96.741 96.903 97.063 97.211 97.368 97.531 97.663 97.796 97.941 98.081 98.218 98.358 98.506 98.653 98.763 98.883 99.008 99.133 99.228 99.351 99.471 99.563 99.688 99.811 99.926 100.056 100.208 100.306 100.341 100.913 102.911 102.668 101.963 101.536 101.436 101.416 101.648 102.763 104.641 101.708 101.746 101.903 101.913 102.273 102.111 102.261 102.171 102.398 103.446 102.968 103.016 105.758 101.436 101.773 102.893 104.901 105.569 104.626 103.641 103.214 103.364 103.746 103.636 103.919 103.866 103.859 103.946 107.511 112.649 106.341 104.616 104.706 104.516 104.606 104.691 104.746 105.566 108.479 114.819 105.814 104.974 104.891 105.284 105.344 105.516 105.569 105.629 105.686 105.636 105.654 105.696 105.696 108.664 109.331 118.944 111.486 105.531 105.254 105.221 105.249 105.271 105.129 104.681 104.716 104.719 104.709 104.704 104.729 105.124 113.264 114.341 114.314 114.391 114.581 115.209 114.314 114.364 114.396 114.569 114.824 114.979 115.001 115.309 112.809 113.116 111.576 107.534 106.826 107.119 105.469 104.496 104.519 104.489 104.506 104.454 106.236 107.559 107.436 107.384 107.624 107.541 107.596 107.611 107.569 107.661 107.619 107.866 108.014 116.336 123.011 117.314 117.321 117.881 108.696 108.674 111.624 114.626 120.054 119.566 109.781 109.561 111.449 108.861 108.869 108.951 109.039 109.251 109.441 109.564 111.661 109.616 109.649 109.344 109.301 109.281 109.276 109.361 109.446 109.531 109.606 109.689 109.774 109.874 109.984 111.133 110.77 110.662 110.917 111.007 111.314 110.937 111.086 112.175 112.523 112.949 112.575 112.594 117.839 120.369 119.54 115.161 113.11 113.386 113.697 114.034 114.356 114.672 115.001 115.342 115.615 115.858 116.621 118.025 117.182 116.962 117.417 117.447 117.674 117.997 118.229 118.329 118.514 118.692 118.887 119.129 119.317 119.562 119.807 120.007 120.184 120.369 120.604 120.797 121.039 121.254 121.472 121.604 122.024 123.689 122.824 122.592 122.792 122.974 123.137 123.347 123.529 123.729
54.255 54.385 54.508 54.653 54.795 54.915 55.05 55.193 55.38 55.558 55.75 55.943 56.143 56.31 56.513 56.75 56.955 57.158 57.388 57.625 57.838 58.093 58.343 58.585 58.875 59.13 59.408 59.693 59.95 60.213 60.488 60.753 61.043 61.335 61.638 61.93 62.23 62.555 62.868 63.163 63.505 63.82 64.163 64.47 64.835 65.185 65.545 65.908 66.28 66.645 67.003 67.338 67.688 68.02 68.345 68.68 68.988 69.303 69.653 69.97 70.298 70.608 70.905 71.193 71.485 71.775 72.068 72.388 72.703 73.033 73.38 73.68 73.973 74.27 74.543 74.843 75.118 75.358 75.58 75.77 76.6 77.933 77.505 76.318 76.485 76.843 77.45 78.13 78.518 78.748 79.04 79.415 79.775 80.118 80.428 80.725 81.015 81.273 81.565 81.84 82.095 82.365 82.608 82.86 83.103 83.338 83.573 83.81 84.063 84.29 84.495 84.72 84.93 85.133 85.34 85.568 85.748 85.923 86.083 86.248 86.435 86.655 87.55 88.155 87.423 87.483 87.695 87.918 88.135 88.331 88.531 88.718 88.936 89.161 89.361 89.603 89.806 90.001 90.196 90.383 90.581 90.743 90.916 91.131 91.308 91.498 91.693 91.876 92.086 92.251 92.466 92.668 92.898 93.106 93.321 93.531 93.711 93.913 94.108 94.308 94.463 94.623 94.808 94.973 95.118 95.311 95.481 95.656 95.818 95.978 96.136 96.286 96.423 96.586 96.753 96.903 97.043 97.206 97.353 97.471 97.626 97.768 97.896 98.046 98.176 98.341 98.456 98.558 98.708 98.826 98.936 99.073 99.183 99.296 99.406 99.531 99.651 99.756 99.888 100.031 100.118 100.151 101.448 102.901 102.206 101.836 101.358 101.501 101.273 101.348 101.288 101.301 101.446 101.536 101.636 101.698 102.001 101.961 102.016 102.031 102.116 102.188 102.481 103.058 101.233 101.388 101.803 103.438 105.508 105.271 104.036 103.299 102.956 103.034 103.386 103.274 103.559 103.404 103.556 103.809 111.149 117.629 107.914 104.306 104.366 104.441 104.229 104.474 104.711 104.581 105.959 106.586 104.914 104.869 104.969 105.001 105.156 105.224 105.214 110.849 108.456 105.451 105.479 105.731 105.789 105.899 107.791 109.574 109.471 105.339 105.004 105.016 105.034 104.966 104.674 104.671 104.706 104.729 104.689 104.674 104.729 105.056 114.244 115.699 115.119 115.074 115.284 115.051 114.716 114.666 114.496 114.266 114.126 114.066 114.031 113.924 112.516 113.079 111.676 107.954 107.366 107.026 105.419 104.499 104.641 104.444 104.479 104.476 104.601 107.026 107.449 107.386 107.256 107.581 107.584 107.601 107.761 107.689 107.566 108.171 112.731 111.486 118.771 122.331 109.559 108.344 108.279 111.449 111.826 119.041 121.094 122.851 122.574 122.061 110.066 110.894 108.706 108.696 108.941 109.461 109.349 109.289 111.301 109.569 109.586 109.179 109.134 109.101 109.111 109.144 109.226 109.319 109.391 109.459 109.561 109.691 109.784 110.446 110.68 110.372 110.644 111.701 111.117 111.172 110.965 111.128 111.361 111.644 111.864 112.093 113.271 117.761 117.296 113.968 113.046 113.293 113.643 113.958 114.26 114.544 114.861 115.183 115.461 115.625 116.154 117.364 117.419 116.809 117.279 117.287 117.564 117.822 118.057 118.212 118.362 118.542 118.729 118.962 119.187 119.407 119.629 119.824 119.999 120.202 120.397 120.624 120.857 121.127 121.314 121.419 122.432 123.107 122.222 122.407 122.587 122.769 122.947 123.144 123.349 123.542
54.59 54.713 54.81 54.933 55.078 55.173 55.318 55.458 55.615 55.81 56.003 56.205 56.37 56.54 56.738 56.938 57.133 57.358 57.605 57.845 58.05 58.295 58.515 58.78 59.013 59.27 59.55 59.825 60.09 60.338 60.63 60.885 61.17 61.445 61.73 62.02 62.34 62.658 62.95 63.253 63.578 63.888 64.223 64.538 64.868 65.19 65.553 65.915 66.283 66.65 67.013 67.373 67.698 68.05 68.388 68.713 69.055 69.405 69.733 70.058 70.333 70.635 70.933 71.225 71.515 71.823 72.143 72.455 72.768 73.1 73.415 73.718 74.033 74.335 74.633 74.905 75.205 75.468 75.748 75.993 76.185 76.55 77.513 77.95 77.843 76.978 77.173 77.48 78.245 78.778 79.063 79.338 79.633 79.993 80.34 80.678 80.963 81.235 81.5 81.775 82.028 82.293 82.525 82.79 83.03 83.278 83.515 83.725 83.963 84.193 84.398 84.648 84.84 85.038 85.275 85.47 85.63 85.79 85.955 86.15 86.378 87.118 87.975 87.29 87.145 87.388 87.613 87.828 88.008 88.178 88.366 88.573 88.816 89.008 89.223 89.453 89.656 89.861 90.043 90.246 90.428 90.598 90.811 90.973 91.188 91.366 91.546 91.721 91.928 92.108 92.306 92.541 92.773 92.966 93.196 93.371 93.561 93.768 93.946 94.113 94.283 94.458 94.621 94.811 94.966 95.163 95.326 95.506 95.656 95.818 95.978 96.123 96.278 96.421 96.578 96.723 96.883 97.021 97.156 97.311 97.466 97.586 97.726 97.871 98.011 98.128 98.256 98.396 98.533 98.646 98.761 98.891 99.001 99.121 99.231 99.348 99.466 99.588 99.718 99.846 99.916 99.991 102.121 102.318 102.121 101.428 100.896 100.926 101.051 101.161 101.256 101.218 101.288 101.358 101.496 101.533 101.598 101.681 101.731 101.783 101.811 102.283 102.761 102.121 101.088 101.246 101.788 103.738 105.176 104.914 103.394 102.999 102.914 103.171 104.714 103.199 103.234 103.306 103.584 103.536 103.626 104.656 104.041 104.254 103.911 104.199 104.021 104.066 104.314 104.279 104.441 104.446 104.476 105.436 104.884 104.939 105.029 104.904 104.941 115.006 117.954 107.719 105.426 105.499 105.769 106.181 105.591 105.584 106.596 105.139 104.854 104.754 104.684 104.631 104.639 104.776 104.791 104.701 104.691 104.711 104.744 104.889 112.571 113.279 113.826 114.729 113.836 112.524 112.786 112.234 112.149 111.981 112.319 112.076 111.941 111.901 111.981 113.009 111.811 111.704 112.854 111.669 112.014 112.156 109.889 108.529 105.341 104.466 104.469 105.851 107.731 107.696 107.289 107.384 107.271 107.431 107.479 107.519 107.579 107.801 113.221 113.304 113.966 114.811 110.264 107.976 108.099 113.214 120.684 120.506 120.134 120.526 119.171 115.614 116.244 108.416 108.436 108.676 109.364 109.251 109.411 109.229 110.901 109.279 109.101 109.026 109.009 108.966 108.971 109.009 109.094 109.181 109.224 109.276 109.406 109.506 109.574 110.226 110.692 110.168 110.378 110.374 110.978 111.416 111.049 110.971 111.186 111.55 111.75 111.955 112.15 112.754 112.784 112.834 113.068 113.254 113.586 113.849 114.144 114.4 114.714 114.995 115.26 115.47 116.439 117.228 117.334 116.669 117.132 117.162 117.412 117.584 117.889 117.997 118.197 118.377 118.562 118.787 119.014 119.259 119.464 119.669 119.837 120.012 120.232 120.457 120.709 120.942 121.117 121.389 122.867 122.117 122.029 122.224 122.402 122.584 122.767 122.942 123.159 123.339
54.965 55.055 55.148 55.245 55.34 55.455 55.6 55.758 55.9 56.085 56.275 56.458 56.643 56.8 56.98 57.163 57.383 57.603 57.843 58.065 58.275 58.483 58.708 58.94 59.175 59.423 59.695 59.963 60.223 60.475 60.733 60.99 61.283 61.558 61.84 62.138 62.445 62.75 63.035 63.345 63.668 63.98 64.283 64.59 64.94 65.273 65.618 65.97 66.345 66.715 67.06 67.405 67.735 68.07 68.413 68.748 69.093 69.428 69.758 70.085 70.393 70.695 70.978 71.28 71.563 71.873 72.188 72.5 72.833 73.138 73.438 73.768 74.08 74.378 74.675 74.955 75.23 75.508 75.79 76.058 76.315 76.548 76.77 77.315 77.913 78.41 78.05 77.603 77.823 78.245 78.825 79.413 79.658 79.885 80.205 80.555 80.865 81.173 81.443 81.713 81.958 82.213 82.463 82.713 82.943 83.185 83.43 83.67 83.895 84.103 84.338 84.535 84.748 84.965 85.168 85.348 85.493 85.665 85.838 86.063 86.66 87.823 87.013 86.87 87.073 87.298 87.523 87.69 87.85 88.033 88.223 88.451 88.668 88.873 89.088 89.311 89.503 89.721 89.911 90.103 90.296 90.466 90.661 90.856 91.046 91.231 91.418 91.601 91.781 91.986 92.208 92.408 92.616 92.833 93.016 93.233 93.438 93.618 93.778 93.958 94.141 94.301 94.483 94.643 94.826 94.991 95.156 95.323 95.488 95.653 95.811 95.943 96.103 96.243 96.408 96.558 96.701 96.846 97.006 97.143 97.298 97.431 97.568 97.708 97.853 97.968 98.103 98.243 98.373 98.501 98.636 98.758 98.871 98.973 99.068 99.181 99.286 99.416 99.538 99.648 99.706 100.213 102.463 102.258 101.643 101.711 100.616 100.708 100.731 100.903 100.958 100.993 101.108 101.373 101.273 101.373 101.391 101.458 101.528 101.536 101.608 101.906 103.596 101.471 100.781 100.926 101.948 103.941 105.168 104.291 102.991 102.671 102.799 105.251 108.071 103.041 103.211 103.201 103.386 103.546 103.444 103.519 103.844 104.706 103.841 103.924 103.824 103.806 104.144 103.961 104.099 104.194 104.471 104.436 104.534 104.891 106.751 108.061 104.979 107.584 116.926 106.621 105.274 106.129 111.701 113.411 112.349 108.431 106.281 105.641 104.754 104.641 104.601 104.586 104.754 105.396 105.269 104.919 104.574 104.531 104.604 104.766 107.144 107.686 111.606 111.876 108.601 107.281 106.331 108.391 110.899 110.939 111.031 111.411 111.486 111.574 111.674 113.136 111.839 111.581 113.804 111.549 111.926 113.049 111.361 111.006 107.646 104.461 104.426 105.271 107.951 108.116 107.126 107.174 107.144 107.209 107.144 107.286 107.496 107.894 107.596 107.726 112.636 109.871 107.711 107.731 107.821 111.804 110.849 119.011 116.339 116.244 115.401 115.746 107.926 108.214 108.741 109.151 109.824 109.366 110.054 109.319 110.516 109.059 108.861 108.879 108.891 108.856 108.876 108.906 108.971 109.019 109.091 109.159 109.274 109.359 109.446 110.143 110.686 109.983 110.106 110.287 110.733 111.536 111.283 110.872 111.023 111.301 111.576 111.791 112.046 112.257 112.511 112.8 113.012 113.251 113.502 113.756 114.164 114.281 114.59 114.839 115.075 115.315 116.55 117.659 117.402 116.542 117.102 117.004 117.224 117.422 117.707 117.832 118.022 118.202 118.419 118.647 118.857 119.079 119.312 119.462 119.609 119.814 120.037 120.259 120.524 120.749 120.902 121.677 122.657 121.782 121.872 122.027 122.214 122.404 122.602 122.767 122.977 123.172
55.405 55.463 55.52 55.593 55.703 55.838 55.953 56.078 56.23 56.38 56.553 56.733 56.915 57.08 57.263 57.418 57.645 57.878 58.095 58.278 58.498 58.723 58.93 59.123 59.365 59.603 59.808 60.068 60.34 60.588 60.843 61.103 61.38 61.648 61.945 62.248 62.56 62.833 63.143 63.433 63.75 64.038 64.345 64.655 64.983 65.315 65.668 66.03 66.41 66.753 67.105 67.44 67.775 68.083 68.44 68.795 69.123 69.443 69.778 70.11 70.428 70.735 71.06 71.343 71.655 71.965 72.278 72.578 72.87 73.168 73.49 73.795 74.123 74.42 74.713 75.005 75.283 75.575 75.84 76.13 76.385 76.625 76.893 77.123 77.35 77.948 79.098 79.17 78.335 78.16 78.415 78.87 79.54 80.013 80.2 80.42 80.748 81.075 81.37 81.645 81.898 82.163 82.415 82.65 82.88 83.13 83.363 83.575 83.81 84.033 84.243 84.448 84.658 84.87 85.033 85.228 85.383 85.558 85.765 86.23 87.508 86.93 86.558 86.795 86.995 87.193 87.38 87.54 87.72 87.913 88.126 88.313 88.533 88.738 88.943 89.163 89.361 89.583 89.798 89.993 90.181 90.363 90.521 90.723 90.913 91.091 91.278 91.456 91.628 91.863 92.066 92.263 92.478 92.688 92.891 93.098 93.281 93.476 93.643 93.833 94.001 94.168 94.351 94.518 94.708 94.848 95.021 95.191 95.346 95.513 95.656 95.806 95.953 96.096 96.258 96.416 96.566 96.721 96.861 96.986 97.133 97.288 97.418 97.546 97.686 97.821 97.966 98.096 98.221 98.343 98.461 98.606 98.723 98.806 98.903 99.011 99.111 99.223 99.346 99.411 99.493 101.153 102.378 101.583 101.161 100.818 101.088 100.468 100.698 100.651 100.788 100.973 101.191 101.056 101.023 101.273 101.281 101.513 101.528 101.593 101.843 103.481 102.426 100.913 100.716 100.871 102.303 104.098 104.901 103.736 102.649 102.414 102.736 103.096 103.939 102.956 103.059 103.266 103.534 103.366 103.456 103.399 103.404 103.676 103.916 103.854 103.884 103.884 103.891 104.036 103.861 103.944 104.054 104.066 104.184 104.299 104.909 108.961 106.346 105.824 106.944 106.604 107.434 108.231 110.026 114.459 120.169 116.691 109.176 107.514 105.309 104.501 104.494 104.644 104.926 106.529 106.519 106.514 104.511 104.496 104.514 104.524 105.266 104.504 104.561 104.579 104.691 104.549 104.541 106.889 111.169 111.281 111.354 111.509 113.404 112.721 111.961 113.124 112.241 112.126 113.496 112.314 112.476 113.156 112.504 112.579 111.901 104.399 104.381 104.934 107.499 107.989 107.199 107.229 107.091 107.086 107.496 107.369 107.444 107.274 107.441 107.391 107.429 107.459 107.516 107.536 107.521 107.526 107.709 107.911 108.174 107.844 107.969 107.959 107.891 108.124 108.391 108.834 109.159 109.246 109.291 109.189 109.936 109.226 109.054 108.729 108.701 108.706 108.731 108.774 108.829 108.879 108.946 109.001 109.101 109.166 109.291 109.723 110.659 109.826 109.933 110.177 110.429 110.645 110.992 111.397 110.947 111.186 111.424 111.638 111.907 112.147 112.414 112.668 112.916 113.188 113.426 113.696 113.976 114.157 114.433 114.708 114.942 115.181 115.547 116.95 117.319 116.429 116.987 116.847 117.049 117.269 117.512 117.679 117.837 118.042 118.262 118.489 118.712 118.917 119.149 119.312 119.477 119.659 119.867 120.114 120.397 120.569 120.797 122.172 121.842 121.472 121.659 121.824 122.024 122.222 122.404 122.587 122.777 122.954
55.85 55.865 55.913 56.005 56.07 56.185 56.31 56.425 56.568 56.695 56.878 57.053 57.23 57.413 57.568 57.783 57.96 58.163 58.355 58.553 58.773 58.96 59.158 59.358 59.585 59.783 60 60.218 60.458 60.738 60.953 61.248 61.485 61.77 62.068 62.363 62.67 62.93 63.228 63.525 63.835 64.125 64.42 64.753 65.063 65.413 65.763 66.115 66.46 66.818 67.128 67.45 67.778 68.128 68.478 68.815 69.138 69.475 69.823 70.125 70.45 70.768 71.085 71.398 71.725 72.038 72.345 72.64 72.96 73.288 73.565 73.865 74.15 74.455 74.748 75.04 75.33 75.6 75.878 76.155 76.42 76.69 76.963 77.213 77.47 77.728 77.943 78.713 80.018 79.208 78.535 78.738 78.983 79.45 80.13 80.503 80.673 80.92 81.225 81.523 81.82 82.1 82.343 82.58 82.81 83.05 83.273 83.483 83.713 83.948 84.15 84.35 84.568 84.76 84.923 85.11 85.278 85.49 85.72 87.008 86.955 86.263 86.488 86.708 86.898 87.093 87.25 87.415 87.578 87.796 87.986 88.191 88.398 88.613 88.836 89.043 89.248 89.461 89.678 89.866 90.048 90.216 90.408 90.593 90.751 90.958 91.148 91.321 91.513 91.723 91.933 92.131 92.341 92.563 92.761 92.961 93.156 93.338 93.523 93.693 93.866 94.018 94.206 94.386 94.561 94.721 94.881 95.043 95.233 95.376 95.521 95.671 95.828 95.976 96.138 96.296 96.456 96.593 96.731 96.876 97.008 97.153 97.288 97.388 97.501 97.658 97.766 97.911 98.028 98.146 98.268 98.378 98.496 98.596 98.673 98.763 98.871 98.983 99.101 99.198 99.306 101.248 102.143 101.211 100.603 100.363 100.563 100.571 100.656 101.626 101.223 101.261 101.128 101.106 101.221 101.288 102.873 101.481 101.738 101.808 101.546 101.928 102.653 100.558 100.618 100.983 102.661 104.578 104.746 103.444 102.606 102.396 102.656 103.159 102.886 102.959 103.009 103.321 103.501 103.414 103.211 103.291 103.414 103.429 103.569 103.696 103.904 104.006 103.889 103.769 103.709 104.874 103.749 103.939 103.966 104.189 104.284 104.519 104.544 104.629 104.689 106.521 115.611 107.666 109.076 110.754 118.734 110.546 112.194 114.916 106.386 104.789 105.914 105.251 106.349 106.744 106.569 105.776 104.629 104.974 105.324 105.554 105.149 104.354 104.376 104.424 104.479 104.481 104.481 106.961 113.634 112.874 112.864 113.029 113.044 113.101 113.071 113.089 112.986 113.099 113.024 112.959 112.789 112.936 112.931 112.444 110.351 104.364 104.386 104.726 106.991 107.179 107.934 111.509 107.364 106.956 106.911 107.216 107.096 107.159 107.274 107.299 107.356 107.359 107.324 107.334 107.271 107.386 107.414 107.846 107.709 107.661 107.654 110.859 110.709 107.919 108.036 108.684 109.056 111.649 108.841 108.744 110.506 108.794 108.899 108.989 108.506 108.549 108.629 108.624 108.689 108.746 108.799 108.861 108.919 109.029 109.156 109.783 110.733 109.717 109.787 110.027 110.315 110.394 110.487 110.754 111.792 111.251 111.343 111.491 111.951 112.157 112.328 112.595 112.83 113.072 113.331 113.613 113.823 114.035 114.303 114.567 114.81 115.051 115.841 116.531 117.177 116.304 116.617 116.692 116.884 117.099 117.289 117.524 117.677 117.877 118.094 118.329 118.552 118.759 118.962 119.114 119.299 119.522 119.707 119.949 120.194 120.342 120.824 122.057 121.167 121.312 121.474 121.664 121.852 122.044 122.222 122.414 122.599 122.789
56.328 56.345 56.345 56.438 56.49 56.585 56.685 56.813 56.915 57.038 57.198 57.368 57.545 57.73 57.898 58.088 58.278 58.485 58.678 58.855 59.08 59.228 59.448 59.645 59.83 60.008 60.195 60.418 60.64 60.873 61.118 61.368 61.625 61.895 62.178 62.478 62.75 63.028 63.313 63.625 63.913 64.24 64.518 64.828 65.155 65.498 65.85 66.2 66.528 66.865 67.185 67.49 67.823 68.168 68.498 68.833 69.165 69.505 69.853 70.17 70.495 70.805 71.123 71.435 71.765 72.075 72.41 72.743 73.05 73.343 73.635 73.95 74.213 74.5 74.79 75.085 75.343 75.623 75.893 76.175 76.438 76.69 76.968 77.258 77.533 77.815 78.043 78.253 78.6 79.475 80.235 79.558 79.183 79.298 79.613 80.105 80.665 80.968 81.11 81.358 81.663 81.983 82.255 82.508 82.73 82.965 83.185 83.425 83.62 83.848 84.063 84.283 84.48 84.633 84.81 84.98 85.188 85.418 86.553 86.835 85.97 86.16 86.393 86.593 86.785 86.958 87.133 87.283 87.493 87.671 87.853 88.056 88.276 88.506 88.683 88.931 89.146 89.356 89.538 89.736 89.911 90.111 90.296 90.466 90.631 90.833 91.013 91.183 91.381 91.591 91.788 92.003 92.201 92.408 92.618 92.816 93.016 93.191 93.381 93.548 93.748 93.913 94.086 94.263 94.423 94.611 94.771 94.938 95.098 95.256 95.393 95.536 95.693 95.818 95.976 96.143 96.286 96.423 96.553 96.701 96.836 96.946 97.081 97.196 97.291 97.421 97.543 97.666 97.803 97.908 98.023 98.126 98.251 98.331 98.423 98.496 98.603 98.731 98.841 98.928 99.628 101.108 101.221 100.576 100.423 100.666 100.498 100.796 101.111 100.858 101.666 101.178 101.286 101.121 100.536 100.461 101.178 100.436 100.406 100.301 100.288 103.996 100.286 100.268 100.521 101.191 102.928 104.898 104.611 103.219 102.861 102.631 102.681 102.791 102.611 102.979 102.959 103.029 102.879 103.076 102.914 103.091 103.324 103.336 103.271 103.319 103.421 104.294 103.651 103.831 103.531 103.624 103.584 103.609 103.826 103.964 104.204 104.311 104.399 104.386 104.331 105.831 109.629 104.661 106.831 108.261 115.166 116.616 116.459 118.339 107.919 104.534 104.809 104.896 106.004 105.246 105.209 104.796 104.461 105.679 104.979 104.534 104.394 104.209 104.299 104.334 104.399 104.444 104.421 105.636 112.484 113.061 112.131 111.724 111.574 111.564 111.519 112.529 111.824 111.111 111.171 111.024 110.956 112.324 112.651 110.884 108.311 104.361 104.364 104.569 106.484 107.236 106.934 107.571 106.866 106.956 106.896 107.061 107.926 107.736 107.171 107.021 107.101 107.044 107.034 107.176 107.209 107.269 107.454 107.644 107.614 107.514 107.581 108.324 110.651 107.839 112.489 114.674 115.201 114.301 109.036 108.581 109.779 108.916 109.311 108.989 108.556 109.141 108.969 108.764 109.104 109.184 109.264 109.036 108.829 110.034 109.716 109.981 109.932 109.508 109.63 109.881 110.105 110.315 110.416 110.532 110.956 111.6 111.279 111.394 112.163 112.407 112.255 112.503 112.747 112.992 113.274 113.507 113.708 113.985 114.19 114.418 114.671 114.915 116.435 117.375 116.857 116.194 116.482 116.742 116.714 116.942 117.132 117.379 117.497 117.734 117.952 118.167 118.369 118.582 118.782 118.967 119.132 119.347 119.529 119.764 119.982 120.162 121.552 121.779 120.897 121.119 121.294 121.482 121.674 121.874 122.044 122.254 122.424 122.614
56.913 56.873 56.863 56.898 56.943 57.025 57.068 57.175 57.285 57.408 57.533 57.705 57.87 58.065 58.228 58.468 58.64 58.815 59.005 59.18 59.353 59.53 59.723 59.903 60.08 60.278 60.448 60.655 60.853 61.083 61.29 61.508 61.76 62.028 62.305 62.59 62.85 63.143 63.428 63.705 64.003 64.288 64.605 64.9 65.243 65.578 65.93 66.26 66.593 66.903 67.218 67.52 67.853 68.2 68.53 68.873 69.213 69.53 69.868 70.188 70.533 70.855 71.175 71.48 71.798 72.15 72.47 72.81 73.123 73.395 73.718 73.998 74.298 74.583 74.84 75.103 75.373 75.638 75.923 76.2 76.485 76.735 77.018 77.275 77.543 77.82 78.1 78.328 78.535 78.748 79.225 80.533 80.81 79.798 79.743 79.9 80.223 80.688 81.155 81.36 81.538 81.82 82.113 82.405 82.658 82.89 83.113 83.333 83.553 83.785 83.978 84.208 84.345 84.533 84.698 84.885 85.103 85.898 86.748 85.73 85.825 86.075 86.285 86.475 86.653 86.83 86.99 87.173 87.365 87.563 87.746 87.953 88.171 88.401 88.616 88.816 89.031 89.246 89.438 89.613 89.808 89.991 90.171 90.333 90.506 90.698 90.878 91.051 91.248 91.461 91.653 91.871 92.063 92.263 92.481 92.691 92.878 93.043 93.238 93.423 93.616 93.801 93.966 94.143 94.293 94.463 94.611 94.758 94.891 95.036 95.191 95.341 95.478 95.633 95.763 95.923 96.066 96.206 96.336 96.443 96.578 96.676 96.791 96.923 97.026 97.131 97.243 97.381 97.483 97.608 97.713 97.816 97.896 97.976 98.093 98.173 98.276 98.393 98.486 98.596 99.156 100.626 100.018 100.366 100.061 99.651 99.856 100.133 99.661 99.866 99.838 100.033 100.091 100.063 100.061 100.041 100.158 100.368 100.473 100.351 100.181 100.171 100.113 100.041 100.161 101.331 103.088 104.361 104.206 102.641 102.059 102.036 102.331 102.414 102.329 102.501 102.721 102.801 102.941 102.819 102.859 102.979 103.181 103.231 103.096 103.036 102.914 103.104 103.211 103.519 103.429 103.459 103.434 103.441 103.521 103.561 103.754 104.021 104.096 104.096 104.336 104.104 104.104 104.116 109.119 112.179 116.291 116.284 113.774 109.254 109.439 104.256 104.119 103.966 103.904 103.871 103.969 104.146 104.509 104.234 104.154 104.051 104.024 104.081 104.156 104.226 104.314 104.324 104.296 105.851 111.391 112.996 111.701 110.134 110.466 110.026 110.339 112.319 111.936 109.741 109.879 109.529 109.459 111.751 111.169 109.379 105.196 104.354 104.354 104.379 106.646 107.841 107.371 106.556 106.481 106.616 106.601 106.821 106.791 106.824 106.694 106.784 106.876 106.966 107.056 107.634 107.121 107.181 107.349 107.306 107.446 107.511 107.434 107.964 108.839 107.611 108.239 115.746 113.849 110.654 108.556 108.406 108.696 108.931 109.511 109.371 109.134 109.174 110.341 109.806 110.031 111.269 111.689 110.209 110.161 110.001 110.029 110.478 109.465 109.395 109.526 109.741 110.169 110.176 110.565 110.452 110.688 111.476 111.804 111.377 111.545 111.961 112.131 112.465 112.759 112.974 113.2 113.45 113.636 113.864 114.094 114.308 114.559 114.797 115.487 116.038 117.237 116.059 116.334 116.582 116.539 116.759 116.979 117.242 117.374 117.582 117.817 118.022 118.217 118.424 118.602 118.767 118.962 119.149 119.387 119.612 119.804 120.334 121.599 120.707 120.734 120.917 121.104 121.294 121.489 121.682 121.859 122.042 122.217 122.417
57.558 57.483 57.448 57.423 57.445 57.49 57.538 57.598 57.698 57.788 57.93 58.08 58.228 58.405 58.563 58.775 58.963 59.115 59.313 59.495 59.708 59.838 60.033 60.188 60.358 60.545 60.715 60.868 61.045 61.29 61.483 61.688 61.953 62.22 62.47 62.733 62.973 63.258 63.543 63.803 64.103 64.398 64.685 65.008 65.343 65.693 66.03 66.338 66.658 66.95 67.255 67.568 67.915 68.23 68.56 68.913 69.223 69.563 69.91 70.25 70.553 70.898 71.213 71.523 71.865 72.195 72.538 72.863 73.188 73.468 73.8 74.085 74.355 74.643 74.888 75.155 75.458 75.705 75.953 76.243 76.5 76.723 77.048 77.32 77.573 77.828 78.083 78.335 78.59 78.843 79.058 79.268 79.74 81.203 81.573 80.323 80.153 80.388 80.75 81.203 81.548 81.753 81.955 82.255 82.538 82.808 83.025 83.25 83.48 83.685 83.905 84.068 84.24 84.41 84.605 84.8 85.525 86.483 85.52 85.52 85.76 85.985 86.173 86.36 86.533 86.683 86.87 87.068 87.238 87.431 87.626 87.841 88.066 88.286 88.516 88.728 88.936 89.148 89.313 89.511 89.716 89.903 90.081 90.256 90.426 90.603 90.781 90.973 91.168 91.363 91.546 91.771 91.956 92.163 92.376 92.551 92.736 92.916 93.101 93.266 93.453 93.623 93.793 93.928 94.103 94.261 94.403 94.533 94.686 94.828 94.961 95.091 95.218 95.353 95.493 95.613 95.728 95.856 95.988 96.141 96.248 96.376 96.468 96.573 96.716 96.843 96.971 97.068 97.216 97.336 97.448 97.568 97.656 97.751 97.886 97.941 98.016 98.108 98.201 98.283 98.376 98.533 98.681 98.713 98.843 98.948 99.116 99.228 99.371 99.806 100.038 100.221 100.476 100.653 100.781 101.273 101.228 101.018 101.481 101.508 101.053 100.008 99.886 99.836 100.013 101.368 103.268 104.366 103.913 103.049 102.161 101.716 102.089 102.166 102.211 102.259 102.274 102.371 102.694 102.481 102.456 102.614 102.956 103.179 103.104 103.126 103.051 102.906 102.861 102.904 103.039 103.161 103.231 103.239 104.744 103.564 103.536 103.701 104.004 103.904 104.054 104.021 104.081 104.039 106.469 113.134 117.816 114.506 115.914 115.171 117.909 114.281 104.446 104.149 103.774 103.714 103.786 103.884 103.904 103.924 104.051 104.059 104.179 104.054 103.996 104.026 104.106 104.189 104.211 104.541 108.926 108.741 108.256 106.956 106.446 105.936 105.666 106.024 104.744 104.851 104.464 104.706 104.304 105.701 104.381 104.726 105.036 104.394 104.296 104.379 106.134 108.071 107.129 106.794 106.296 106.249 106.326 106.314 106.256 106.359 106.589 106.744 106.939 106.791 106.814 106.694 106.711 107.061 107.151 107.099 107.344 107.314 107.419 107.361 107.269 107.329 109.134 107.536 107.486 107.754 108.046 107.891 108.039 108.119 108.561 108.891 108.414 108.331 108.256 108.521 109.479 111.056 110.706 111.024 109.894 109.819 112.106 111.681 110.735 109.699 109.364 109.609 109.834 109.977 110.431 110.486 110.649 110.839 111.508 111.526 111.511 111.769 112.08 112.566 112.652 112.943 113.208 113.731 113.781 113.779 113.996 114.21 114.472 114.673 114.876 115.752 117.064 116.014 116.007 116.612 116.409 116.609 116.794 117.057 117.244 117.444 117.642 117.859 118.047 118.234 118.404 118.599 118.802 118.994 119.224 119.459 119.614 120.789 121.109 120.347 120.569 120.747 120.944 121.149 121.349 121.537 121.692 121.899 122.059 122.247
58.255 58.163 58.133 58.068 58.035 58.025 58.045 58.073 58.123 58.205 58.333 58.45 58.625 58.783 58.955 59.088 59.275 59.44 59.608 59.805 59.985 60.145 60.32 60.468 60.623 60.803 60.953 61.12 61.3 61.495 61.655 61.883 62.133 62.39 62.653 62.898 63.145 63.403 63.678 63.96 64.238 64.525 64.815 65.145 65.468 65.808 66.12 66.413 66.71 67.015 67.323 67.623 67.945 68.268 68.605 68.925 69.245 69.588 69.923 70.263 70.623 70.945 71.253 71.583 71.935 72.253 72.588 72.913 73.248 73.525 73.838 74.145 74.44 74.695 74.945 75.225 75.48 75.743 76.013 76.273 76.558 76.763 77.07 77.313 77.59 77.848 78.075 78.335 78.578 78.815 79.088 79.323 79.525 79.773 80.433 81.195 81.633 80.9 80.685 80.915 81.23 81.658 81.953 82.183 82.413 82.703 82.945 83.183 83.403 83.58 83.778 83.945 84.108 84.293 84.495 85.01 86.185 85.475 85.218 85.443 85.673 85.888 86.06 86.243 86.385 86.588 86.77 86.973 87.123 87.316 87.538 87.748 87.981 88.213 88.433 88.643 88.843 89.043 89.236 89.431 89.631 89.806 89.993 90.161 90.331 90.508 90.691 90.876 91.063 91.253 91.421 91.623 91.808 92.006 92.178 92.353 92.533 92.721 92.891 93.033 93.228 93.403 93.563 93.708 93.856 93.976 94.113 94.246 94.378 94.521 94.653 94.791 94.898 95.048 95.213 95.336 95.441 95.573 95.746 95.901 96.011 96.128 96.236 96.391 96.526 96.636 96.791 96.926 97.096 97.206 97.321 97.416 97.513 97.648 97.768 97.876 98.001 98.143 98.308 98.598 98.718 98.701 98.993 99.356 99.716 99.936 100.116 100.521 100.913 101.068 101.228 101.496 101.026 100.561 100.288 99.963 100.103 100.023 100.431 100.683 101.148 100.501 99.636 99.873 100.033 101.476 103.323 104.301 104.141 102.019 101.451 101.511 101.714 102.051 101.909 102.149 101.931 102.084 102.266 102.199 102.241 102.326 102.574 102.976 102.991 103.464 103.244 103.081 102.846 102.679 102.819 102.849 102.776 102.871 103.241 103.086 103.246 103.506 103.511 103.541 103.556 103.811 104.071 104.941 105.591 112.716 115.276 106.621 113.041 116.801 114.719 114.956 104.904 103.689 103.646 103.574 103.651 103.746 103.829 103.856 103.861 104.119 103.966 103.954 103.954 103.889 103.926 104.024 104.151 104.266 104.461 104.301 104.319 104.269 104.256 104.284 104.256 104.439 104.486 104.251 104.271 104.239 104.236 104.251 104.241 104.251 105.119 104.274 104.259 104.259 104.861 106.786 107.209 106.761 106.176 106.041 106.246 106.186 106.056 106.114 106.309 106.324 106.476 106.584 106.644 106.651 108.769 106.854 106.951 106.911 107.116 107.909 107.156 107.404 107.191 107.281 107.226 107.254 107.381 107.554 107.514 107.699 107.924 107.989 107.986 108.109 108.109 108.364 108.226 108.054 108.424 108.536 108.761 110.931 109.709 110.649 111.719 110.909 111.121 109.868 109.258 109.494 109.678 109.887 110.262 110.583 110.648 111.134 112.15 112.067 111.715 111.709 111.966 112.262 112.566 112.844 113.088 113.144 113.404 113.596 113.878 114.096 114.367 114.622 114.754 115.294 116.654 116.137 115.837 116.337 116.229 116.454 116.632 116.909 117.107 117.297 117.492 117.712 117.869 117.999 118.239 118.447 118.622 118.839 119.069 119.264 119.464 121.117 120.179 120.169 120.372 120.539 120.737 120.952 121.162 121.349 121.519 121.714 121.902 122.072
58.998 58.895 58.805 58.74 58.668 58.633 58.633 58.638 58.675 58.753 58.825 58.903 59.025 59.155 59.305 59.453 59.64 59.788 59.95 60.13 60.283 60.443 60.608 60.77 60.903 61.06 61.225 61.378 61.533 61.713 61.873 62.09 62.315 62.553 62.855 63.058 63.31 63.583 63.843 64.105 64.375 64.648 64.963 65.285 65.61 65.91 66.21 66.493 66.785 67.075 67.378 67.695 68.003 68.318 68.635 68.955 69.305 69.63 69.98 70.315 70.653 70.968 71.29 71.628 72.005 72.335 72.68 72.97 73.295 73.558 73.895 74.188 74.475 74.74 75.033 75.298 75.56 75.813 76.078 76.323 76.581 76.828 77.098 77.338 77.591 77.831 78.076 78.328 78.581 78.823 79.093 79.328 79.581 79.803 80.028 80.246 80.791 81.626 82.136 81.576 81.236 81.416 81.763 82.098 82.406 82.608 82.851 83.083 83.306 83.486 83.646 83.788 83.968 84.188 84.471 85.738 85.563 84.896 85.123 85.351 85.546 85.743 85.918 86.121 86.311 86.486 86.676 86.861 87.053 87.246 87.461 87.678 87.893 88.138 88.338 88.556 88.748 88.958 89.163 89.346 89.526 89.698 89.896 90.056 90.216 90.381 90.553 90.721 90.888 91.061 91.248 91.428 91.601 91.788 91.946 92.108 92.283 92.436 92.603 92.748 92.946 93.076 93.211 93.373 93.521 93.633 93.781 93.938 94.121 94.251 94.361 94.526 94.711 94.861 95.013 95.173 95.301 95.448 95.633 95.756 95.896 96.026 96.186 96.341 96.471 96.618 96.851 97.133 97.258 97.391 97.791 98.126 98.318 98.726 98.796 98.771 99.283 99.523 99.758 100.138 100.256 100.068 100.223 100.136 99.771 100.091 99.866 99.686 99.938 99.376 99.431 99.496 99.446 99.526 99.643 99.701 99.783 99.843 99.911 99.971 100.358 100.641 99.453 99.593 100.041 101.656 103.486 104.041 103.161 101.571 101.414 101.321 101.506 101.709 101.656 101.934 101.694 101.721 101.939 101.999 102.004 102.279 102.254 102.484 102.654 102.759 102.971 103.084 103.221 103.116 110.944 104.881 102.801 102.771 102.756 102.856 102.799 102.886 102.959 103.059 103.181 103.371 107.129 103.616 107.604 109.361 115.461 106.384 105.706 103.804 109.769 113.946 105.464 103.434 103.436 103.456 103.486 103.449 103.604 105.476 103.786 103.956 103.901 103.854 103.914 103.759 103.761 103.816 103.916 104.646 104.484 104.231 104.256 104.224 104.216 104.241 104.244 104.274 104.216 104.224 104.229 104.226 104.221 104.241 104.254 104.259 105.171 104.379 104.194 104.234 106.764 112.736 112.339 119.269 110.041 105.821 105.831 105.896 107.304 107.704 106.069 105.921 106.139 106.266 106.321 106.429 106.669 106.834 106.781 106.664 107.154 108.317 107.154 107.059 106.954 107.107 107.719 107.247 107.347 107.327 107.774 107.822 108.289 107.764 107.662 107.627 107.709 107.859 107.884 107.902 108.274 108.419 108.389 110.454 109.537 108.839 109.292 109.529 110.519 110.357 109.207 109.455 109.602 109.736 110.007 110.505 110.784 111.97 112.861 111.628 112.043 111.753 111.947 112.171 112.411 112.693 112.797 113.054 113.273 113.467 113.749 113.997 114.49 114.516 114.629 115.059 116.372 116.082 115.689 116.234 116.072 116.287 116.482 116.769 117.014 117.122 117.337 117.494 117.694 117.882 118.082 118.302 118.482 118.722 118.909 119.064 119.737 120.754 119.817 119.997 120.159 120.399 120.592 120.789 120.949 121.159 121.339 121.512 121.697 121.877
59.738 59.645 59.543 59.455 59.383 59.31 59.288 59.273 59.275 59.295 59.36 59.395 59.5 59.58 59.745 59.843 60 60.128 60.318 60.463 60.623 60.758 60.915 61.08 61.205 61.358 61.478 61.64 61.783 61.925 62.1 62.303 62.528 62.78 63.01 63.26 63.503 63.755 64.015 64.26 64.523 64.82 65.115 65.433 65.735 66.028 66.305 66.588 66.868 67.175 67.49 67.8 68.123 68.403 68.723 69.03 69.348 69.688 70.023 70.343 70.678 70.975 71.31 71.678 72.04 72.38 72.708 73.018 73.323 73.623 73.935 74.24 74.515 74.798 75.09 75.368 75.643 75.893 76.16 76.393 76.656 76.883 77.133 77.363 77.601 77.836 78.076 78.343 78.601 78.831 79.058 79.316 79.546 79.791 80.026 80.243 80.438 80.621 80.843 81.806 82.858 82.258 81.728 81.876 82.218 82.543 82.768 82.953 83.183 83.366 83.503 83.638 83.833 84.068 85.221 85.398 84.606 84.838 85.063 85.266 85.448 85.626 85.813 86.003 86.213 86.391 86.573 86.771 86.973 87.198 87.416 87.608 87.826 88.041 88.236 88.433 88.628 88.816 89.021 89.168 89.346 89.526 89.668 89.853 90.001 90.178 90.326 90.491 90.648 90.828 90.961 91.133 91.288 91.476 91.643 91.836 91.956 92.086 92.298 92.476 92.611 92.771 92.933 93.146 93.283 93.463 93.621 93.806 93.988 94.118 94.238 94.431 94.651 94.786 94.993 95.258 95.456 95.556 95.678 96.113 96.388 96.896 97.361 97.441 97.668 97.858 98.111 98.461 98.411 98.493 99.018 99.296 98.651 98.848 98.648 98.393 98.601 98.551 99.023 98.548 98.798 98.351 98.453 98.583 98.611 98.711 98.831 98.941 99.033 99.096 99.166 99.248 99.316 99.391 99.496 99.558 99.598 99.678 99.756 99.806 100.193 100.236 99.196 99.481 100.148 102.028 103.358 103.831 102.878 101.321 100.966 101.049 101.269 101.264 101.154 101.349 101.464 101.471 101.654 101.724 101.756 101.964 101.934 102.161 102.496 102.524 102.561 102.666 102.704 103.661 104.184 103.744 102.929 103.029 103.014 103.029 102.749 102.854 102.991 102.874 103.044 103.051 103.021 104.854 103.109 103.899 110.876 106.716 103.436 103.694 103.746 103.674 103.426 103.221 103.206 103.291 103.206 103.456 103.636 103.561 103.836 104.454 103.711 103.666 103.724 103.619 103.609 103.659 103.736 104.416 104.616 104.436 104.374 104.324 104.334 103.929 104.049 104.251 104.319 104.186 104.066 103.956 104.224 104.186 104.311 105.569 105.861 105.046 104.981 105.271 107.081 111.749 114.226 116.736 114.916 105.634 105.589 105.634 107.414 108.289 106.819 105.871 106.014 106.086 106.091 106.306 106.499 106.476 106.641 106.599 106.697 106.827 106.874 106.754 106.932 106.934 107.119 107.219 107.152 107.234 107.857 107.997 107.627 108.487 107.562 107.659 107.794 107.624 107.674 107.762 108.022 108.234 108.289 108.347 108.822 108.697 111.762 112.772 110.649 110.594 109.153 109.291 109.436 109.68 109.923 110.23 110.888 111.005 112.765 113.166 111.641 112.234 111.92 112.096 112.356 112.509 112.685 112.959 113.333 113.395 113.627 113.861 114.099 114.412 114.432 114.754 116.137 116.072 115.559 116.112 115.927 116.147 116.369 116.599 116.884 116.997 117.177 117.332 117.502 117.687 117.894 118.119 118.344 118.547 118.767 118.897 120.072 120.054 119.569 119.779 119.962 120.209 120.422 120.614 120.814 120.962 121.162 121.344 121.537 121.682
