ncols 439
nrows 32
xllcorner    245010
yllcorner    139120
cellsize     2
NODATA_value -9999
27.517 27.487 27.47 27.475 27.485 27.503 27.548 27.618 27.68 27.888 27.95 27.807 27.775 27.823 27.86 28.53 28.377 28.487 28.335 29.118 29.022 28.71 28.433 28.302 28.327 28.388 28.455 28.593 28.568 28.635 28.708 28.778 28.825 28.833 28.91 28.923 29.045 29.132 29.158 29.23 29.312 29.382 29.49 29.49 29.568 31.002 32.68 30.945 29.635 29.733 29.83 29.837 29.875 29.932 29.985 30.02 30.025 30.093 30.145 30.173 30.198 30.243 30.3 30.298 30.36 30.39 30.405 30.452 30.46 30.478 30.45 30.52 30.545 30.59 30.585 30.64 30.66 30.702 30.71 30.757 30.82 30.858 30.897 30.945 31 31.05 31.09 31.13 31.147 31.225 31.278 31.288 31.325 31.345 31.37 31.4 31.45 31.462 31.46 31.49 31.517 31.548 31.6 31.65 31.695 31.735 31.775 31.817 31.858 31.897 31.945 31.995 32.06 32.107 32.155 32.17 32.185 32.208 32.257 32.31 32.345 32.412 32.52 32.268 32.34 32.645 32.812 32.89 32.975 33.002 33.018 33.033 33.103 33.205 33.345 33.4 33.44 33.545 33.562 33.59 33.62 33.662 33.72 33.785 33.81 33.838 33.888 33.932 33.972 34.05 34.092 34.12 34.18 34.245 34.283 34.29 34.357 34.388 34.435 34.528 34.62 34.987 35.417 35.697 35.833 35.987 36.14 36.263 36.317 36.312 36.29 36.19 36.14 36.16 36.232 36.315 36.393 36.505 36.597 36.715 36.855 36.945 37.045 37.123 37.252 37.338 37.43 37.478 37.557 37.59 37.653 37.725 37.745 37.707 37.698 38.295 39.368 39.465 39.423 39.11 38.39 38.967 37.982 38.05 37.985 38.145 38.45 38.763 38.967 40.222 40.055 40.188 40.318 40.305 40.33 39.9 42.855 40.243 41.25 41.028 41.22 41.983 40.665 39.823 40.145 39.64 39.497 39.52 39.865 39.995 39.838 39.478 39.472 39.415 39.41 39.41 39.533 39.96 41.033 41.83 43.895 43.783 43.487 43.338 43.505 43.897 43.512 43.335 43.375 43.23 43.055 42.62 42.478 42.077 41.18 40.623 40.435 39.88 40.037 40.94 39.055 38.91 39.06 39.01 38.925 40.597 39.743 39.85 39.252 39.553 38.92 47.01 46.417 43.51 39.662 42.125 40.122 40.518 40.595 40.715 40.753 40.827 40.945 41.09 41.33 41.27 41.38 41.395 41.338 41.295 41.155 40.63 40.482 40.5 40.46 42.095 40.855 41.14 41.232 41.96 47.833 48.452 48.225 48.182 48.045 46.24 41.505 41.25 41.175 41.143 44.417 45.71 44.778 44.143 44.643 42.403 42.057 42.222 42.53 42.825 42.86 42.747 42.753 42.785 42.912 47.342 49.952 51.408 51.11 51.225 50.39 49.037 47.59 45.528 44.673 45.982 46.643 46.41 46.862 48.005 50.065 48.028 47.222 47.138 47.23 48.97 54.085 53.795 53.838 54.225 53.417 52.14 52.147 51.077 50.465 50.925 52.118 53.105 53.823 54.05 54.26 54.8 55.205 55.82 55.677 55.61 55.915 55.735 57.445 58.68 57.213 61.823 59.43 59.688 59.13 58.888 58.96 59.052 59.14 57.565 56.95 57.18 57.335 57.518 57.665 57.847 58 59.895 60.42 60.618 59.53 59.607 59.107 59.232 59.552 59.888 60.105 60.162 60.513 60.903 61.54 62.5 63.353 64.048 64.42 64.678 64.842 65.048 65.245 65.445 65.643 65.808 66 66.185 66.363 66.53 66.743 66.923 67.08 67.255 67.43 67.577 67.745 67.925 68.052 68.2 68.353 68.555 68.868 69.165 69.42 69.528 69.715 69.94 70.113 70.28 70.465 70.635 70.82
27.642 27.57 27.577 27.562 27.583 27.58 27.603 27.63 27.665 27.698 27.785 27.795 27.853 27.935 28.073 28.382 28.81 29.01 28.097 28.145 29.362 28.513 28.55 28.847 28.79 28.558 28.532 28.51 28.577 28.642 28.733 28.772 28.833 28.895 28.91 28.925 29 29.068 29.202 29.233 29.308 29.397 29.448 29.478 29.487 30.515 30.625 30.568 29.955 29.77 29.855 29.823 29.805 29.823 29.878 29.917 29.942 29.995 30.052 30.073 30.112 30.147 30.228 30.21 30.235 30.285 30.302 30.323 30.355 30.358 30.372 30.425 30.45 30.49 30.487 30.528 30.6 30.638 30.642 30.7 30.725 30.79 30.838 30.88 30.948 30.995 31.025 31.062 31.103 31.167 31.185 31.215 31.257 31.28 31.318 31.32 31.37 31.41 31.423 31.415 31.47 31.523 31.585 31.642 31.683 31.733 31.775 31.825 31.87 31.913 31.972 32.028 32.075 32.147 32.017 31.88 32.025 32.118 32.23 32.285 32.327 32.405 32.495 32.103 32.497 32.7 32.83 32.935 32.993 33.07 33.158 33.215 33.247 33.327 33.438 33.465 33.528 33.62 33.67 33.697 33.728 33.757 33.795 33.868 33.938 33.987 33.987 34.002 34.07 34.125 34.175 34.19 34.22 34.268 34.315 34.4 34.435 34.555 34.715 34.847 35.108 35.565 35.982 36.237 36.427 36.482 36.57 36.632 36.67 36.62 36.585 36.51 36.525 36.618 36.72 36.807 36.875 36.985 37.062 37.175 37.285 37.363 37.448 37.513 38.622 38.1 37.85 39.103 39.018 38.235 38.835 39.682 39.787 39.535 38.998 38.743 39.478 39.65 39.847 40.397 38.31 38.308 38.272 38.675 38.783 39.162 39.515 39.815 40.083 41.003 40.917 41.427 41.748 41.255 41.833 41.86 41.663 42.22 42.503 42.375 41.868 41.537 41.097 40.56 40.182 40.195 40.25 39.928 39.955 39.928 39.963 40.197 40.27 39.997 39.945 40.153 40.247 40.357 41.545 42.98 43.817 44.055 43.463 43.298 43.298 43.838 43.755 43.4 43.458 43.315 43.627 43.677 44.193 43.362 42.717 41.945 40.82 40.612 40.513 40.62 40.653 40.38 40.272 40.4 40.38 40.05 39.735 39.408 39.07 39.097 39.107 39.07 40.272 40.565 38.535 39.71 40.658 40.735 41.073 40.98 41.25 41.248 41.243 41.357 41.662 41.812 41.827 41.732 41.61 41.583 41.322 40.485 40.362 40.36 40.355 46.868 48.15 43.013 41.065 43.085 48.052 49.27 49.435 49.08 47.865 42.943 41.34 41.318 41.25 41.34 42.787 46.055 44.57 42.11 42.237 42.208 41.653 41.873 41.835 42.67 42.688 42.708 42.697 43.118 46.198 50.378 50.98 51.43 51.325 50.248 49.333 47.278 44.447 43.847 43.98 45.092 45.947 46.052 46.635 46.713 48.45 49.27 47.285 46.913 46.96 49.14 53.423 53.68 54.312 54.185 54.215 54.193 53.92 53.658 51.092 49.912 51.373 51.905 52.605 52.923 53.155 53.44 53.89 54.562 55.083 55.463 55.507 55.542 55.52 57.925 55.86 56.493 57.838 56.2 56.28 56.817 58.04 57.722 58.145 56.787 56.82 57.09 57.503 58.132 57.8 57.932 58.158 61.645 62.64 62.515 62.357 62.237 61.31 59.778 59.303 59.43 59.388 59.763 59.995 60.23 60.522 61.058 62.037 63.073 63.518 63.967 64.353 64.53 64.59 64.847 65.058 65.257 65.43 65.615 65.79 65.963 66.165 66.355 66.515 66.673 66.825 66.99 67.11 67.26 67.405 67.562 67.728 67.967 68.277 68.545 68.725 68.895 69.057 69.25 69.418 69.585 69.75 69.93 70.118
27.743 27.665 27.648 27.63 27.618 27.655 27.698 27.702 27.725 27.725 27.747 27.805 27.845 27.9 27.96 27.985 28.083 28.405 28.532 28.69 29.115 29.305 28.392 28.302 28.987 29.2 28.928 28.845 28.64 28.642 28.698 28.798 28.86 28.938 28.97 28.993 29.042 29.08 29.218 29.257 29.343 29.413 29.407 29.467 29.468 30.875 31.925 34.89 32.278 30.448 30.53 29.893 29.755 29.743 29.788 29.86 29.892 29.92 29.955 29.99 30.02 30.068 30.092 30.13 30.158 30.198 30.212 30.26 30.267 30.29 30.295 30.35 30.382 30.445 30.438 30.485 30.53 30.562 30.575 30.635 30.647 30.73 30.767 30.823 30.91 30.923 30.995 31.028 31.038 31.085 31.108 31.16 31.17 31.215 31.278 31.273 31.307 31.36 31.392 31.337 31.43 31.515 31.565 31.623 31.688 31.745 31.8 31.833 31.875 31.935 31.987 32.04 32.115 31.952 31.952 32.075 32.048 32.035 31.93 32.05 32.278 32.36 32.33 32.09 32.588 32.86 32.975 33.028 33.075 33.19 33.272 33.325 33.368 33.428 33.498 33.548 33.61 33.693 33.72 33.772 33.807 33.868 33.917 33.967 33.985 34.015 34.035 34.077 34.118 34.132 34.192 34.272 34.375 34.513 34.632 34.787 34.952 35.177 35.395 35.568 35.835 36.2 36.542 36.765 36.838 36.882 36.91 36.955 36.897 36.838 36.792 36.822 36.927 37.01 37.083 37.18 37.26 37.353 37.452 37.54 37.635 39.013 39.18 38.368 38.287 38.475 38.987 40.177 40.1 38.978 39.03 38.96 39.202 39.838 39.5 40.16 39.83 39.482 39.302 39.235 38.735 38.825 38.997 39.357 39.805 40.427 40.627 41.058 41.265 41.518 41.74 42.17 42.23 42.213 41.868 42.515 42.342 42.825 42.978 42.335 41.965 41.467 40.943 40.693 40.693 40.783 40.857 40.92 41.175 41.647 41.103 41.32 41.518 41.38 41.042 41.057 41.158 41.235 42.71 43.368 43.88 43.98 43.662 43.448 44.35 45.905 43.377 43.37 43.368 43.528 43.958 44.178 44.305 43.607 43.323 42.155 41.312 41.35 41.44 41.405 42.397 41.16 41.26 41.087 41.292 41.38 41.003 40.862 40.61 39.875 39.68 39.982 40.12 40.012 39.438 41.69 41.955 40.967 41.27 41.262 41.49 41.528 41.53 41.91 42.452 42.792 42.75 42.5 42.103 41.885 41.498 40.577 40.5 44.127 44.327 48.51 48.545 42.675 41.188 44.165 48.073 48.625 48.838 48.77 47.643 42.577 41.38 41.345 41.327 41.443 42.507 45.96 43.77 42.325 42.118 42.092 41.905 41.57 41.568 42.68 42.647 42.677 42.985 45.238 47.105 49.06 51.368 50.59 50.115 49.625 45.89 43.417 42.84 43.56 43.95 44.417 44.93 45.827 46.688 47.768 52.948 54.408 49.18 46.653 46.56 47.73 48.967 50.083 51.38 52.623 52.795 53.213 53.673 53.735 50.615 49.707 50.88 51.175 51.45 51.808 52.068 52.138 52.572 53.427 54.073 54.645 54.842 54.897 54.952 54.877 54.792 54.77 54.78 54.88 55.24 55.702 55.792 56.16 56.045 56.21 56.513 57.525 58.59 58.445 57.948 57.952 58.237 62.5 63.125 62.995 62.86 62.732 62.59 62.443 62.315 61.73 61.4 60.325 59.938 59.95 60.43 60.67 60.943 62.21 62.998 63.603 64.327 64.277 63.84 64.223 64.48 64.688 64.895 65.058 65.253 65.415 65.613 65.772 65.96 66.107 66.257 66.397 66.57 66.69 66.825 67.015 67.215 67.463 67.707 67.952 68.105 68.26 68.445 68.585 68.723 68.923 69.088 69.245 69.42
27.86 27.775 27.745 27.692 27.695 27.74 27.788 27.795 27.805 27.802 27.805 27.843 27.87 27.91 27.955 27.987 28.045 28.1 28.145 28.19 28.3 28.792 29.092 29.183 29.125 28.873 29.065 28.83 28.507 28.5 28.825 28.945 28.753 28.89 28.995 29.028 29.062 29.123 29.18 29.265 29.37 29.58 30.062 30.138 30.645 32.86 33.475 35.02 32.77 29.327 29.325 29.717 29.747 29.71 29.757 29.798 29.823 29.868 29.885 29.923 29.942 29.983 30.033 30.048 30.1 30.147 30.157 30.16 30.2 30.225 30.23 30.278 30.323 30.372 30.39 30.432 30.475 30.51 30.54 30.577 30.608 30.692 30.715 30.785 30.815 30.892 30.903 30.965 30.983 31.01 31.048 31.06 31.105 31.142 31.193 31.23 31.275 31.323 31.417 31.34 31.42 31.505 31.565 31.627 31.683 31.757 31.812 31.855 31.9 31.943 31.987 32.042 32.073 31.815 32.105 32.165 32.215 32.342 32.32 32.255 32.202 32.268 32.292 32.597 32.945 33.08 33.115 33.147 33.19 33.3 33.365 33.415 33.438 33.513 33.595 33.635 33.765 33.833 33.83 33.845 33.88 33.897 33.917 33.925 33.952 34.002 34.06 34.153 34.27 34.395 34.542 34.7 34.878 35.072 35.302 35.568 35.818 36.085 36.268 36.385 36.478 37.13 37.073 37.097 37.16 37.185 37.215 37.2 37.105 37.045 37.095 37.19 37.27 37.368 37.463 37.568 37.667 37.75 37.85 38.15 38.835 40.458 38.8 39.443 39.09 39.033 39.865 40.388 40.76 40.972 39.963 39.853 39.83 40.275 40.022 39.833 39.787 39.658 39.595 39.54 39.77 39.838 39.993 40.368 40.638 41.182 41.405 41.685 42.195 42.39 42.208 42.675 42.615 43.503 47.265 46.592 42.635 42.658 42.495 42.097 41.658 41.425 41.445 41.737 42.26 42.395 42.335 42.408 42.443 42.912 42.655 42.632 42.4 42.403 42.245 42.128 42.222 42.573 42.903 43.478 43.545 43.935 44.763 45.472 44.37 45.075 44.007 44.022 43.47 43.675 43.528 43.482 43.927 43.603 43.007 42.112 42.243 42.235 42.545 43.053 44.75 44.93 44.615 41.95 42.305 42.045 42.057 41.795 41.432 41.145 40.985 40.825 40.847 40.688 40.088 43.702 42.495 41.287 41.732 41.423 41.715 41.78 41.878 42.4 42.603 42.677 42.677 42.667 43.005 42.403 41.792 40.528 40.63 45.938 48.545 48.778 48.408 42.31 41.312 43.465 45.985 47.18 47.455 47.765 47.305 41.528 41.43 41.39 41.395 41.643 44.448 45.875 44.49 42.012 41.923 42.1 41.772 41.507 41.535 42.125 42.623 42.662 42.662 43.802 47.858 47.16 48.787 49.3 47.415 44.967 43.118 42.815 42.967 43.447 43.752 44.188 44.64 45.2 45.79 46.55 49.405 52.725 50.388 46.522 46.305 47.19 48.86 47.897 48.57 48.503 48.655 50.417 51.295 51.158 48.905 49.417 50.505 50.745 50.945 51.11 51.335 51.522 51.737 52.355 52.927 53.393 53.585 53.693 53.785 54.052 54.335 54.505 54.623 54.715 54.83 54.978 55.198 55.393 55.557 55.845 56.56 57.347 58.287 58.292 58.045 58.028 59.59 63.107 63.208 63.302 63.322 63.22 63.055 62.948 62.82 62.688 62.54 62.4 61.018 59.333 59.66 60.143 60.585 61.755 62.845 63.06 63.43 63.84 63.41 63.33 63.64 63.983 64.26 64.463 64.62 64.82 65.02 65.193 65.368 65.525 65.71 65.838 65.98 66.152 66.292 66.427 66.652 66.908 67.12 67.312 67.488 67.665 67.84 67.972 68.098 68.243 68.435 68.57 68.743
28.013 27.94 27.885 27.815 27.843 27.847 27.865 27.92 27.885 27.872 27.92 27.897 27.93 27.943 27.967 28.005 28.02 28.095 28.163 28.212 28.247 28.305 28.438 28.635 28.955 29.097 29.195 28.68 28.26 28.19 28.465 27.985 28.097 28.3 28.698 28.85 28.705 28.76 29.005 29.28 29.11 29.815 30.267 30.045 30.443 29.95 30.552 31.153 30.625 29.82 29.542 29.577 29.123 29.692 29.72 29.76 29.783 29.8 29.853 29.86 29.91 29.948 29.962 29.985 30.045 30.077 30.095 30.147 30.142 30.175 30.217 30.247 30.288 30.317 30.37 30.417 30.438 30.435 30.472 30.557 30.595 30.622 30.685 30.74 30.785 30.855 30.895 30.917 30.955 30.96 31.013 31.04 31.06 31.105 31.15 31.205 31.237 31.315 31.347 31.35 31.38 31.452 31.545 31.635 31.705 31.765 31.855 31.865 31.775 31.77 31.88 31.987 32.062 31.81 32.048 32.202 32.262 32.312 32.382 32.53 32.728 32.85 32.955 33.04 33.147 33.205 33.24 33.285 33.345 33.458 33.525 33.535 33.522 33.572 33.715 33.822 33.93 33.98 33.893 33.84 33.833 33.853 33.887 33.945 34.055 34.21 34.377 34.568 34.763 35.007 35.23 35.493 35.79 35.998 36.2 36.395 36.542 36.667 36.745 36.823 36.895 36.978 37.178 37.368 37.428 37.438 37.417 37.382 37.395 37.458 37.557 37.63 37.717 37.81 37.903 38.03 38.1 39.737 40.97 38.823 39.088 39.315 40.095 39.783 40.085 40.32 40.197 40.72 40.875 42.115 40.208 40.455 40.522 40.708 40.76 40.78 42.83 41.185 40.79 40.805 40.853 40.835 41.005 41.39 41.79 41.875 42.603 42.62 42.833 42.888 42.415 42.845 43.445 45.448 49.16 48.615 43.58 42.615 42.452 42.077 41.978 42.245 42.56 42.752 42.868 42.833 42.85 42.84 42.873 42.93 42.94 42.95 43.028 42.925 43.03 43.01 42.955 43.057 43.255 43.408 43.915 43.732 44.845 48.02 44.778 43.692 43.688 44.128 43.603 43.565 43.54 43.342 43.295 43.745 43.205 43.11 43.528 43.237 43.15 43.228 44.575 46.107 46.755 44.275 43.103 43.165 43.077 42.862 42.667 42.39 42.11 41.917 41.877 41.833 41.35 43.077 41.752 41.702 41.688 41.675 41.92 41.94 42.1 43.09 42.677 42.765 42.75 42.73 42.713 42.705 42.557 41.85 42.295 47.025 48.202 48.82 47.955 42.632 42.38 41.44 41.43 42.132 42.1 43.868 43.11 41.53 41.493 41.682 42.013 42.083 44.02 45.958 44.19 41.928 42.365 42.007 41.605 41.76 42 42.033 42.6 42.64 42.662 42.667 44.447 45.745 43.362 45.417 43.31 42.755 42.798 42.908 43.455 43.855 43.62 44.002 44.393 44.757 45.12 45.533 46.162 46.392 48.58 46.315 46.073 46.568 50.09 48.287 47.752 47.775 48.14 50.213 50.28 49.347 48.115 49.368 50.147 50.345 50.495 50.65 50.895 51.095 51.333 51.51 51.865 52.217 52.423 52.585 52.762 53.092 53.382 53.705 53.965 54.263 54.438 54.595 54.74 54.83 55.123 55.653 56.843 57.83 57.857 57.8 58.02 58.268 59.665 62.612 62.775 62.905 63.04 63.175 63.263 63.335 63.312 63.228 63.057 62.932 61.005 59.185 59.235 59.438 60.215 61.765 62.638 63.143 63.147 63.217 63.417 63.17 62.71 62.908 63.177 63.507 63.74 64.007 64.632 64.99 65 65.17 65.595 65.325 65.415 65.583 65.74 66.113 66.435 66.36 66.557 66.688 66.878 67.08 67.223 67.355 67.51 67.645 67.775 67.952 68.08
28.17 28.097 28.022 28.003 27.96 27.935 27.99 27.998 27.968 27.97 27.995 27.998 28.025 28.017 28.028 28.033 28.075 28.115 28.155 28.22 28.292 28.333 28.39 28.458 28.53 28.628 28.712 28.827 28.855 28.792 29.033 29.233 28.733 28.112 28.462 28.528 28.88 28.807 28.362 28.565 29.105 28.99 28.87 28.947 30.878 31.618 32.765 31.302 29.292 29.755 29.632 29.603 29.022 29.382 29.67 29.745 29.767 29.785 29.84 29.86 29.892 29.907 29.94 29.975 30.038 30.048 30.085 30.093 30.125 30.15 30.165 30.212 30.265 30.3 30.312 30.415 30.413 30.415 30.467 30.5 30.573 30.59 30.65 30.693 30.717 30.765 30.807 30.855 30.895 30.93 30.99 31.025 31.035 31.073 31.09 31.155 31.202 31.263 31.323 31.302 31.342 31.415 31.525 31.63 31.698 31.798 31.85 31.685 31.765 31.8 31.798 31.85 31.985 31.785 31.94 32.285 32.355 32.423 32.493 32.705 32.875 33.002 33.123 33.213 33.292 33.31 33.34 33.417 33.5 33.548 33.645 33.698 33.662 33.693 33.765 33.847 33.873 33.855 33.84 33.862 33.908 33.998 34.158 34.353 34.622 34.932 35.18 35.405 35.653 35.895 36.105 36.32 36.47 36.618 36.755 36.88 36.98 37.057 37.143 37.213 37.252 37.342 37.568 37.768 37.817 37.688 37.705 37.783 37.855 37.948 38.045 38.12 38.225 38.33 38.427 38.732 39.662 39.632 39.638 39.408 39.57 39.8 39.993 40.103 40.48 40.55 41.607 41.048 42.115 42.303 41.275 41.51 41.823 41.817 41.53 41.588 42.033 41.653 42.22 42.17 42.053 42.14 42.55 42.597 42.728 42.798 42.972 42.92 42.932 42.895 42.63 42.982 44.785 44.397 44.803 46.705 43.682 42.612 42.513 42.7 43.825 43.018 43.022 42.958 42.905 42.903 43.005 42.97 43.028 43.037 43.08 43.147 43.125 43.103 43.155 43.162 43.135 43.132 43.158 43.27 43.33 43.415 43.533 44.2 43.56 43.65 43.647 43.645 43.64 43.603 43.525 43.213 43.245 43.302 43.295 43.318 43.335 43.307 43.338 44 43.887 43.62 43.667 43.208 43.35 43.34 43.3 43.265 43.22 43.232 43.158 42.925 42.927 42.872 42.778 43.005 43.3 43.118 42.577 42.61 42.577 42.658 42.97 43.235 42.835 42.825 42.818 42.802 42.8 42.842 43.195 42.635 42.658 42.825 46.507 48.827 46.912 41.955 41.763 41.69 41.65 41.68 41.643 41.612 41.58 41.588 41.79 42.31 42.23 42.108 42.455 45.81 44.463 42.327 41.67 41.97 42.067 42.145 41.85 41.993 42.195 42.63 42.653 42.665 42.675 42.872 42.705 42.888 42.743 42.815 42.877 42.958 43.057 43.255 43.52 43.838 44.16 44.507 44.812 45.092 45.4 46.165 48.463 46.265 45.818 45.743 49.465 47.805 47.735 47.75 47.743 48.083 48.27 48.077 48.072 49.285 49.785 49.935 50.068 50.222 50.455 50.643 50.84 51.075 51.29 51.47 51.615 51.815 52.097 52.412 52.717 52.955 53.19 53.46 53.725 53.987 54.095 54.45 54.792 55.505 56.52 57.475 57.855 58.005 58.015 57.95 58.217 58.46 60.603 61.06 62.295 62.717 62.908 62.987 63.073 63.193 63.305 63.335 59.877 59.533 59.167 59.268 59.713 61.217 61.355 62.327 62.41 63.055 63.062 63.208 63.385 63.235 62.862 63.11 63.14 63.438 64.63 64.667 64.505 65.065 65.58 65.213 65.48 65.32 65.305 65.845 66.618 66.753 67.067 67.178 66.467 66.435 66.573 66.702 66.86 67.027 67.132 67.272 67.505
28.31 28.208 28.127 28.08 28.033 28.052 28.077 28.073 28.038 28.052 28.073 28.068 28.08 28.093 28.095 28.122 28.145 28.21 28.215 28.253 28.292 28.378 28.423 28.487 28.565 28.618 28.667 28.743 28.795 28.897 29.077 29.097 28.962 29.12 29.655 29.49 29.823 29.885 29.792 28.728 28.725 29.138 29.435 28.775 29.765 30.025 31.458 32.028 29.427 29.587 29.585 30.295 29.593 29.17 29.595 29.715 29.757 29.792 29.833 29.847 29.888 29.9 29.933 29.952 29.995 29.99 30.035 30.075 30.087 30.125 30.157 30.2 30.237 30.288 30.317 30.36 30.387 30.405 30.427 30.475 30.515 30.55 30.59 30.642 30.655 30.715 30.757 30.81 30.858 30.907 30.945 30.987 31.015 31.04 31.04 31.092 31.15 31.212 31.318 31.283 31.34 31.415 31.525 31.632 31.725 31.837 31.833 31.608 31.808 31.932 31.905 31.892 31.853 31.698 32.055 32.452 32.533 32.61 32.747 32.982 33.167 33.275 33.345 33.44 33.498 33.513 33.522 33.562 33.64 33.632 33.68 33.76 33.778 33.857 33.845 33.783 33.815 33.89 34.005 34.19 34.368 34.603 34.917 35.25 35.57 35.83 36.005 36.153 36.355 36.562 36.75 36.827 36.91 37.042 37.137 37.24 37.33 37.432 37.525 37.615 37.708 37.878 38.112 38.135 38.083 38.088 38.202 38.302 38.388 38.49 38.597 38.695 40.05 39.155 39.845 39.423 39.562 39.665 39.853 40.04 40.467 41.728 41.873 41.785 41.317 41.85 42.325 42.205 42.558 42.695 42.44 42.915 42.537 42.732 42.62 43.32 43.61 43.29 44.153 43.658 42.93 42.98 42.938 42.967 43.02 43.002 43.025 43.052 43.04 42.982 42.728 43.025 43.103 43.01 42.942 42.795 42.542 42.55 42.947 43.022 43.03 43.065 43.055 43.05 43.018 42.997 42.9 42.87 42.893 42.917 42.9 42.932 42.92 42.917 42.91 42.915 42.882 42.888 42.897 42.908 42.923 42.94 42.952 42.97 42.975 43.022 43.038 43.105 43.085 43.123 43.118 43.12 43.13 43.147 43.18 43.173 43.188 43.195 43.177 43.17 43.17 43.158 43.165 43.158 43.177 43.228 43.215 43.213 43.228 43.275 43.263 43.21 43.228 43.237 43.092 43.163 43.097 43.23 43.132 43.147 43.02 43.33 43.333 43.217 42.92 42.868 42.895 43.068 42.945 43.735 43.565 43.247 43.61 43.698 45.783 48.873 46.12 42.677 42.253 41.818 41.78 41.823 41.778 41.757 41.732 41.743 42.498 42.865 42.33 42.175 43.118 45.95 44.092 42.193 41.755 41.625 42.118 42.18 41.76 42.037 42.283 42.412 42.65 42.662 42.677 42.68 42.69 42.732 42.792 42.87 42.94 42.972 43.072 43.21 43.445 43.71 43.995 44.292 44.577 44.823 45.075 45.938 51.265 48.353 45.732 45.525 47.005 48.267 47.655 47.713 47.717 47.73 47.73 47.72 47.91 48.885 49.4 49.572 49.708 49.82 50.028 50.213 50.415 50.632 50.845 51.06 51.222 51.335 51.338 51.912 52.283 52.52 52.748 52.97 53.162 53.415 53.708 53.972 54.265 54.93 55.925 56.485 56.653 57.305 57.32 57.005 57.597 58.033 58.27 58.388 58.54 60.105 60.467 61.568 62.533 62.663 62.81 62.4 59.643 59.75 59.14 59.18 59.25 59.57 60.455 60.987 61.39 61.85 61.81 61.603 62.375 63.192 62.78 63.362 63.432 63.222 62.982 63.067 64.07 63.872 63.915 63.827 64.5 65.295 65.7 66.363 66.507 66.963 66.575 65.798 65.647 66.235 65.955 65.97 65.958 66.167 66.452 66.465 66.458
28.438 28.395 28.285 28.195 28.125 28.11 28.145 28.15 28.135 28.122 28.138 28.153 28.15 28.185 28.173 28.22 28.25 28.272 28.302 28.36 28.407 28.46 28.52 28.553 28.612 28.667 28.708 28.757 28.798 28.855 28.91 28.913 28.958 29.007 29.125 29.112 29.23 29.378 29.583 29.327 29.087 29.335 29.525 29.725 29.272 30.612 32.092 30.47 29.4 29.61 29.72 30.25 30.28 29.02 29.555 29.693 29.737 29.778 29.798 29.833 29.855 29.9 29.935 29.95 29.975 30.01 30.048 30.083 30.118 30.132 30.17 30.208 30.25 30.292 30.305 30.327 30.368 30.39 30.435 30.45 30.487 30.51 30.545 30.597 30.642 30.685 30.72 30.795 30.808 30.835 30.872 30.912 30.955 30.995 31.03 31.052 31.115 31.212 31.315 31.327 31.397 31.472 31.577 31.655 31.77 31.812 31.84 31.708 31.603 31.74 31.845 31.84 31.472 32.025 32.525 32.728 32.888 33.048 33.213 33.37 33.488 33.568 33.625 33.725 33.785 33.827 33.838 33.83 33.825 33.775 33.81 33.865 33.862 33.925 33.903 33.935 34.118 34.385 34.662 35.005 35.272 35.562 35.815 36.028 36.213 36.393 36.555 36.783 37.037 37.365 37.45 37.3 37.283 37.405 37.518 37.618 37.732 37.83 37.92 38.052 38.278 38.46 38.49 38.475 38.548 38.66 38.755 38.84 38.952 39.037 39.717 39.357 40.02 39.905 39.825 40.24 40.408 40.463 40.67 41.08 41.597 43.07 43.125 42.872 42.87 43.482 44.037 43.522 43.018 43.393 43.533 43.427 43.073 43.217 43.612 43.757 43.57 44.083 44.075 43.462 43.41 43.39 43.247 43.23 43.208 43.162 43.15 43.205 43.112 43.03 42.792 43.115 43.115 43.01 42.855 42.597 42.495 42.53 42.72 42.743 42.722 42.743 42.68 42.71 42.72 42.73 42.76 42.79 42.815 42.847 42.868 42.888 42.912 42.92 42.93 42.943 42.95 42.958 42.97 42.982 43.013 43.02 43.042 43.062 43.085 43.123 43.143 43.167 43.198 43.215 43.23 43.252 43.268 43.272 43.292 43.3 43.307 43.318 43.315 43.295 43.287 43.28 43.268 43.263 43.26 43.252 43.245 43.24 43.225 43.222 43.205 43.193 43.173 43.145 43.115 43.103 43.088 43.062 43.075 43.042 43.017 42.99 42.998 42.95 42.93 42.912 42.927 42.93 42.935 42.94 43.265 43.583 43.243 43.16 46.202 48.675 45.55 44.423 44.765 42.403 41.915 42.055 41.952 41.895 41.897 42.062 42.5 43.18 42.858 42.355 42.533 45.67 43.79 42.287 42.04 41.908 42.1 42.217 42.28 42.263 43.393 42.325 42.74 42.658 42.708 42.695 42.708 42.752 42.775 42.89 42.965 43.02 43.083 43.22 43.385 43.625 43.887 44.132 44.38 44.618 44.855 46.283 50.955 51.232 47.458 45.303 46.065 48.312 47.548 47.623 47.662 47.69 47.697 47.697 47.76 48.52 49.035 49.202 49.335 49.455 49.61 49.803 49.987 50.185 50.382 50.56 50.73 50.885 51.12 51.55 51.862 52.06 52.285 52.518 52.75 53.028 53.3 53.53 53.8 54.21 55.35 55.802 55.987 56.325 56.033 55.665 56.217 56.792 57.37 57.938 58.272 58.572 58.528 58.612 59.035 60.747 61.225 60.682 59.24 59.35 59.062 59.127 59.21 59.257 59.345 59.417 59.638 59.88 60.04 60.175 60.353 60.625 60.728 61.09 62.375 62.685 62.522 62.132 62.932 63.497 63.463 63.903 64.152 64.597 64.507 65.36 64.988 65.85 65.585 65.327 65.07 65.66 66.275 66.445 65.382 65.162 65.28 65.44 65.445
28.505 28.487 28.385 28.312 28.243 28.208 28.233 28.23 28.225 28.198 28.198 28.243 28.24 28.243 28.278 28.318 28.31 28.372 28.413 28.452 28.54 28.587 28.64 28.715 28.705 28.747 28.763 28.802 28.858 28.897 28.94 28.96 28.958 28.965 29.005 29.038 29.105 29.175 29.122 29.122 29.195 29.35 30.237 30.048 29.827 30.805 31.893 32.257 29.53 29.59 29.708 30.09 30.362 29.263 29.475 29.655 29.413 29.58 29.725 29.755 29.79 29.865 29.92 29.962 29.99 30.025 30.045 30.075 30.112 30.157 30.167 30.212 30.233 30.257 30.3 30.335 30.358 30.405 30.395 30.44 30.45 30.483 30.525 30.57 30.612 30.657 30.695 30.75 30.773 30.812 30.875 30.913 30.958 31.01 31.095 31.18 31.29 31.362 31.427 31.452 31.56 31.632 31.695 31.725 31.725 31.718 31.725 31.775 31.665 31.49 31.505 31.47 32.05 32.77 32.958 33.145 33.283 33.4 33.518 33.638 33.728 33.805 33.83 33.932 33.967 33.97 33.958 33.947 33.945 33.95 34.007 34.07 34.183 34.353 34.48 34.725 34.967 35.345 35.658 35.877 36.037 36.215 36.377 36.5 36.693 36.903 37.197 37.583 38.005 38.158 38.158 37.9 37.692 37.798 37.935 38.057 38.17 38.295 38.458 38.713 38.795 38.763 38.812 38.955 39.075 39.177 39.667 39.5 40.545 41.565 40.057 40.013 40.237 40.655 41.173 41.045 41.385 41.573 41.772 42.285 42.417 42.785 42.638 42.958 43.342 44.175 43.89 44.438 43.58 43.498 43.612 44.515 43.772 43.708 43.748 43.875 43.83 44.022 43.638 43.58 43.54 43.903 43.425 43.347 43.305 43.243 43.155 43.132 43.045 42.88 42.685 42.585 42.645 42.577 42.533 42.545 42.577 42.607 42.645 42.683 42.71 42.737 42.76 42.778 42.783 42.805 42.827 42.857 42.89 42.905 42.932 42.967 42.965 43.035 43.013 43.058 43.04 43.083 43.083 43.125 43.195 43.295 43.257 43.252 43.292 43.268 43.342 43.298 43.342 43.355 43.445 43.37 43.53 44.077 44.805 43.39 43.395 43.393 43.382 43.365 43.353 43.347 43.35 43.34 43.34 43.33 43.32 43.312 43.29 43.287 43.283 43.275 43.25 43.232 43.208 43.202 43.165 43.145 43.12 43.118 43.1 43.083 43.068 43.062 43.06 43.055 43.045 43.042 43.045 43.018 43.003 42.983 42.94 42.917 43.592 44.522 43.853 43.123 43.735 42.74 42.635 42.51 42.545 42.02 41.985 42.225 42.568 42.595 42.56 43.165 42.83 45.365 43.247 42.443 42.205 42.915 43.465 43.06 42.268 41.938 42.165 42.588 42.908 42.728 42.738 42.75 42.752 42.765 42.783 42.903 42.998 43.06 43.127 43.23 43.38 43.56 43.783 43.995 44.228 44.452 44.66 44.842 49.545 50.92 51.215 46.44 45.057 47.97 47.533 47.54 47.592 47.632 47.658 47.665 47.702 48.105 48.713 48.822 48.93 49.092 49.252 49.427 49.612 49.805 49.97 50.107 50.268 50.482 50.738 51.077 51.423 51.653 51.835 52.105 52.393 52.645 52.85 53.085 53.357 53.59 54.382 54.868 55.408 55.345 54.915 54.82 55.132 55.537 55.997 56.485 57.1 57.72 58.08 58.298 58.61 58.885 59.067 58.817 58.923 58.88 58.945 59.025 59.073 59.11 58.978 58.897 59.083 59.272 59.48 59.658 59.808 59.983 60.14 60.307 60.505 60.78 60.935 61.605 62.52 62.235 62.698 62.873 63.2 63.988 64.348 64.285 63.243 63.627 64.435 65.162 64.292 64.83 65.51 65.225 65.353 64.622 65.548 64.662 64.4
28.485 28.562 28.545 28.455 28.372 28.345 28.35 28.355 28.318 28.298 28.305 28.285 28.337 28.34 28.352 28.41 28.412 28.452 28.545 28.58 28.653 28.728 28.765 28.825 28.875 28.882 28.917 28.913 28.915 28.938 28.98 28.98 28.985 28.977 29.022 29.06 29.103 29.11 29.09 29.115 29.157 29.222 29.673 30.85 31.502 30.26 31.25 30.45 29.43 29.642 29.712 29.873 31.03 30.05 29.305 29.493 29.05 29.18 29.6 29.693 29.782 29.808 29.94 29.983 30.015 30.028 30.048 30.093 30.115 30.142 30.17 30.185 30.21 30.257 30.285 30.305 30.33 30.355 30.347 30.388 30.44 30.483 30.53 30.59 30.632 30.683 30.735 30.747 30.792 30.835 30.868 30.927 31.03 31.15 31.237 31.378 31.163 31.185 31.448 31.533 31.605 31.712 31.755 31.585 31.392 31.343 31.39 31.462 31.573 31.948 32.077 32.615 32.975 33.145 33.27 33.397 33.513 33.625 33.73 33.833 33.897 33.945 33.915 33.927 33.98 33.99 33.985 34.02 34.182 34.43 34.71 34.963 35.143 35.388 35.505 35.683 35.845 36.062 36.425 36.34 36.475 36.608 36.752 36.94 37.312 37.743 37.98 38.417 38.838 38.665 38.605 38.388 39.347 38.278 38.41 38.53 38.667 38.82 39.112 39.127 39.077 39.19 39.382 39.51 39.635 40.713 41.713 40.735 40.257 40.545 40.74 41.018 41.838 41.888 41.958 42.243 42.357 42.555 42.618 42.873 43.182 43.385 43.53 43.798 43.965 44.322 44.423 44.482 44.033 43.948 43.923 43.928 44.173 43.765 43.722 43.85 43.802 43.607 43.507 43.373 43.305 43.178 43.135 43.06 42.975 42.88 42.768 42.662 42.63 42.595 42.58 42.577 42.59 42.605 42.618 42.64 42.655 42.692 42.725 42.75 42.772 42.823 42.885 43.112 43.21 43.485 43.755 44.147 44.295 44.655 44.822 44.982 44.83 45.028 45.013 45.04 44.93 44.905 45.05 45.435 45.438 45.092 45.245 45.493 45.487 45.833 45.518 45.865 45.46 45.708 46.305 46.135 45.908 48.278 48.595 47.37 45.243 46.853 44.73 46.737 45.275 44.31 44.535 44.135 44.13 44.11 45.265 45.95 44.05 44.747 44.97 43.555 43.47 43.412 43.335 43.373 43.255 43.228 43.23 43.22 43.188 43.193 43.257 43.173 44.155 43.143 43.222 43.323 43.83 43.09 43.075 43.048 43.037 43 42.978 42.935 42.897 42.85 42.79 42.748 42.702 42.87 42.75 42.88 42.81 42.89 42.795 42.62 42.597 43.09 42.842 45.667 43.447 42.482 42.822 42.595 43.028 42.107 42.24 42.31 43.143 44.83 42.818 42.713 42.75 42.79 42.807 42.765 42.757 42.88 43.007 43.065 43.155 43.255 43.38 43.528 43.678 43.885 44.092 44.287 44.48 44.653 47.868 50.725 50.408 45.41 44.87 47.182 47.667 47.44 47.485 47.55 47.55 47.588 47.61 47.835 48.333 48.467 48.592 48.725 48.885 49.075 49.23 49.412 49.603 49.725 49.88 50.073 50.365 50.702 50.99 51.158 51.435 51.717 51.94 52.158 52.388 52.615 52.845 53.088 53.255 53.503 53.853 54.005 54.155 54.35 54.573 54.79 55.013 55.29 55.78 56.812 57.597 57.443 57.585 58.562 59.132 58.7 58.575 58.625 58.768 58.838 58.932 58.908 58.447 58.395 58.577 58.74 58.925 59.092 59.243 59.417 59.618 59.772 59.923 60.11 60.283 60.44 60.702 60.8 61.04 61.153 61.365 61.988 62.235 63.712 64.213 62.862 64.125 63.967 64.202 64.363 64.485 64.36 64.842 64.808 63.823 64.393 63.903
28.315 28.433 28.555 28.568 28.6 28.503 28.513 28.485 28.435 28.425 28.39 28.405 28.4 28.44 28.465 28.48 28.528 28.555 28.642 28.705 28.767 28.873 28.94 29.022 29.038 29.052 29.068 29.057 29.038 29.007 29.038 29.007 29.045 29.022 29.062 29.105 29.11 29.108 29.11 29.12 29.15 29.155 29.26 30.245 31.49 29.968 31.905 30.478 29.46 29.733 29.837 30.068 30.945 30.688 29.44 29.298 29.24 29.522 29.407 29.705 29.8 29.835 29.932 30 29.898 29.863 30.065 30.077 30.097 30.108 30.14 30.153 30.19 30.23 30.263 30.312 30.358 30.365 30.408 30.435 30.462 30.497 30.542 30.557 30.615 30.663 30.717 30.763 30.795 30.84 30.888 30.978 31.153 31.288 31.39 31.975 30.833 30.862 31.57 32.042 31.905 33.533 31.69 31.235 31.483 31.785 32.048 32.285 32.503 32.735 32.943 33.13 33.272 33.377 33.48 33.605 33.728 33.82 33.87 33.89 33.895 33.893 33.878 33.903 33.978 34.202 34.445 34.778 35.037 35.29 35.542 35.69 35.838 35.945 36.513 36.193 36.27 36.397 36.522 36.665 36.818 37.002 37.31 37.64 38.333 39.022 38.76 38.522 38.857 38.72 38.903 38.952 38.855 38.775 38.915 39.065 39.307 39.482 39.458 39.43 39.638 39.783 40.463 41.145 41.08 41.127 40.688 40.915 41.118 41.515 42.01 42.583 42.355 43.135 43.04 43.162 43.303 43.403 43.52 43.665 43.83 43.938 44.048 44.192 44.208 44.213 44.257 44.78 44.095 43.978 43.9 43.798 43.787 43.667 43.623 43.48 43.423 43.268 43.14 43.075 43.042 43.007 42.952 42.91 42.875 42.833 42.79 42.753 42.73 42.697 42.685 42.68 42.68 42.69 42.702 42.715 42.73 42.84 43.12 43.597 44.26 44.688 45.162 45.35 45.715 46.092 46.12 46.318 45.865 45.85 46.198 45.905 46.015 46.175 46.18 46.25 46.355 46.458 46.22 46.385 46.557 46.51 46.6 46.55 46.57 46.798 46.713 46.865 46.983 46.75 47.55 47.853 47.54 46.842 47.755 48.465 46.9 46.862 47.317 47.947 48.16 47.225 47.688 47.083 46.3 46.618 47.605 47.82 47.295 47.205 50.222 46.995 47.375 45.647 45.735 45.095 46.48 44.51 47.908 46.702 45.403 45.118 46.74 47.088 49.81 45.665 45.86 46.162 45.73 49.105 47.268 48.79 46.64 44.413 43.75 43.263 43.245 45.147 43.165 42.833 42.802 42.768 42.728 42.693 42.673 42.647 42.868 42.763 42.85 42.61 43.357 45.353 43.888 42.92 43.237 42.615 44.192 43.11 42.28 42.345 42.38 42.667 42.705 42.737 42.86 42.833 42.833 42.8 42.795 42.862 42.997 43.058 43.14 43.253 43.345 43.943 44.13 43.77 43.99 44.14 44.32 44.478 47.003 46.517 46.388 44.64 44.693 46.61 48.053 47.308 47.373 47.43 47.447 47.48 47.513 47.688 47.972 48.075 48.24 48.35 48.522 48.708 48.885 49.045 49.198 49.353 49.498 49.72 50.02 50.35 50.555 50.783 51.075 51.29 51.475 51.715 51.952 52.167 52.38 52.618 52.847 53.048 53.3 53.513 53.7 53.903 54.105 54.31 54.498 54.74 54.947 55.158 55.638 56.075 56.5 57.612 58.235 58.283 57.493 57.498 57.938 58.32 58.525 58.335 57.807 57.85 58.025 58.19 58.373 58.545 58.697 58.888 59.062 59.228 59.382 59.537 59.71 59.88 60.03 60.222 60.368 60.52 60.67 60.85 61.018 61.215 61.905 62.342 63.287 63.405 62.972 63.44 64.052 64.205 64.208 64.183 64.335 64.568 63.268
28.555 28.405 28.373 28.455 28.528 28.603 28.62 28.608 28.625 28.565 28.528 28.558 28.522 28.54 28.59 28.615 28.638 28.638 28.708 28.83 28.913 28.987 29.068 29.13 29.23 29.198 29.173 29.118 29.118 29.083 29.048 28.995 29.04 29.045 29.083 29.112 29.138 29.145 29.135 29.153 29.17 29.195 29.257 29.388 31.132 30.448 30.92 30.78 29.605 29.745 29.855 29.943 30.153 30.347 30.2 29.21 29.362 29.663 29.608 29.345 29.622 29.75 29.667 29.625 29.66 29.507 29.745 29.987 30.06 30.1 30.135 30.18 30.212 30.25 30.263 30.29 30.312 30.35 30.36 30.39 30.417 30.472 30.493 30.535 30.557 30.618 30.705 30.773 30.812 30.875 30.955 31.11 31.215 31.267 31.153 31.23 31.14 30.978 32.245 33.362 35.19 33.073 31.292 31.693 32.065 32.333 32.575 32.82 32.967 33.143 33.312 33.393 33.49 33.585 33.692 33.79 33.835 33.86 33.875 33.888 33.923 34.01 34.195 34.338 34.58 35.03 35.29 35.465 35.665 35.885 35.987 36.02 36.135 36.245 36.353 36.475 36.608 36.74 36.875 37.045 37.305 37.665 37.915 38.057 38.373 38.335 38.335 38.438 38.615 38.83 39.06 39.287 39.395 39.373 39.572 39.717 39.755 39.71 39.755 40.068 40.455 40.552 41.368 41.472 41.025 41.298 41.575 42.007 42.175 42.643 43.005 43.347 43.565 43.795 43.89 43.888 43.857 43.94 43.98 44.052 44.09 44.155 44.69 44.597 44.22 44.278 44.662 44.158 43.838 43.83 43.685 43.597 43.49 43.385 43.345 43.315 43.28 43.25 43.24 43.215 43.162 43.105 43.045 43.002 42.945 42.91 42.875 42.842 42.842 42.808 42.795 42.783 42.82 42.84 43.175 43.515 44.14 44.787 45.135 45.59 45.56 45.967 45.695 45.903 46.278 46.01 46.158 46.083 45.967 46.025 46.077 46.12 46.167 46.225 46.278 46.317 46.362 46.415 46.467 46.513 46.553 46.618 46.68 46.748 46.8 46.868 46.932 46.97 47.017 47.015 47.842 47.045 47.048 47.49 47.75 47.897 48.15 47.952 48.37 48.173 48.688 48.295 48.443 49.042 49.002 48.565 49.17 47.802 48.138 48.537 47.927 50.585 47.91 47.463 49.095 47.23 48.188 46.745 47.748 48.725 49.53 50.065 46.76 48.292 48.452 46.79 46.752 46.717 46.882 46.875 46.665 46.36 46.355 46.23 45.835 45.52 44.817 44.147 43.46 43.31 42.905 42.825 42.8 42.772 42.74 42.725 42.702 42.698 42.678 42.645 42.645 42.673 42.75 43.23 43.625 43.153 44.132 43.158 42.37 45.135 42.888 42.495 42.615 43.978 43.695 42.895 42.897 42.89 43.177 42.888 42.967 43.035 43.118 43.213 43.325 43.65 43.812 43.715 43.877 44.035 44.188 44.3 45.217 46.1 46.27 44.455 44.525 45.48 48.35 47.178 47.263 47.325 47.368 47.403 47.405 47.518 47.615 47.725 47.873 47.985 48.17 48.333 48.515 48.675 48.823 48.943 49.112 49.345 49.688 49.95 50.177 50.44 50.647 50.842 51.065 51.32 51.537 51.775 51.993 52.165 52.373 52.595 52.838 53.06 53.257 53.465 53.658 53.84 54.04 54.228 54.447 54.658 54.875 55.08 55.245 55.478 56.165 56.59 56.265 56.368 56.597 56.95 57.228 57.19 57.13 57.32 57.498 57.667 57.857 58.015 58.208 58.345 58.522 58.722 58.865 59.015 59.177 59.325 59.478 59.662 59.812 59.958 60.105 60.248 60.397 60.553 60.897 62.245 62.778 62.165 62.96 63.735 62.647 63.52 63.375 63.643 62.948 62.808 62.67
28.89 28.698 28.552 28.415 28.388 28.487 28.573 28.645 28.698 28.685 28.673 28.705 28.692 28.645 28.688 28.765 28.733 28.775 28.808 28.913 28.975 29.038 29.138 29.227 29.312 29.26 29.21 29.097 29.077 29.058 28.958 28.95 28.99 29.015 29.073 29.097 29.142 29.16 29.177 29.233 29.217 29.237 29.295 29.403 30.292 30.485 30.835 29.81 30.052 30.228 30.245 30.15 30.028 30.042 29.932 29.505 29.618 29.715 29.85 29.818 29.435 29.478 29.535 29.783 29.86 29.88 29.632 29.783 29.995 30.087 30.1 30.142 30.175 30.175 30.2 30.22 30.26 30.285 30.325 30.335 30.378 30.44 30.487 30.49 30.545 30.62 30.695 30.775 30.892 30.995 31.108 31.06 31.022 31.042 30.997 31.282 31.485 31.285 31.55 31.743 32.198 31.892 32.048 32.315 32.573 32.823 33.03 33.162 33.245 33.35 33.49 33.607 33.677 33.755 33.81 33.838 33.865 33.857 33.903 34.088 34.333 34.615 34.947 35.188 35.368 35.558 35.685 35.823 36.105 36.202 36.315 36.305 36.425 36.542 36.685 36.817 36.963 37.092 37.27 37.515 37.785 38.077 38.085 38.228 38.338 38.41 38.588 38.78 38.95 39.095 39.27 39.55 39.785 40.183 40.065 40.04 39.998 40.075 40.972 41.607 40.945 41.283 41.495 41.81 42.095 42.303 42.625 42.943 43.382 43.643 43.735 43.94 44.07 44.088 44.268 44.003 43.952 44.09 44.097 43.888 43.92 43.925 43.917 43.873 43.823 43.765 43.695 43.673 43.643 43.62 43.59 43.558 43.522 43.485 43.44 43.395 43.37 43.353 43.347 43.388 44.055 44.01 44.175 44.272 44.265 44.302 44.507 44.545 44.588 44.588 44.49 44.743 44.318 44.715 44.912 45.073 45.445 45.488 45.76 45.61 45.658 45.743 45.835 45.895 45.943 46.007 46.077 46.125 46.155 46.222 46.27 46.323 46.395 46.455 46.505 46.57 46.638 46.688 46.753 46.785 46.845 46.893 46.955 47 47.053 47.125 47.18 47.245 47.325 47.342 48.248 47.885 47.403 47.757 47.693 48.325 48.643 48.628 48.495 48.425 48.252 48.498 48.96 49.57 49.525 49.177 48.79 48.878 49.07 49.433 49.557 49.925 49.045 48.93 49.417 49.493 48.772 48.173 48.04 47.865 47.63 47.42 47.387 47.327 47.22 47.655 47.173 47.092 47.757 47.333 47.16 46.847 46.998 46.615 46.53 46.32 46.057 45.95 45.592 45.44 45.287 44.5 43.995 43.443 42.895 42.963 43.04 42.747 43.995 45.245 42.735 42.743 42.725 42.7 42.71 42.75 43.08 42.75 42.325 44.248 44.8 43.08 42.86 44.062 43.557 42.948 43 42.868 42.855 42.862 42.925 42.98 43.08 43.153 43.272 43.408 43.548 43.695 43.792 43.93 44.057 44.165 44.265 45.232 46.925 44.733 44.397 45.322 49.615 46.985 47.11 47.162 47.357 47.635 47.722 47.34 47.283 47.357 47.452 47.615 47.802 47.958 48.14 48.305 48.425 48.557 48.72 48.967 49.287 49.577 49.877 50.065 50.23 50.458 50.677 50.888 51.115 51.318 51.537 51.747 51.975 52.178 52.378 52.583 52.8 53.02 53.208 53.388 53.575 53.78 53.972 54.182 54.39 54.58 54.762 54.963 55.162 55.35 55.55 55.728 55.925 56.09 56.295 56.438 56.583 56.778 56.955 57.13 57.303 57.455 57.635 57.787 57.958 58.135 58.315 58.478 58.618 58.755 58.912 59.065 59.228 59.385 59.53 59.677 59.83 59.965 60.417 62.03 62.17 61.007 61.235 61.01 60.967 61.13 61.272 61.417 61.597 61.827 61.993
29.307 29.12 28.875 28.69 28.513 28.458 28.472 28.515 28.603 28.677 28.725 28.745 28.772 28.765 28.79 28.827 28.823 28.868 28.895 28.96 28.993 29.06 29.13 29.215 29.235 29.198 29.15 29.045 29 28.99 28.962 29.007 29.052 29.087 29.14 29.18 29.222 29.233 29.263 29.288 29.28 29.335 29.378 29.472 30.122 30.052 31.122 29.855 29.935 30.02 30.023 30.1 30.205 30.275 30.345 30.413 30.355 29.882 29.818 29.86 29.89 29.77 29.892 29.915 29.862 29.905 29.95 29.69 29.693 30.08 30.06 30.08 30.118 30.145 30.165 30.182 30.19 30.247 30.31 30.32 30.355 30.44 30.515 30.573 30.638 30.71 30.755 30.808 30.955 31.02 31.56 32.13 31.15 31.233 31.36 31.513 31.597 31.677 31.772 31.968 32.083 32.25 32.448 32.728 32.943 33.107 33.257 33.375 33.455 33.558 33.655 33.713 33.768 33.8 33.84 33.865 33.908 34.1 34.47 34.77 35 35.315 35.372 35.562 35.725 35.845 36.342 36.2 36.213 36.197 36.36 36.62 36.75 36.897 37.05 37.188 37.35 37.51 37.662 37.85 38.02 38.682 38.778 38.595 38.65 38.822 39.07 39.335 39.537 39.675 39.802 39.965 40.09 40.215 40.197 40.252 40.938 41.67 41.498 42.48 42.18 42.86 42.827 42.91 43.073 43.292 43.537 43.67 43.823 43.833 43.858 43.875 43.945 43.965 43.925 43.713 43.735 43.737 43.63 43.645 43.675 43.717 43.765 43.805 43.835 43.823 43.787 43.75 43.715 43.658 43.615 43.588 43.55 44.095 45.785 49.03 47.458 45.122 43.567 43.833 44.792 45.695 45.465 45.55 45.575 45.58 45.458 45.452 45.685 45.528 45.49 45.525 45.618 45.54 45.548 45.588 45.628 45.675 45.715 45.79 45.89 45.978 46.052 46.125 46.202 46.285 46.34 46.4 46.447 46.513 46.577 46.638 46.713 46.78 46.835 46.908 46.955 47.015 47.073 47.128 47.182 47.228 47.272 47.327 47.368 47.403 47.458 47.505 47.573 47.635 48.335 48.13 47.99 48.268 50.048 49.838 50.89 50.125 49.83 50.035 49.452 49.535 47.982 48.525 49.357 50.06 48.625 48.365 48.573 48.827 49.002 49.162 49.423 49.743 49.45 49.43 49.21 49.103 50.55 49.143 48.065 48.225 48.5 48.65 48.342 47.757 47.557 47.342 47.725 47.522 47.285 47.145 47.19 47.035 47.677 47.143 46.522 46.472 46.162 46.065 45.897 45.825 45.445 45.26 44.75 45.46 45.062 47.025 48.305 43.4 43.125 42.762 42.78 42.79 42.78 42.763 42.735 42.717 42.722 42.725 42.725 42.88 43.077 42.56 42.82 42.895 43.155 42.855 43.535 43.165 42.963 42.94 43.018 43.507 43.993 43.51 43.49 43.623 43.735 43.807 43.927 44.035 44.643 46.692 49.128 46.448 44.275 45.035 47.79 46.205 47.6 47.435 47.507 47.53 47.66 47.03 46.897 46.982 47.103 47.285 47.432 47.592 47.763 47.92 48.073 48.195 48.377 48.65 48.925 49.222 49.518 49.658 49.882 50.107 50.305 50.533 50.725 50.923 51.107 51.318 51.54 51.755 51.965 52.17 52.355 52.55 52.778 52.952 53.147 53.335 53.522 53.71 53.885 54.068 54.257 54.447 54.665 54.835 55.007 55.217 55.423 55.588 55.755 55.932 56.097 56.25 56.43 56.605 56.765 56.917 57.075 57.22 57.382 57.562 57.728 57.862 58.022 58.182 58.333 58.493 58.665 58.805 58.943 59.095 59.228 59.387 60.017 61.472 61.27 60.862 60.177 60.263 60.38 60.542 60.693 60.858 61.01 61.193 61.41
29.645 29.56 29.355 29.17 28.885 28.757 28.673 28.567 28.505 28.538 28.55 28.548 28.565 28.655 28.725 28.775 28.78 28.837 28.882 28.987 28.987 29.007 29.142 29.358 29.37 29.295 29.17 28.93 28.945 28.943 29.023 29.155 29.225 29.248 29.263 29.29 29.345 29.38 29.405 29.382 29.41 29.423 29.465 29.51 29.98 30.733 32.362 29.907 29.99 30.042 30.06 30.092 30.1 30.105 30.12 30.132 30.24 30.375 29.903 29.885 29.913 29.965 29.977 29.978 29.993 30.02 30.055 30.022 29.933 29.755 29.835 30.042 30.083 30.103 30.11 30.132 30.185 30.27 30.353 30.438 30.485 30.62 30.72 30.778 30.808 30.818 30.87 30.917 31.017 33.533 30.838 32.783 31.395 31.467 31.565 31.675 31.765 31.872 32.007 32.213 32.405 32.638 32.845 33.015 33.167 33.285 33.41 33.525 33.607 33.68 33.722 33.79 33.847 33.835 33.912 34.173 34.513 34.85 35.135 35.235 35.408 35.645 35.622 35.787 35.965 36.1 36.417 36.335 36.46 36.585 36.763 36.923 37.083 37.24 37.392 37.565 37.74 37.945 38.17 38.388 38.688 38.77 38.798 38.978 41.36 42.36 39.487 40.067 40.27 40.353 40.485 40.465 40.382 40.377 40.63 41.29 42.452 42.768 42.982 43.382 43.93 43.99 43.728 43.43 43.997 43.452 43.497 43.522 43.653 43.685 43.535 43.51 43.415 43.408 43.46 43.518 43.567 43.622 43.66 43.705 43.737 43.78 43.823 43.853 43.875 43.878 43.842 44.965 45.16 44.888 44.092 43.747 43.78 45.482 48.127 50.298 50.303 46.755 43.812 43.808 45.153 46.128 46.315 45.795 46.162 45.605 45.635 45.632 45.653 45.682 45.702 45.71 45.735 45.763 45.795 45.835 45.875 45.925 46.007 46.09 46.173 46.255 46.37 46.45 46.525 46.592 46.643 46.722 46.778 46.818 46.89 46.932 46.995 47.07 47.127 47.188 47.25 47.312 47.357 47.42 47.465 47.53 47.562 47.612 47.673 47.732 47.775 47.808 47.87 47.987 48.567 48.495 48.62 49.24 51.085 50.963 50.915 50.882 50.518 50.923 50.948 50.95 47.917 48.057 49.068 49.292 48.57 48.365 48.39 48.482 48.62 48.74 48.89 49.072 49.097 49.138 49.31 49.47 49.555 49.272 49.2 49.5 49.253 49.45 49.625 48.908 48.975 47.885 48.143 47.805 47.713 47.57 47.558 47.785 48.353 48.11 46.985 46.932 46.522 46.395 46.5 46.505 46.362 46.285 46.015 45.645 45.423 45.382 46.128 45.197 44.855 44.445 43.91 44.075 42.823 42.812 42.818 42.815 42.827 42.835 42.83 42.84 42.847 42.845 42.845 42.835 42.818 42.993 42.925 43.09 43.327 43.2 43.132 46.245 46.105 45.595 43.49 43.518 43.647 43.732 43.785 43.908 44.083 45.228 45.16 44.213 44.175 44.357 47.165 45.938 48.315 48.372 47.995 47.318 47.28 46.693 46.535 46.66 46.78 46.928 47.088 47.25 47.397 47.535 47.66 47.815 48.037 48.355 48.585 48.868 49.123 49.325 49.52 49.745 49.95 50.155 50.36 50.553 50.73 50.93 51.127 51.347 51.555 51.762 51.97 52.127 52.338 52.512 52.688 52.895 53.07 53.25 53.425 53.612 53.787 53.965 54.165 54.345 54.548 54.73 54.905 55.115 55.27 55.412 55.597 55.745 55.888 56.08 56.22 56.368 56.533 56.68 56.827 56.998 57.17 57.29 57.43 57.595 57.717 57.872 58.042 58.202 58.335 58.482 58.643 58.76 59.562 61.257 60.452 59.812 59.55 59.655 59.785 59.927 60.045 60.188 60.362 60.52 60.71
29.798 29.765 29.735 29.638 29.46 29.267 29.128 29.007 28.93 28.808 28.745 28.642 28.58 28.635 28.625 28.65 28.67 28.64 28.677 28.763 28.798 29.033 29.132 29.592 29.907 29.87 29.49 29.04 29.188 29.142 29.347 29.405 29.425 29.417 29.45 29.465 29.538 29.695 29.728 29.708 29.635 29.597 29.59 29.58 30.188 33.195 33.577 30.427 30.042 30.11 30.13 30.153 30.177 30.177 30.185 30.188 30.202 30.575 30.155 29.965 29.962 29.978 30.005 30.02 30.025 30.057 30.065 30.075 30.06 30.087 29.9 29.792 30.048 30.18 30.148 30.17 30.208 30.3 30.42 30.573 30.658 30.735 30.862 30.897 30.767 30.878 30.923 30.885 30.812 32.107 30.995 31.26 31.478 31.585 31.695 31.778 31.903 32.065 32.285 32.57 32.795 32.97 33.11 33.255 33.388 33.472 33.577 33.627 33.685 33.747 33.812 33.86 33.932 34.213 34.585 34.885 35.135 35.265 35.408 35.465 35.588 35.715 35.855 36.012 36.19 36.35 36.435 36.575 36.737 36.91 37.103 37.28 37.463 37.64 37.835 38.025 38.268 38.603 38.877 39.118 39.39 39.432 40.235 44.51 45.478 45.17 41.635 40.915 41.2 41.18 41.05 40.822 40.655 41.04 41.713 42.463 43.757 43.917 44.485 44.08 43.677 43.935 43.54 43.312 43.323 43.32 43.32 43.237 43.255 43.503 43.32 43.368 43.417 43.478 43.522 43.565 43.61 43.643 43.677 43.715 44.06 44.605 45.875 46.507 45.845 46.095 45.702 45.36 45.292 45.295 44.728 43.993 44.005 45.355 47.938 50.162 50.465 47.028 44.555 43.478 45.327 46.432 46.597 46.15 46.16 45.845 45.85 45.865 45.888 45.93 45.947 45.987 46.018 46.06 46.103 46.138 46.202 46.237 46.302 46.4 46.465 46.552 46.635 46.732 46.805 46.87 46.938 47 47.065 47.123 47.205 47.278 47.33 47.405 47.475 47.537 47.632 47.662 47.725 47.767 47.83 47.873 47.915 47.96 48.013 48.07 48.11 48.145 48.197 48.345 48.717 48.877 48.635 49.485 51.19 51.112 51.057 51.045 51.06 51.075 51.095 51.11 47.975 48.015 48.14 48.253 48.275 48.368 48.478 48.63 48.737 48.857 48.97 49.02 49 49.033 49.042 49.04 49.058 49.112 49.185 49.253 49.26 49.312 49.307 49.298 49.513 49.272 50.17 49.275 48.963 48.503 48.605 49.17 48.408 48.338 47.875 47.637 47.19 46.94 46.875 46.58 46.433 46.355 46.27 45.917 45.585 45.57 45.53 45.513 45.495 45.26 44.562 43.93 43.252 43.042 42.927 42.877 42.875 42.885 42.888 42.89 42.9 42.9 42.912 42.91 42.9 42.897 42.838 42.76 42.72 42.765 43.033 44.535 45.768 44.48 43.695 43.43 43.705 43.908 43.75 43.805 44.403 44.107 43.99 43.97 44.08 44.443 46.377 46.327 49.245 49.083 48.925 48.682 48.217 46.175 46.235 46.34 46.48 46.612 46.775 46.938 47.06 47.195 47.338 47.518 47.74 47.985 48.17 48.33 48.605 48.855 49.122 49.382 49.592 49.792 49.972 50.165 50.368 50.548 50.753 50.96 51.165 51.362 51.55 51.74 51.908 52.103 52.275 52.435 52.605 52.868 52.985 53.153 53.333 53.49 53.693 53.89 54.05 54.247 54.415 54.583 54.753 54.878 55.037 55.182 55.36 55.53 55.66 55.822 55.963 56.125 56.28 56.443 56.597 56.72 56.853 57.003 57.147 57.285 57.44 57.6 57.748 57.873 58 58.14 58.948 60.325 59.622 58.84 58.948 59.055 59.15 59.285 59.438 59.57 59.715 59.873 60.022
29.892 29.892 29.865 29.835 29.763 29.665 29.552 29.42 29.312 29.212 29.375 29.05 28.983 28.943 28.938 28.958 28.975 28.925 28.892 28.788 29.108 29.15 28.755 29.333 29.355 29.285 29.44 29.59 29.747 29.55 29.6 29.667 29.673 29.608 29.6 29.635 30.27 31.378 30.755 30.142 30.138 29.938 29.913 29.892 30.45 31.737 31.507 30.07 30.12 30.177 30.21 30.245 30.263 30.265 30.295 30.308 30.29 30.333 30.673 30.075 30.052 30.068 30.07 30.042 30.057 30.07 30.103 30.125 30.14 30.122 30.132 29.993 30.18 30.03 30.225 30.267 30.29 30.378 30.522 30.597 30.608 30.718 31.125 34.56 32.088 32.205 30.825 32.018 32.655 31.75 31.155 31.397 31.585 31.693 31.815 31.908 32.115 32.39 32.67 32.893 33.07 33.213 33.335 33.443 33.545 33.6 33.643 33.725 33.78 33.888 34.055 34.253 34.64 35.02 35.382 35.785 35.805 35.465 35.588 35.868 35.803 35.96 36.097 36.232 36.395 36.56 36.735 36.908 37.138 37.37 37.605 37.79 37.995 38.17 38.41 38.653 38.82 39.342 39.5 39.49 40.537 40.908 41.28 43.917 45.912 45.627 43.662 41.97 41.69 41.53 41.295 41.085 41.318 42.19 42.882 43.495 43.635 43.94 43.74 43.213 43.378 43.097 43.128 43.015 43.057 43.125 43.182 43.237 43.67 43.338 43.385 43.417 43.542 43.897 44.4 43.585 43.625 43.667 43.708 43.875 44.458 45.682 45.665 45.382 45.37 45.478 45.395 45.353 45.205 45.1 45.125 45.05 45.472 44.7 46.952 50.022 50.482 47.757 44.417 43.67 45.083 46.595 47.037 47.035 46.205 46.112 46.105 46.12 46.158 46.182 46.21 46.253 46.312 46.34 46.35 46.41 46.478 46.528 46.6 46.682 46.752 46.857 46.943 47.052 47.147 47.21 47.29 47.365 47.435 47.497 47.558 47.632 47.682 47.757 47.842 47.938 47.985 48.042 48.085 48.16 48.19 48.248 48.287 48.327 48.382 48.45 48.463 48.512 48.54 48.685 49.125 49.673 49.27 49.202 49.638 49.912 50.033 49.618 49.62 49.815 49.513 49.972 48.077 48.573 49.53 48.43 48.45 48.92 49.515 49.518 49.253 49.143 49.165 49.11 49.09 49.2 49.323 49.228 49.12 49.158 49.173 49.222 49.257 49.295 49.278 49.268 49.283 49.27 49.208 49.155 49.217 49.033 49.02 49.01 48.89 48.695 48.862 48.483 48.52 48.967 47.77 47.457 47.33 46.955 46.455 46.145 45.975 45.882 46.025 45.83 45.763 45.525 45.065 44.625 44.21 43.83 43.495 43.202 43.52 43.018 42.98 42.94 42.942 42.943 42.955 42.94 42.945 42.94 42.93 42.893 42.87 42.855 42.923 42.845 43.445 43.295 43.393 43.318 43.908 44.3 44.065 45.07 44.033 44.025 43.833 43.895 44.012 44.533 45.513 47.952 49.645 49.713 49.6 49.518 47.63 45.903 45.952 46.068 46.217 46.33 46.482 46.608 46.745 46.868 47.083 47.253 47.447 47.63 47.745 47.928 48.083 48.3 48.603 48.917 49.205 49.433 49.62 49.835 50.007 50.193 50.39 50.6 50.775 50.985 51.162 51.342 51.52 51.688 51.88 52.037 52.205 52.397 52.56 52.688 52.87 53.052 53.235 53.44 53.623 53.787 53.975 54.103 54.247 54.372 54.513 54.643 54.78 54.943 55.103 55.257 55.408 55.585 55.71 55.882 56.028 56.202 56.302 56.448 56.58 56.72 56.87 57.025 57.145 57.3 57.465 57.592 58.37 59.575 58.72 58.18 58.28 58.405 58.533 58.68 58.82 58.952 59.123 59.283 59.403
30.048 29.987 29.945 29.925 29.915 29.885 29.84 29.78 29.677 29.597 29.54 29.483 29.442 29.382 29.292 29.237 29.193 29.227 29.218 29.153 29.542 29.417 29.415 30.062 30.352 29.515 29.632 29.675 29.677 29.708 29.737 29.81 29.807 29.775 29.74 29.833 30.93 30.725 31.135 31.43 31.35 30.282 31.095 31.09 30.25 31.257 30.528 30.17 30.21 30.267 30.315 30.355 30.372 30.37 30.385 30.39 30.397 30.362 30.647 30.458 30.193 30.182 30.135 30.125 30.112 30.118 30.135 30.17 30.25 30.235 30.24 30.267 30.275 30.042 29.895 30.147 30.342 30.438 30.45 30.505 30.528 30.747 30.938 31.235 32.022 30.825 31.613 30.493 30.81 31.057 31.35 31.538 31.66 31.815 32.007 32.23 32.498 32.695 32.932 33.135 33.26 33.408 33.522 33.577 33.632 33.7 33.75 33.798 34.1 34.355 34.7 34.98 35.215 35.4 35.5 35.85 35.78 35.67 35.792 35.975 36.017 36.167 36.333 36.573 36.77 36.967 37.162 37.45 37.757 38.005 38.182 38.37 38.507 38.622 39.222 39.75 39.5 39.91 40.77 41.24 41.15 41.2 41.265 42.77 45.54 45.96 44.432 41.795 41.79 42.022 41.553 42.322 43.41 42.868 43.285 43.725 43.32 42.868 42.747 42.735 42.815 42.923 43.022 43.092 43.14 43.205 43.25 43.32 43.478 43.647 43.91 44.225 45.052 45.915 46.252 45.05 44.128 43.752 44.115 46.4 45.302 45.59 46.518 45.943 47.853 49.035 50.175 51.865 49.325 45.958 46.372 46.795 47.287 47.315 47.338 47.555 47.695 46.925 44.428 43.86 45.505 46.588 47.225 47.188 46.382 46.36 46.36 46.39 46.423 46.45 46.493 46.542 46.6 46.618 46.67 46.722 46.795 46.85 46.933 47.013 47.088 47.183 47.275 47.385 47.49 47.577 47.64 47.705 47.787 47.857 47.915 47.99 48.06 48.14 48.215 48.295 48.35 48.41 48.463 48.522 48.568 48.615 48.667 48.71 48.783 48.83 48.85 48.877 48.925 49.04 49.605 50.67 49.585 49.595 49.732 48.632 49.495 49.7 49.658 49.522 49.427 48.682 48.2 49.16 50.757 48.493 49.55 50.26 50.412 49.827 49.545 49.357 49.318 49.562 50.1 50.287 50.33 50.31 50.185 49.985 49.87 49.688 49.623 49.52 49.417 49.373 49.307 49.275 49.2 49.145 49.08 49.03 48.972 48.915 48.868 48.807 48.763 48.737 48.895 48.713 48.502 48.557 48.388 48.627 48.372 48.202 47.513 46.972 47.155 46.6 46.338 46.035 45.58 45.438 45.208 45.138 44.73 44.6 43.79 43.53 43.325 43.245 43.15 43.055 43.003 43.002 42.993 42.993 42.98 42.958 42.945 42.938 42.935 42.917 42.938 42.958 43.077 43.41 43.625 44.15 43.698 44.595 44.193 43.82 43.718 43.863 43.958 44.783 45.52 47.022 48.5 48.803 49.088 49.287 46.912 45.693 45.715 45.827 45.972 46.077 46.18 46.33 46.475 46.64 46.857 47 47.122 47.262 47.427 47.628 47.798 47.972 48.147 48.347 48.6 48.847 49.132 49.38 49.632 49.842 50.052 50.248 50.425 50.585 50.783 50.96 51.112 51.315 51.452 51.632 51.895 51.97 52.088 52.287 52.48 52.647 52.787 52.975 53.138 53.3 53.448 53.605 53.728 53.878 54.025 54.15 54.28 54.43 54.592 54.715 54.868 55 55.158 55.292 55.465 55.585 55.72 55.885 56.02 56.16 56.305 56.445 56.577 56.715 56.882 57.01 58.048 59.007 57.763 57.57 57.728 57.89 57.94 58.083 58.217 58.368 58.533 58.695 58.855
31.125 30.962 30.788 30.193 30.333 29.978 29.967 29.965 29.92 29.913 29.873 29.85 29.825 29.792 29.698 29.567 29.448 29.395 29.4 29.44 29.743 30.12 30.253 30.315 29.72 29.685 29.725 29.743 29.753 29.765 29.798 29.818 29.858 29.888 29.882 30.005 31.252 30.63 30.73 30.763 30.847 31.292 32.115 32.415 30.915 31.695 30.445 30.245 30.312 30.345 30.375 30.397 30.43 30.455 30.475 30.47 30.493 30.468 30.46 30.91 30.31 30.31 30.292 30.233 30.245 30.205 30.205 30.265 30.302 30.362 30.385 30.403 30.323 30.347 30.337 30.007 30.173 30.375 30.485 30.432 30.285 30.81 31.792 31.08 31.132 31.86 31.712 30.798 31.128 31.37 31.5 31.632 31.78 31.98 32.29 32.592 32.815 33 33.175 33.323 33.423 33.535 33.995 33.632 33.697 33.745 33.99 34.78 35.217 35.145 35.205 35.335 35.497 35.61 35.62 35.683 35.772 35.885 35.985 36.118 36.302 36.493 36.765 36.99 37.205 37.28 37.58 37.993 38.38 38.588 39.37 40.138 40.292 40.445 40.56 41.068 41.677 41.353 41.042 41.115 41.182 41.245 41.292 41.83 44.235 44.443 43.305 41.847 41.882 43.513 43.007 42.932 43.433 43.153 42.705 42.67 42.628 42.627 42.705 42.818 42.923 42.987 43.068 43.132 43.182 43.478 43.7 43.97 44.312 44.763 45.16 46.423 45.812 45.653 46.72 46.89 46.15 45.97 46.02 45.952 45.792 46.037 47.09 49.58 53.03 53.067 53.077 53.162 50.51 46.125 46.315 47.04 47.303 47.325 47.302 47.283 47.283 47.025 44.882 44.095 45.41 47.035 47.555 46.868 46.65 46.662 46.677 46.708 46.748 46.78 46.82 46.842 46.88 46.925 46.98 47.048 47.115 47.185 47.257 47.34 47.42 47.503 47.6 47.717 47.807 47.9 47.99 48.068 48.135 48.2 48.253 48.33 48.423 48.485 48.59 48.662 48.722 48.795 48.855 48.89 48.95 49.01 49.052 49.092 49.16 49.2 49.237 49.272 49.298 49.417 49.73 50.638 49.482 49.542 48.958 49.803 50.725 51.408 51.37 51.275 51.145 49.295 48.772 49.325 49.307 50.338 51.028 50.5 50.19 49.95 49.775 49.695 50.062 50.592 51.042 51.22 51.235 51.23 51.188 51.115 50.993 50.963 50.88 50.615 50.555 50.355 50.092 49.878 49.622 49.44 49.278 49.158 49.1 48.972 48.94 48.83 48.732 48.69 48.645 48.53 48.472 48.405 48.39 48.347 48.318 48.325 48.327 48.338 48.375 47.905 47.475 47.228 46.86 46.79 46.388 46.77 45.825 45.525 45.513 45.285 44.378 44.182 43.743 43.46 43.295 43.16 43.075 43.053 43.042 43.033 43.02 43.015 43 43.007 43.022 43.03 43.1 43.112 44.482 43.772 45.83 46.65 43.868 43.627 43.728 43.853 43.917 44.87 44.987 45.01 45.847 46.6 47.195 47.38 46.177 45.75 45.583 45.697 45.778 46.022 45.958 46.095 46.287 46.488 46.658 46.772 46.853 46.955 47.155 47.362 47.565 47.74 47.893 48.04 48.222 48.37 48.54 48.737 48.98 49.283 49.588 49.84 50.062 50.268 50.44 50.613 50.768 50.93 51.11 51.275 51.537 51.66 51.755 51.897 52.077 52.237 52.38 52.573 52.71 52.86 52.99 53.103 53.21 53.353 53.493 53.647 53.755 53.925 54.068 54.192 54.327 54.5 54.63 54.772 54.895 55.035 55.167 55.285 55.417 55.552 55.705 55.868 56 56.138 56.272 56.432 57.443 58.22 56.915 56.982 57.112 57.235 57.338 57.5 57.63 57.775 57.932 58.052 58.21
30.115 30.33 31.587 31.458 30.898 31.095 30.695 30.25 30.07 30.013 30.005 30.02 30.005 29.997 29.96 29.882 29.798 29.747 29.757 29.823 29.833 29.86 29.827 29.812 29.858 29.847 29.847 29.855 29.865 29.882 29.913 29.925 29.935 29.96 30.013 30.935 31.092 30.78 31.353 30.747 30.773 30.837 30.903 30.897 31.145 31.138 30.778 30.395 30.345 30.36 30.365 30.42 30.467 30.513 30.585 30.602 30.545 30.52 30.513 30.983 30.427 30.417 30.413 30.395 30.37 30.3 30.3 30.342 30.41 30.465 30.493 30.525 30.48 30.415 30.432 30.427 30.548 30.79 30.307 30.59 31.308 31.048 31.095 31.275 31.3 31.2 31.07 31.103 31.405 31.525 31.597 31.77 32.037 32.357 32.632 32.847 33.055 33.237 33.378 33.467 33.643 33.597 33.618 33.653 33.765 34.537 35.44 36.112 35.472 35.482 35.487 35.6 35.715 35.75 35.795 35.9 36.025 36.19 36.31 36.502 36.77 37.56 37.41 38.4 38.577 38.702 38.795 38.888 38.99 39.072 40.005 40.497 40.502 40.625 40.692 40.735 41.08 41.065 41.04 41.12 41.188 41.26 41.325 41.38 41.505 41.632 41.812 41.98 42.018 43.44 43.318 42.535 42.428 42.388 42.432 42.515 42.612 42.695 42.783 42.865 42.945 43.028 43.112 43.195 43.412 44.215 44.567 44.95 47.495 46.647 48.557 46.162 45.91 46.592 46.717 45.97 46.037 46.903 47.915 47.36 47.838 46.448 47.667 48.893 52.325 52.95 52.39 52.122 52.067 51.34 48.91 48.065 47.323 47.338 47.34 47.263 46.915 46.36 44.25 44.257 46.028 47.022 47.147 46.993 46.958 46.965 46.983 47.005 47.05 47.072 47.128 47.158 47.205 47.255 47.325 47.388 47.463 47.525 47.6 47.673 47.75 47.833 47.945 48.03 48.14 48.247 48.307 48.43 48.507 48.567 48.632 48.702 48.78 48.865 48.94 49.02 49.11 49.167 49.24 49.285 49.335 49.393 49.443 49.49 49.54 49.607 49.64 49.667 49.688 49.8 50.177 51.48 50.215 50.14 50.948 51.487 52.077 51.113 51.472 52.103 52.162 51.455 51.715 51.948 51.375 50.945 51.018 50.597 50.375 50.178 50.24 50.802 51.388 51.505 51.478 51.495 51.442 51.365 51.372 51.338 51.305 51.272 51.228 51.122 51.167 51.265 51.165 50.905 50.728 50.61 50.43 50.31 50.088 49.868 49.7 49.588 49.408 49.11 49.068 48.845 48.552 48.403 48.38 48.357 48.325 48.275 48.278 48.287 48.33 48.552 48.77 48.395 48.17 47.82 47.818 47.618 47.315 47.213 46.6 46.63 45.65 46.175 45.495 44.427 44.243 43.835 43.537 43.298 43.188 43.115 43.1 43.095 43.09 43.092 43.125 43.147 43.16 43.162 44.19 44.035 45.357 46.67 44.76 45.03 43.753 43.835 43.9 44.37 44.47 44.702 45.585 45.013 46.295 45.357 45.528 45.7 45.47 45.53 45.62 45.735 45.845 46.007 46.263 46.43 46.438 46.555 46.567 46.682 46.877 47.067 47.235 47.428 47.612 47.787 47.932 48.077 48.228 48.385 48.565 48.748 48.938 49.188 49.425 49.693 49.943 50.155 50.307 50.502 50.708 50.88 51.072 51.22 51.365 51.505 51.685 51.895 52.018 52.153 52.302 52.428 52.562 52.69 52.785 52.878 53.035 53.16 53.29 53.435 53.553 53.693 53.838 53.99 54.12 54.248 54.38 54.505 54.612 54.74 54.855 54.993 55.15 55.295 55.425 55.562 55.688 55.8 56.177 57.182 56.222 56.357 56.495 56.647 56.772 56.91 57.055 57.217 57.355 57.493 57.63
29.917 29.96 30.01 30.073 30.237 30.925 30.847 31.125 31.083 30.94 30.71 30.35 30.11 30.085 30.097 30.075 30.045 30.032 30.028 30.025 29.995 29.997 29.968 29.945 29.968 29.98 29.998 30.005 30.01 30.03 30.038 30.05 30.05 30.062 30.158 31.2 30.858 30.858 30.905 30.83 30.858 30.763 30.78 30.82 30.875 30.888 30.978 30.975 31.065 30.757 30.555 30.455 30.483 30.538 30.712 30.728 31.17 33.708 31.37 30.955 30.462 30.515 30.58 30.545 30.47 30.403 30.4 30.45 30.495 30.542 30.575 30.61 30.63 30.658 30.6 30.587 30.763 30.75 30.662 30.78 31.112 31.233 31.245 31.355 31.388 31.38 31.42 31.46 31.575 31.682 31.77 32.05 32.388 32.658 32.882 33.088 33.268 33.397 33.502 33.557 33.89 33.6 33.655 34.107 35.198 35.4 35.45 35.505 35.688 35.537 35.562 35.713 35.78 36.323 36.022 36.155 36.322 36.55 36.743 36.983 37.743 38.44 39.185 40.452 41.285 43.39 43.252 41.583 41.025 39.105 40.088 40.528 40.868 40.792 40.7 40.803 41.27 41.112 41.04 41.12 41.2 41.287 41.353 41.557 42.135 42.338 41.952 41.952 41.998 42.062 42.132 42.215 42.31 42.395 42.48 42.568 42.66 42.8 42.997 43.042 43.097 43.213 43.35 43.475 43.645 45.173 45.56 46.67 50.1 47.577 45.88 45.982 46.033 46.525 46.482 48.98 53.958 52.785 52.035 52.225 50.778 46.432 47.835 46.415 49.987 52.838 52.49 51.885 51.795 51.435 49.105 48.382 47.34 47.357 47.342 47.31 46.603 45.092 45.062 45.425 46.325 47.175 47.272 47.275 47.253 47.267 47.29 47.34 47.36 47.415 47.452 47.495 47.55 47.595 47.655 47.732 47.795 47.857 47.952 48.02 48.095 48.185 48.27 48.37 48.495 48.592 48.68 48.77 48.84 48.908 48.987 49.07 49.163 49.24 49.315 49.39 49.465 49.557 49.618 49.662 49.722 49.78 49.827 49.877 49.945 50.007 50.03 50.07 50.1 50.182 50.4 51.397 50.722 50.528 51.018 51.695 53.095 51.69 53.01 52.252 52.448 51.268 51.373 51.43 51.535 51.325 51.088 50.76 50.607 50.682 51.25 51.68 51.795 51.717 51.675 51.692 51.725 51.717 51.688 51.665 51.545 51.51 51.46 51.33 51.287 51.36 51.215 51.077 50.982 50.89 50.75 50.667 50.57 50.55 50.52 50.485 50.388 50.237 50.257 50.153 49.537 48.847 48.518 48.373 48.347 48.327 48.29 48.302 48.325 48.377 48.44 48.465 48.395 48.3 48.173 48.138 47.76 47.395 47.135 46.943 46.78 46.908 46.052 45.835 45.1 44.728 44.448 44.255 43.795 43.518 43.303 43.222 43.185 43.215 43.243 43.268 43.285 43.292 43.327 43.385 43.458 43.535 43.618 43.698 43.78 43.85 43.935 44.07 44.272 44.44 44.658 45.425 45.903 45.272 45.395 45.412 45.34 45.428 45.515 45.583 45.737 45.935 46.13 46.217 46.36 46.305 46.32 46.423 46.632 46.818 46.965 47.132 47.292 47.452 47.605 47.785 47.958 48.125 48.308 48.452 48.58 48.735 48.895 49.045 49.25 49.448 49.627 49.78 50.12 50.318 50.588 50.772 50.917 51.058 51.268 51.495 51.65 51.818 51.982 52.103 52.165 52.268 52.353 52.505 52.645 52.755 52.87 53.005 53.12 53.225 53.353 53.483 53.612 53.737 53.86 53.975 54.112 54.253 54.34 54.498 54.66 54.725 54.868 54.995 55.095 55.215 55.465 55.408 55.607 55.8 55.908 56.05 56.173 56.31 56.463 56.605 56.747 56.908 57.03
31.173 30.68 30.263 30.055 30.03 30.083 30.13 30.255 30.717 30.935 31.995 32.237 30.863 31.573 31.155 30.685 30.222 30.202 30.192 30.175 30.132 30.118 30.095 30.108 30.132 30.155 30.173 30.17 30.19 30.19 30.2 30.208 30.195 30.202 30.68 31.64 31.062 31.07 30.942 30.913 30.76 30.68 30.718 30.77 30.833 30.945 30.993 31.013 30.962 30.948 31.025 31.103 31.087 30.892 30.938 30.923 32.452 34.088 37.153 34.13 34.29 30.955 30.653 30.618 30.552 30.52 30.535 30.545 30.585 30.632 30.71 30.69 30.71 30.757 30.757 30.888 31.12 31.065 31.147 31.177 31.245 31.358 31.382 31.46 31.507 31.532 31.583 31.642 31.773 31.925 32.11 32.4 32.675 32.938 33.14 33.302 33.44 33.507 33.548 33.595 33.675 34.09 35.557 35.222 35.48 35.623 35.515 35.528 35.44 35.588 35.7 36.93 38.307 37.353 36.312 36.533 36.74 37.665 38.245 38.2 38.327 38.44 39.66 42.197 43.715 44.198 43.735 43.64 43.653 39.938 39.91 40.528 40.743 40.688 40.675 40.74 40.84 40.94 41.04 41.127 41.21 41.643 41.412 41.525 41.807 41.888 41.847 41.94 42.04 42.12 42.197 42.283 42.347 42.435 42.542 42.737 43.057 43.31 43.605 43.693 43.537 43.585 44.993 44.135 43.958 44.515 44.91 45.435 45.61 45.772 45.978 46.083 46.077 46.183 46.253 48.338 53.77 53.432 53.432 53.482 53.435 46.647 48.153 46.588 49.79 52.092 51.397 51.693 51.853 51.787 49.275 48.573 47.395 47.408 47.387 47.56 47.497 48.373 47.333 47.263 47.49 47.618 47.62 47.59 47.57 47.592 47.625 47.667 47.695 47.737 47.787 47.83 47.875 47.932 47.987 48.052 48.13 48.21 48.302 48.385 48.435 48.54 48.627 48.717 48.855 48.943 49.022 49.127 49.177 49.268 49.342 49.412 49.507 49.597 49.667 49.753 49.807 49.908 49.983 50.025 50.118 50.143 50.195 50.265 50.307 50.365 50.42 50.475 50.522 50.58 50.78 51.755 51.28 50.965 51.432 52.48 52.753 53.153 53.265 52.41 52.702 51.842 51.695 51.647 51.655 51.432 51.2 51.022 51.178 51.757 52.1 51.99 51.938 51.938 51.912 51.96 52.09 52.19 52.195 52.202 52.135 52.153 52.052 52.013 51.787 51.612 51.577 51.638 51.61 51.458 51.257 51.072 51.005 50.835 50.798 50.665 50.577 50.472 50.45 50.467 50.452 50.135 49.66 49.127 48.702 48.46 48.315 48.325 48.333 48.37 48.432 48.482 48.46 48.335 48.162 47.893 47.63 47.377 47.112 46.87 46.638 46.455 46.235 46.058 46.055 45.87 45.27 44.948 44.84 44.5 44.09 44.05 43.47 43.387 43.362 43.372 43.387 43.405 43.432 43.487 43.553 43.607 43.673 43.735 43.833 44.118 44.345 44.232 44.285 44.435 44.592 44.74 44.88 45.088 45.112 45.085 45.173 45.353 45.45 45.562 45.74 45.853 45.927 46.058 46.285 46.103 46.095 46.217 46.415 46.557 46.735 46.9 47.05 47.205 47.33 47.487 47.635 47.787 47.978 48.14 48.283 48.427 48.618 48.722 48.855 49.018 49.215 49.305 49.537 49.64 49.915 50.2 50.415 50.59 50.802 51.018 51.225 51.4 51.585 51.717 51.833 51.925 52.025 52.118 52.21 52.312 52.455 52.612 52.725 52.838 52.945 53.033 53.165 53.26 53.388 53.5 53.62 53.74 53.847 53.99 54.145 54.248 54.38 54.515 54.62 54.735 54.993 54.967 55.095 55.21 55.347 55.463 55.59 55.717 55.86 56.005 56.167 56.312 56.445
32.628 32.445 32.248 31.702 31.115 30.65 30.217 30.11 30.15 30.212 30.272 30.93 30.83 31.985 33.003 31.95 31.085 30.49 30.403 30.353 30.305 30.222 30.23 30.235 30.24 30.255 30.265 30.278 30.245 30.267 30.31 30.33 30.345 30.337 31.51 31.23 31.155 31.195 31.025 30.9 31.535 30.625 30.757 30.763 30.855 32.57 31.382 31.06 31.03 31.01 31.052 31.092 31.13 31.198 31.272 35.127 37.575 33.64 38.655 37.35 34.635 32.565 30.693 30.675 30.673 30.653 30.635 30.632 30.658 30.69 30.755 30.767 30.772 30.812 30.905 31.11 31.225 31.227 31.24 31.335 31.41 31.48 31.528 31.603 31.625 31.655 31.702 31.805 31.972 32.182 32.412 32.708 32.972 33.165 33.323 33.438 33.472 33.54 33.605 33.872 34.503 35.355 36.91 35.325 35.423 35.54 35.623 35.658 35.77 36.542 36.94 37.15 38.053 37.055 36.943 37.675 38.06 38.19 38.295 38.372 38.423 38.525 39.575 42.185 43.16 44.077 43.89 43.833 43.935 41.605 39.327 40.548 40.57 40.635 40.735 40.833 40.94 41.515 41.732 41.443 41.365 41.472 41.478 41.577 41.698 41.823 41.92 42.015 42.085 42.158 42.228 42.377 42.562 43.042 43.722 44.185 44.165 44.257 44.443 44.215 43.94 43.943 45.312 44.623 44.06 44.29 44.673 45.068 45.458 45.752 45.972 46.095 46.077 46.195 46.305 50.283 54.478 54.48 54.515 54.472 54.535 47.128 49.513 47.647 49.507 49.42 49.34 48.717 48.533 48.375 47.78 47.092 47.51 47.458 47.487 47.64 47.84 49.21 48.248 47.827 47.878 47.947 47.932 47.9 47.888 47.925 47.963 48.035 48.042 48.088 48.135 48.17 48.217 48.272 48.333 48.4 48.47 48.542 48.63 48.713 48.79 48.875 48.975 49.055 49.188 49.302 49.372 49.452 49.528 49.615 49.683 49.757 49.847 49.93 50.02 50.118 50.182 50.265 50.335 50.395 50.467 50.52 50.57 50.63 50.682 50.747 50.83 50.853 50.933 50.988 51.135 52.15 51.645 52.092 52.805 53.827 53.425 53.345 53.515 53.292 53.287 52.89 52.202 52.05 51.912 51.63 51.423 51.518 52.17 52.5 52.338 52.217 52.165 52.2 52.322 52.475 52.55 52.698 52.787 52.71 52.735 52.778 52.592 52.675 52.51 52.458 52.23 52.105 52.067 52.138 52.105 51.985 51.885 51.71 51.485 51.397 51.3 51.048 50.772 50.59 50.528 50.533 50.493 50.373 50.025 49.562 48.8 48.395 48.325 48.4 48.472 48.565 48.567 48.505 48.302 48.073 47.938 47.845 47.47 47.162 46.795 46.448 46.213 45.975 45.812 45.688 45.557 45.438 45.24 45.07 44.872 44.732 44.375 43.945 43.655 43.507 43.485 43.505 43.52 43.57 43.623 43.658 43.702 43.807 44.235 44.525 45.84 47.228 46.28 43.822 44.46 44.74 44.823 44.893 44.895 44.94 45.057 45.202 45.35 45.515 45.59 45.647 45.768 45.912 45.928 45.925 45.892 46.002 46.213 46.347 46.5 46.658 46.83 46.93 47.08 47.237 47.368 47.507 47.662 47.805 47.938 48.1 48.265 48.43 48.588 48.732 48.9 49.03 49.14 49.243 49.447 49.713 49.877 49.972 50.205 50.487 50.732 50.963 51.127 51.283 51.412 51.525 51.618 51.705 51.86 51.955 52.1 52.205 52.287 52.41 52.497 52.623 52.743 52.853 52.943 53.052 53.135 53.255 53.393 53.507 53.653 53.765 53.872 53.982 54.127 54.195 54.548 54.45 54.56 54.697 54.838 54.935 55.058 55.175 55.315 55.478 55.597 55.74 55.923
32.342 32.91 33.033 33.03 32.72 32.48 32.007 31.4 30.753 30.255 30.215 30.257 30.333 30.4 30.468 30.917 31.837 32.31 31.522 30.978 30.86 30.555 30.515 30.43 30.467 30.452 30.43 30.443 30.43 30.435 30.483 30.42 30.49 30.55 32.105 31.333 31.235 31.228 31.09 31.382 35.675 36.955 34.55 31.722 31.528 34.41 34.103 33.182 31.227 31.112 31.19 31.235 31.28 31.292 32.938 33.74 33.903 31.667 32.05 34.885 33.835 31.715 31.062 30.735 30.77 30.767 30.75 30.737 30.737 30.747 30.778 30.827 30.915 30.99 31.087 31.217 31.327 31.36 31.507 31.635 31.675 31.655 31.685 31.712 31.745 31.855 31.923 32.08 32.27 32.51 32.747 32.982 33.162 33.303 33.397 33.438 33.475 33.59 33.985 34.818 35.5 35.7 36.315 35.52 35.588 35.697 35.753 35.943 37.135 37.763 37.725 37.885 38.475 38.858 38.552 38.155 38.225 38.298 38.368 38.458 38.535 39.037 39.378 41.183 44.165 44.217 44.228 44.1 43.955 41.635 39.503 40.167 40.755 41.088 40.908 41.202 41.287 41.092 41.13 41.162 41.302 41.423 41.54 41.655 41.755 41.858 41.932 42.007 42.16 42.34 42.592 42.923 43.295 43.708 44.192 45.34 44.875 44.845 44.768 44.387 44.26 44.498 45.467 45.545 44.15 44.338 44.67 45.23 45.6 45.833 46.013 46.14 46.175 46.283 46.365 48.225 53.118 53.4 53.29 53.232 53.188 48.033 49.042 47.263 48.4 47.865 48.34 47.12 46.565 46.965 47.058 47.185 47.645 47.708 47.833 48.052 48.857 49.612 48.43 48.112 48.245 48.265 48.23 48.225 48.24 48.265 48.312 48.35 48.377 48.43 48.467 48.518 48.57 48.615 48.673 48.733 48.798 48.888 48.96 49.042 49.123 49.205 49.312 49.41 49.518 49.62 49.722 49.795 49.865 49.963 50.022 50.097 50.185 50.252 50.365 50.463 50.555 50.62 50.69 50.765 50.823 50.877 50.925 51 51.062 51.138 51.215 51.268 51.298 51.353 51.493 52.77 52.595 53.065 53.717 53.878 54.493 53.99 54.228 54.51 53.21 53.09 52.725 52.345 52.105 51.865 51.872 52.505 52.862 52.735 52.583 52.565 52.575 52.708 52.915 53.028 53.193 53.548 53.632 53.68 53.542 53.388 53.27 53.028 52.912 52.932 52.865 52.82 52.697 52.53 52.403 52.39 52.425 52.522 52.438 52.292 52.122 51.92 51.658 51.403 50.97 50.728 50.603 50.592 50.58 50.548 50.213 49.318 48.565 48.42 48.507 48.65 48.735 48.827 48.815 48.585 48.965 49.483 48.17 48.025 47.737 47.357 46.895 46.43 46.02 45.75 45.518 45.38 45.26 45.14 45.028 44.987 44.955 44.795 44.307 43.86 43.555 43.57 43.592 43.645 43.685 43.71 43.743 44.03 44.463 45.51 47.315 44.415 44.568 43.932 44.482 45.675 45 45.167 44.785 44.882 44.987 45.115 45.232 45.32 45.395 45.533 45.702 45.775 45.783 45.695 45.715 45.84 46.005 46.138 46.25 46.412 46.562 46.68 46.845 46.997 47.12 47.247 47.403 47.542 47.673 47.83 47.967 48.088 48.228 48.403 48.548 48.717 48.865 48.952 49.105 49.357 49.478 49.605 49.757 49.94 50.155 50.377 50.605 50.815 51.028 51.13 51.2 51.322 51.41 51.535 51.673 51.78 51.932 52.048 52.12 52.228 52.312 52.393 52.495 52.625 52.76 52.875 52.982 53.072 53.175 53.278 53.39 53.52 53.628 53.778 53.923 53.96 54.07 54.21 54.305 54.455 54.567 54.695 54.827 54.958 55.072 55.228 55.377
32.467 32.41 32.465 32.73 32.805 32.927 32.948 32.7 32.853 32.29 31.528 30.472 30.31 30.315 30.382 30.448 30.483 30.568 30.73 31.15 31.865 31.365 31.74 31.175 31.373 31.087 30.95 30.657 30.65 30.653 30.625 30.513 30.583 31.663 32.042 31.345 31.378 31.28 31.237 33.175 36.318 37.925 36.935 34.772 35.433 35.838 34.965 34.645 31.53 31.2 31.29 31.34 31.385 31.4 32.49 31.675 33.915 31.46 32.275 31.747 32.127 32.388 31.618 30.818 30.853 30.862 30.847 30.837 30.845 30.845 30.92 31.057 31.155 31.23 31.325 31.445 31.53 31.65 31.76 31.835 31.858 31.823 31.818 31.885 31.975 32.173 32.265 32.385 32.595 32.787 32.99 33.173 33.252 33.475 33.347 33.365 36.392 34.272 35.11 35.51 35.585 35.638 36.893 36.353 35.77 35.8 36.147 37.04 37.573 37.77 37.853 38.465 38.318 38.347 38.21 38.248 38.285 38.342 38.427 38.522 39.785 39.193 39.08 39.877 43.515 43.372 42.597 41.22 40.987 39.785 39.818 40.497 40.525 40.568 40.63 40.717 40.84 40.963 41.092 41.23 41.353 41.452 41.577 41.69 41.805 42.013 42.232 42.505 42.693 42.95 43.528 44.57 44.445 44.77 45.385 45.632 45.112 44.73 44.73 44.645 44.905 45.452 46.452 46.075 44.647 44.382 45.435 47.16 46.653 46.15 46.16 46.285 46.397 46.825 47.015 47.362 50.055 50.498 50.73 50.307 50.495 47.577 48.847 47.667 46.54 46.868 47.055 47.48 47.08 47.458 47.545 47.562 47.632 48.075 48.285 48.338 48.693 50.57 48.467 48.443 48.54 48.57 48.55 48.552 48.583 48.615 48.65 48.688 48.73 48.765 48.807 48.857 48.91 48.95 49.01 49.073 49.155 49.22 49.333 49.397 49.47 49.567 49.655 49.763 49.888 49.963 50.077 50.147 50.217 50.285 50.373 50.435 50.522 50.623 50.708 50.815 50.925 50.995 51.055 51.122 51.198 51.248 51.32 51.385 51.445 51.505 51.6 51.655 51.69 51.73 51.835 52.835 53.125 54.135 54.247 55.818 55.803 55.805 55.58 55.333 53.17 53.153 52.917 52.577 52.327 52.232 52.728 53.112 53.097 52.98 52.893 52.945 53.21 53.503 53.717 53.842 54.092 54.395 54.627 54.528 54.433 54.287 54.125 53.927 53.785 53.65 53.557 53.388 53.225 53.062 52.997 52.872 52.807 52.722 52.678 52.717 52.77 52.693 52.63 52.323 52.135 51.67 51.28 50.95 50.755 50.695 50.702 50.612 49.97 48.967 48.65 48.792 48.91 49.107 49.345 49.43 49.438 49.597 48.785 48.347 47.978 47.935 47.842 47.545 47.09 46.635 46.18 45.8 45.417 45.167 44.985 44.83 44.64 44.412 44.467 43.917 43.628 43.612 43.662 43.695 43.737 43.752 43.805 44.397 44.888 44.382 46.96 44.13 44.175 45.702 45.287 46.495 43.94 44.967 47.11 45.658 45.022 45.083 45.23 45.34 45.403 45.503 45.592 45.615 45.562 45.59 45.568 45.67 45.82 45.948 46.08 46.23 46.355 46.478 46.618 46.76 46.905 47.028 47.173 47.302 47.442 47.573 47.708 47.842 47.965 48.105 48.245 48.393 48.53 48.643 48.822 49.1 49.167 49.31 49.433 49.577 49.735 49.96 50.085 50.24 50.415 50.57 50.7 50.878 50.998 51.147 51.298 51.372 51.487 51.592 51.705 51.818 51.948 52.06 52.128 52.215 52.333 52.425 52.53 52.658 52.787 52.888 52.965 53.053 53.17 53.375 53.42 53.505 53.625 53.722 53.855 53.978 54.073 54.208 54.353 54.475 54.595 54.75 54.878
32.653 32.8 32.685 33.028 32.972 32.905 33.388 32.95 33.427 33.295 33.04 31.14 31.3 32.662 30.812 30.397 30.443 30.478 30.525 30.58 30.622 30.675 30.925 31.478 32.465 31.542 32.682 31.67 31.09 30.807 30.763 30.698 30.782 32.045 31.517 31.497 31.503 31.462 31.562 34.975 37 38 36.268 35.07 36.632 36.47 34.802 33.388 31.31 31.305 31.388 31.425 31.452 31.468 31.477 31.478 31.505 31.53 32.683 31.417 31.397 31.3 31.09 30.915 30.91 30.948 30.942 30.923 30.907 30.993 31.155 31.295 31.407 31.517 31.6 31.645 31.778 31.903 31.97 32.062 32.065 32.052 32.112 32.33 32.47 32.585 32.662 32.753 32.868 33.025 33.145 33.245 33.292 34.677 34.428 34.08 35.802 35.445 35.558 35.622 35.65 35.71 36.362 36.865 35.877 36.305 37.355 37.627 37.717 38.145 38.025 38.135 38.17 38.255 38.248 38.315 38.375 38.45 38.525 38.632 38.897 39.06 39.903 39.353 39.645 39.66 39.775 39.842 39.912 39.98 40.065 40.188 40.333 40.478 40.625 40.76 40.887 41 41.127 41.865 41.36 41.562 41.765 42.055 42.298 42.503 42.827 43.403 43.68 44.118 44.903 44.805 45.835 45.145 45.32 44.912 44.8 44.79 45.307 46.118 46.062 45.807 46.452 46.52 46.515 47.092 47.675 47.05 47.075 46.688 46.525 46.62 46.778 47.365 47.972 47.847 46.938 46.795 48.655 49.38 49.377 47.895 49.507 47.775 47.52 47.545 47.558 47.568 47.577 47.583 47.625 47.673 47.893 48.53 48.743 48.8 49.145 50.615 49.697 48.745 48.842 48.882 48.862 48.88 48.912 48.95 48.985 49.028 49.058 49.118 49.145 49.188 49.25 49.292 49.36 49.432 49.513 49.59 49.673 49.757 49.838 49.935 50.018 50.105 50.217 50.312 50.417 50.505 50.583 50.64 50.728 50.792 50.875 50.963 51.075 51.165 51.26 51.33 51.415 51.482 51.54 51.6 51.67 51.732 51.812 51.882 51.97 52.005 52.048 52.115 52.2 53.028 53.515 53.882 53.785 54.015 54.278 53.83 53.46 53.48 53.438 53.322 53.073 52.787 52.607 52.99 53.48 53.408 53.338 53.33 53.485 53.7 53.995 54.268 54.507 54.61 54.873 55.135 55.41 55.412 55.24 55.11 54.995 54.877 54.755 54.638 54.557 54.445 54.222 53.943 53.713 53.525 53.382 53.272 53.188 53.115 53.03 52.955 52.94 53.003 52.887 52.72 52.522 52.115 51.627 51.16 50.895 50.868 50.885 50.41 49.415 48.993 49.092 49.342 49.592 49.833 49.91 49.895 49.673 49.41 48.825 49.333 48.63 48.812 47.905 47.635 47.235 46.822 46.327 45.717 45.217 44.923 44.635 44.362 44.112 43.882 43.693 43.653 43.7 43.755 43.795 43.812 43.955 44.26 44.318 44.748 44.635 44.425 44.91 47.9 51.088 48.112 45.28 44.658 50.583 46.482 45.175 45.22 45.182 45.24 45.342 45.417 45.535 45.53 45.463 45.487 45.46 45.555 45.693 45.808 45.925 46.062 46.18 46.298 46.43 46.573 46.69 46.81 46.94 47.062 47.215 47.347 47.47 47.592 47.733 47.85 47.97 48.127 48.26 48.365 48.56 48.783 48.853 49.025 49.162 49.275 49.395 49.545 49.69 49.812 49.967 50.107 50.222 50.35 50.48 50.615 50.785 50.935 51.065 51.16 51.272 51.405 51.52 51.632 51.737 51.833 51.935 52.053 52.173 52.257 52.32 52.423 52.512 52.603 52.725 52.98 52.945 53.08 53.185 53.287 53.42 53.542 53.638 53.775 53.888 54.02 54.15 54.285 54.432
32.815 33.05 32.895 32.967 33.1 33.202 33.107 33.085 33.02 33.338 33.815 31.575 32.483 34.02 33.505 30.54 30.462 30.477 30.483 30.517 30.575 30.657 30.69 30.745 30.785 30.882 31.265 32.41 32.208 32.87 32.06 32.088 31.725 32.327 31.523 31.585 31.485 31.512 32.185 35.855 37.677 37.478 35.625 35.44 37.075 35.76 34.232 32.292 31.24 31.388 31.48 31.517 31.525 31.53 31.54 31.538 31.552 31.597 32.72 31.94 31.46 31.798 31.2 30.97 30.948 31.038 31.073 31.052 31.08 31.255 31.4 31.565 31.653 31.767 31.865 31.85 31.972 32.118 32.185 32.312 32.397 32.463 32.577 32.735 32.812 32.868 32.945 33.03 33.118 33.177 33.222 33.243 33.335 33.64 34.882 35.53 35.557 35.6 35.68 35.73 35.763 35.845 35.917 37.14 36.145 37.177 38.045 37.69 37.81 37.945 38.052 38.127 38.335 38.265 38.32 38.397 38.455 38.515 38.982 40.217 39.217 39.493 39.737 39.28 39.39 39.51 39.627 39.745 39.87 39.982 40.107 40.245 40.377 40.515 40.638 40.755 40.91 41.08 41.28 42.68 42.35 42.307 42.448 42.888 43.143 43.618 44.11 44.565 44.635 45.388 45.245 45.155 45.185 45.158 45.125 45.04 44.99 45.25 45.555 45.74 45.908 46.105 46.528 47.62 48.645 49.34 49.485 49.107 49.118 47.255 46.975 47.045 47.193 47.655 48.283 48.305 48.162 47.82 47.6 48.495 48.948 49.083 50.085 50.397 47.717 47.812 47.927 48.02 48.195 48.285 48.39 48.557 48.748 49.042 49.193 49.255 49.743 50.287 48.993 49.04 49.145 49.19 49.197 49.217 49.247 49.29 49.335 49.378 49.42 49.452 49.5 49.552 49.597 49.65 49.71 49.807 49.87 49.95 50.02 50.1 50.167 50.263 50.355 50.46 50.56 50.66 50.755 50.83 50.903 50.978 51.057 51.147 51.215 51.3 51.397 51.493 51.575 51.66 51.743 51.817 51.888 51.958 52.037 52.092 52.16 52.255 52.327 52.372 52.427 52.47 52.55 53.535 53.632 53.54 53.572 53.623 53.717 53.815 53.855 53.842 53.745 53.52 53.275 53.05 53.193 53.787 53.775 53.725 53.67 53.94 54.245 54.58 54.77 55.042 55.145 55.29 55.545 55.77 55.935 56.05 55.99 55.893 55.882 55.783 55.73 55.603 55.445 55.358 55.225 55.037 54.84 54.522 54.29 54.122 53.99 53.888 53.8 53.68 53.423 53.32 53.322 53.333 53.365 53.292 52.993 52.35 51.77 51.235 51.018 50.993 50.812 50.057 49.4 49.533 49.765 49.985 50.202 50.432 50.38 50.028 49.615 49.448 49.35 49.577 48.037 47.788 47.673 47.565 47.927 46.667 46.07 45.522 45.125 45.513 46.355 44.855 44.385 43.722 43.74 43.84 43.873 43.885 44.075 44.247 46.055 45.925 44.78 45.185 44.802 48.518 50.295 47.783 46.125 50.237 48.96 46.533 45.28 48.55 45.625 45.29 45.208 45.472 45.842 45.388 45.353 45.393 45.41 45.482 45.585 45.665 45.81 45.923 46.025 46.153 46.285 46.397 46.53 46.643 46.765 46.888 47.022 47.1 47.23 47.357 47.463 47.585 47.747 47.872 48.035 48.147 48.362 48.485 48.565 48.722 48.87 48.998 49.1 49.22 49.342 49.438 49.588 49.705 49.807 49.932 50.048 50.158 50.257 50.373 50.493 50.622 50.715 50.875 51.033 51.162 51.292 51.388 51.478 51.58 51.682 51.81 51.908 51.998 52.107 52.233 52.33 52.507 52.463 52.61 52.74 52.865 52.975 53.13 53.252 53.35 53.493 53.635 53.745 53.868 54.01
33.17 33.19 33.38 33.283 33.53 33.518 33.268 33.193 33.278 33.605 33.76 31.632 32.333 34.185 32.378 30.46 30.495 30.515 30.632 31.592 32.765 32.847 32.325 31.067 30.728 30.773 30.817 30.85 30.983 31.517 32.725 33.372 33.375 31.868 31.54 31.702 31.47 31.583 33.53 36.497 38.04 36.857 35.173 36.112 36.955 35.115 33.78 31.67 31.368 31.478 31.557 31.585 31.587 31.583 31.603 31.605 31.613 31.955 33.603 32.717 33.96 34.193 31.425 31.003 30.997 31.115 31.18 31.208 31.315 31.483 31.597 31.702 31.785 31.913 32.002 32.067 32.205 32.347 32.49 32.627 32.708 32.78 32.835 32.9 32.958 33.1 33.158 33.177 33.202 33.237 33.25 34.09 34.565 34.98 35.825 36.493 35.49 35.505 35.785 35.868 35.948 36.02 36.055 37.025 36.69 37.175 38.243 39.077 40.255 38.79 38.088 38.16 38.253 38.375 38.44 38.662 38.603 38.947 39.208 38.94 38.958 39.062 39.188 39.307 39.435 39.557 39.685 39.798 39.923 40.033 40.147 40.27 40.465 40.627 40.805 41.092 41.3 41.513 41.84 42.295 42.645 43.075 43.58 43.915 44.268 44.562 44.785 45.525 45.095 45.12 45.175 45.285 45.32 45.232 45.2 45.3 45.518 45.757 45.92 46.052 46.185 46.34 48.28 48.88 48.997 48.465 47.885 48.25 47.935 47.607 47.41 47.463 47.585 47.812 48.627 48.708 48.75 48.82 48.803 48.66 50.075 51.072 53.287 54.32 48.842 48.935 48.985 48.97 48.91 48.943 48.975 49.002 49.103 49.515 49.653 49.683 50.21 50.728 49.873 49.355 49.465 49.525 49.55 49.57 49.597 49.653 49.69 49.72 49.762 49.807 49.855 49.893 49.952 50.022 50.065 50.143 50.237 50.31 50.38 50.455 50.53 50.618 50.708 50.79 50.89 51 51.077 51.165 51.225 51.302 51.375 51.467 51.55 51.64 51.763 51.822 51.912 51.985 52.07 52.15 52.217 52.292 52.382 52.447 52.505 52.595 52.665 52.72 52.772 52.82 52.9 53.812 53.935 53.762 53.803 53.84 53.947 54.022 54.077 54.033 53.903 53.743 53.52 53.443 54.007 54.143 54.077 54.03 54.278 54.662 54.955 55.177 55.375 55.62 55.71 55.873 56.062 56.215 56.283 56.305 56.283 56.283 56.255 56.278 56.245 56.228 56.143 56.1 56.015 55.95 55.802 55.585 55.42 55.24 55.06 54.905 54.857 54.73 54.472 54.222 53.895 53.728 53.728 53.768 53.83 53.757 53.333 52.662 51.903 51.263 51.138 51.062 50.482 49.903 49.945 50.12 50.32 50.505 50.728 50.972 50.562 49.882 49.577 49.647 51.768 48.045 47.862 47.702 51.77 50.642 47.525 46.493 45.88 47.665 48.825 48.278 48.865 47.097 43.862 43.963 44.045 45.952 44.713 44.412 44.438 45.202 45.92 46.435 48.588 45.333 47.555 48.013 45.353 44.967 45.932 51.065 51.158 51.237 47.855 45.502 45.202 45.415 45.463 45.287 45.307 45.36 45.43 45.493 45.535 45.605 45.732 45.805 45.925 46.045 46.165 46.26 46.38 46.485 46.583 46.693 46.815 46.905 47.022 47.16 47.278 47.417 47.535 47.65 47.8 47.932 48.08 48.155 48.295 48.505 48.613 48.745 48.862 48.95 49.055 49.155 49.248 49.322 49.443 49.555 49.645 49.735 49.818 49.905 49.995 50.09 50.215 50.342 50.445 50.577 50.705 50.815 50.945 51.075 51.217 51.357 51.452 51.537 51.645 51.752 51.855 52.752 52.463 52.292 52.465 52.528 52.583 52.667 52.798 52.95 53.1 53.25 53.357 53.49 53.603
33.475 33.31 33.645 33.353 33.305 33.49 33.255 33.195 33.135 33.812 33.513 31.948 33.307 35.917 33.285 30.5 30.513 30.55 30.86 32.932 33.077 33.32 33.815 34.575 34.215 32.835 32.878 31.642 30.875 30.923 30.985 31.533 32.725 31.823 31.72 31.69 31.517 31.452 35.167 37.18 37.995 36.25 35.25 36.868 36.29 34.5 32.903 31.55 31.56 31.595 31.625 31.64 31.64 31.64 31.647 31.653 31.655 31.737 32.452 31.78 31.78 32.255 31.8 31.943 31.045 31.225 31.292 31.38 31.52 31.608 31.698 31.825 31.933 32.05 32.185 32.35 32.467 32.573 32.722 32.835 32.853 32.877 32.965 33.085 33.12 33.132 33.205 33.235 33.182 33.748 34.945 34.787 35.257 35.132 35.19 35.255 35.298 35.445 35.85 36.095 36.208 36.252 36.257 36.327 36.853 37.243 38.335 38.778 38.588 38.02 38.14 38.285 38.81 38.645 39.002 38.535 38.55 38.658 38.76 38.865 38.99 39.118 39.235 39.362 39.487 39.607 39.73 39.842 40.02 40.295 40.5 40.7 41.45 41.615 41.43 41.795 42.257 42.595 43.21 43.717 43.952 44.202 44.443 44.607 45.2 44.965 45.347 45.083 45.185 45.335 45.47 45.48 45.43 45.423 45.64 45.8 46.02 46.177 46.283 46.405 46.52 46.65 47.755 48.64 48.565 47.963 47.923 47.987 47.94 47.768 47.73 47.79 47.888 48.145 48.978 48.905 48.943 49.033 49.12 48.938 50.035 50.778 51.217 50.987 49.03 49.037 49.018 49 48.978 49.005 49.138 49.252 49.483 49.972 50.125 50.14 50.7 51.073 49.947 49.698 49.79 49.862 49.905 49.91 49.935 49.983 50.035 50.062 50.11 50.147 50.192 50.25 50.298 50.357 50.432 50.507 50.575 50.658 50.745 50.8 50.9 50.998 51.05 51.153 51.232 51.312 51.417 51.497 51.54 51.635 51.725 51.823 51.87 51.97 52.037 52.147 52.235 52.33 52.408 52.467 52.57 52.655 52.745 52.802 52.847 52.935 53.01 53.062 53.118 53.18 53.252 54.118 54.265 53.98 54.06 54.11 54.217 54.27 54.312 54.253 54.143 53.993 53.792 54.09 54.513 54.44 54.373 54.677 55.028 55.342 55.555 55.722 55.85 56.12 56.165 56.318 56.397 56.44 56.497 56.487 56.45 56.463 56.455 56.478 56.5 56.467 56.458 56.455 56.482 56.498 56.503 56.42 56.34 56.252 56.167 56.1 55.958 55.845 55.635 55.415 55.18 54.72 54.182 54.08 54.182 54.263 54.318 54.16 53.427 52.71 51.752 51.257 51.198 50.972 50.43 50.26 50.432 50.585 50.715 50.897 51.062 51.065 50.35 49.553 49.845 49.495 49.787 52.013 54.217 51.695 48.302 47.95 46.827 47.658 49.042 50.048 52.075 49.833 46.05 45.19 45.735 47.893 49.153 45.365 47.165 44.658 44.728 44.783 47.615 48.755 46.507 46.14 52.43 47.295 46.75 49.153 52.177 51.395 50.5 46.083 44.45 44.78 45.018 45.19 45.2 45.285 45.368 45.39 45.455 45.542 45.618 45.722 45.847 45.965 46.06 46.185 46.3 46.38 46.485 46.553 46.653 46.75 46.868 46.98 47.092 47.217 47.338 47.51 47.6 47.708 47.857 47.877 48.05 48.228 48.325 48.475 48.595 48.69 48.785 48.895 48.98 49.077 49.138 49.222 49.298 49.375 49.447 49.57 49.653 49.702 49.822 49.895 50.002 50.088 50.17 50.295 50.412 50.505 50.628 50.745 50.882 51.01 51.115 51.195 51.84 52.823 52.153 51.805 51.97 52.092 52.257 52.393 52.438 52.533 52.645 52.783 52.925 53.1 53.243
33.49 33.405 33.807 33.695 33.298 33.195 33.192 33.21 33.298 33.388 32.768 32.29 34.09 34.66 31.843 30.503 30.53 30.555 31.337 33.143 33.13 33.167 33.092 33.077 33.485 34.052 35.22 36.1 33.068 31.653 30.948 31.003 31.55 31.247 31.415 31.728 31.677 31.248 31.585 33.768 36.015 35.67 35.92 37.075 35.555 33.995 32.135 31.625 31.657 31.68 31.685 31.695 31.692 31.693 31.715 31.715 31.7 32.465 32.393 31.485 31.468 31.515 33.45 34.235 31.042 31.302 31.403 31.49 31.62 31.695 31.875 32.092 32.178 32.338 32.452 32.583 32.665 32.757 32.895 33.002 32.978 32.98 33.042 33.132 33.182 33.215 33.298 33.26 33.612 34.972 35.36 35.125 35.11 35.17 35.285 35.338 35.34 35.435 36.192 36.327 36.463 36.533 36.552 36.63 36.97 37.537 38.312 38.118 38.4 38.265 38.467 38.29 38.213 38.3 38.385 38.485 38.59 38.697 38.807 38.92 39.022 39.17 39.333 39.605 39.755 39.925 40.26 40.76 41.245 41.198 41.662 41.647 42.305 42.555 42.787 43.222 43.515 43.838 44.175 44.54 44.595 44.963 44.997 44.905 44.955 45.083 45.248 45.345 45.518 45.63 45.645 45.623 45.765 46.045 46.128 46.26 46.43 46.53 46.632 46.735 46.842 46.997 47.952 48.493 48.465 48.003 48.052 48.09 48.055 47.967 47.982 48.025 48.092 48.428 49.2 49.123 49.188 49.265 49.34 49.405 49.448 49.57 50.855 51.915 49.345 49.537 49.725 49.925 50.08 50.158 50.237 50.36 50.413 50.482 50.595 50.618 51.125 51.068 50.47 50.03 50.138 50.195 50.243 50.25 50.28 50.33 50.375 50.41 50.463 50.51 50.573 50.612 50.665 50.715 50.785 50.862 50.938 51.03 51.095 51.175 51.235 51.312 51.397 51.482 51.585 51.68 51.763 51.84 51.89 51.963 52.052 52.123 52.217 52.31 52.375 52.467 52.545 52.667 52.745 52.818 52.923 53.005 53.07 53.127 53.198 53.298 53.37 53.435 53.487 53.537 53.632 54.13 54.665 54.29 54.37 54.373 54.458 54.522 54.548 54.513 54.42 54.28 54.23 54.755 54.845 54.83 54.92 55.307 55.597 55.862 55.997 56.105 56.238 56.357 56.427 56.498 56.557 56.607 56.608 56.612 56.62 56.603 56.583 56.607 56.658 56.665 56.685 56.69 56.76 56.757 56.77 56.778 56.765 56.757 56.775 56.778 56.807 56.655 56.518 56.35 56.18 55.827 55.482 54.947 54.515 54.542 54.665 54.772 54.605 54.237 53.397 52.315 51.427 51.202 51.068 50.775 50.573 50.68 50.78 50.87 50.965 51.092 51.012 50.833 50.37 49.715 49.263 51.667 52.673 52.732 48.595 47.645 47.28 47.21 47.068 48.45 48.557 46.35 45.03 44.26 46.292 49.365 50.595 54.228 54.022 49.575 45.417 44.87 45.35 47.173 45.947 46.3 50.153 53.195 51.095 46.438 48.29 47.17 46.485 44.895 44.69 44.53 44.373 44.522 45.438 44.967 45.188 45.653 45.115 45.325 45.405 45.533 45.7 45.82 45.948 46.062 46.388 46.4 46.338 46.425 46.525 46.618 46.708 46.825 46.958 47.052 47.19 47.323 47.438 47.505 47.607 47.693 47.84 47.99 48.11 48.195 48.29 48.397 48.53 48.62 48.695 48.792 48.905 48.972 49.037 49.107 49.215 49.263 49.323 49.393 49.46 49.565 49.658 49.735 49.82 49.912 49.972 50.04 50.15 50.232 50.345 50.465 50.58 50.695 51.545 52.632 51.353 51.29 51.465 51.575 51.72 51.875 52.022 52.205 52.36 52.455 52.583 52.66 52.725
33.92 33.802 33.573 33.5 33.323 33.355 33.49 33.375 33.79 34.042 33.307 32.698 33.772 34.87 34.888 30.985 30.595 30.642 31.282 32.493 33.35 33.177 33.182 33.423 33.143 33.118 33.14 33.185 34.162 34.927 34.115 32.208 32.452 31.785 31.093 31.11 31.267 31.283 31.175 31.163 31.208 31.675 33.533 35.963 34.925 33.42 31.7 31.698 31.72 31.74 31.743 31.743 31.735 31.745 31.757 31.745 31.743 34.505 36.612 32.63 31.487 31.533 31.842 32.93 31.323 31.36 31.478 31.61 31.733 31.88 32.14 32.347 32.435 32.535 32.61 32.713 32.775 32.877 33.033 33.125 33.107 33.068 33.083 33.19 33.255 33.385 33.653 34.007 35.815 35.17 35.11 35.122 35.173 35.222 35.323 35.365 35.403 35.482 35.77 36.673 36.753 37.035 36.908 37.268 37.827 38.048 38.16 38.052 37.938 38.02 38.095 38.167 38.24 38.318 38.425 38.51 38.607 38.7 38.927 39.135 39.338 39.695 40.235 40.855 40.158 40.515 40.99 41.34 42.76 42.91 43.215 43.675 43.885 43.745 43.895 44.09 44.312 44.643 45.015 44.74 45.372 44.877 44.987 45.118 45.255 45.445 45.58 45.71 45.795 45.833 45.858 46.065 46.31 46.46 46.52 46.662 46.783 46.88 47.01 47.115 47.225 47.373 48.31 48.695 48.435 48.132 48.165 48.18 48.173 48.135 48.14 48.155 48.18 48.447 49.54 49.39 49.465 49.55 49.597 50.005 49.675 49.858 50.695 50.877 50.43 50.49 50.515 50.54 50.56 50.57 50.58 50.607 50.673 50.875 51.12 51.107 51.432 52.555 50.565 50.363 50.47 50.528 50.573 50.618 50.647 50.69 50.75 50.778 50.818 50.862 50.928 50.98 51.037 51.105 51.16 51.237 51.31 51.388 51.448 51.54 51.61 51.682 51.765 51.85 51.938 52.018 52.108 52.175 52.237 52.3 52.38 52.465 52.542 52.632 52.71 52.8 52.882 53.003 53.083 53.155 53.255 53.345 53.412 53.483 53.55 53.632 53.715 53.79 53.842 53.912 54 54.518 55.042 54.603 54.662 54.658 54.71 54.778 54.805 54.783 54.717 54.58 54.802 55.073 55.167 55.215 55.467 55.73 56 56.162 56.245 56.335 56.405 56.487 56.567 56.63 56.698 56.713 56.763 56.768 56.755 56.73 56.717 56.75 56.778 56.815 56.812 56.825 56.833 56.895 56.965 57 57.028 56.99 57.018 57.07 57.103 57.042 56.987 56.945 56.825 56.605 56.385 56.075 55.568 55.045 54.855 54.972 55.048 55.13 54.778 53.955 52.978 51.748 51.202 51.005 50.847 50.785 50.853 50.93 51.005 51.138 51.155 51.355 51.11 51 50.198 49.847 52.173 51.175 48.89 48.447 48.195 48.01 48.378 48.315 46.085 45.268 44.42 44.448 46.895 50.013 53.705 54.068 55.882 52.655 46.878 45 45.015 45.022 45.147 45.18 47.327 46.037 45.298 47.145 50.365 51.13 51.35 47.835 46.23 45.55 44.87 44.853 46.975 46.54 45.45 46.412 47.002 46.475 45.365 45.03 47.41 45.855 45.732 45.897 46.035 46.195 46.15 46.195 46.28 46.368 46.47 46.64 46.83 46.942 47.03 47.177 47.268 47.37 47.415 47.5 47.658 47.772 47.868 47.965 48.088 48.16 48.23 48.305 48.385 48.472 48.59 48.68 48.757 48.847 48.917 49.003 49.097 49.14 49.2 49.26 49.355 49.435 49.5 49.575 49.632 49.715 49.792 49.87 49.96 50.033 50.135 50.27 51.33 52.005 50.865 50.783 50.917 51.045 51.202 51.33 51.45 51.635 51.82 51.993 52.147 52.318 52.448
35.96 35.89 35.412 34.79 34.235 33.59 33.558 33.513 33.502 34.675 33.7 33.105 34.573 34.132 34.325 34.15 33.497 32.983 34.342 33.16 33.197 33.305 33.245 33.243 33.275 33.285 33.305 33.465 33.38 33.42 33.722 34.122 35.195 34.665 33.18 31.493 31.155 31.167 31.17 31.24 31.222 31.358 31.22 31.237 31.28 31.772 31.737 31.753 31.765 31.783 31.788 31.79 31.778 31.79 31.807 31.785 31.77 33.22 35.42 33.888 31.592 31.638 31.702 32.31 31.448 31.507 31.545 31.69 31.882 32.123 32.355 32.485 32.568 32.68 32.732 32.812 32.888 33.01 33.147 33.125 33.077 33.11 33.17 33.287 33.245 34.347 35.943 35.278 35.143 35.112 35.118 35.173 35.217 35.257 35.32 35.373 35.478 35.49 36.232 37.18 36.965 37.195 37.55 37.577 37.63 37.735 37.82 37.893 37.95 38.03 38.103 38.188 38.255 38.365 38.612 38.83 39.072 39.64 39.878 40.018 40.103 40.548 40.825 41.26 41.465 41.915 42.355 42.76 43.405 43.43 44.278 44.265 44.25 44.412 44.72 44.562 44.632 44.785 44.805 44.915 45.06 45.175 45.302 45.47 45.643 45.798 45.938 45.985 46.007 46.132 46.378 46.588 46.737 46.823 46.945 47.09 47.195 47.287 47.39 47.497 47.597 47.732 48.257 49.257 48.507 48.232 48.25 48.275 48.248 48.225 48.192 48.21 48.26 48.53 49.77 49.658 49.722 49.778 49.82 49.882 51.05 55.725 52.675 52.612 51.568 50.562 50.607 50.61 50.675 50.72 50.825 50.877 51.018 51.362 51.655 51.67 51.98 53.088 50.638 50.71 50.833 50.885 50.93 50.96 50.995 51.033 51.092 51.132 51.195 51.252 51.287 51.345 51.397 51.47 51.548 51.627 51.705 51.783 51.842 51.912 51.965 52.06 52.13 52.225 52.292 52.388 52.46 52.522 52.597 52.653 52.732 52.787 52.88 52.97 53.05 53.15 53.24 53.322 53.417 53.507 53.58 53.66 53.745 53.815 53.915 54.003 54.073 54.145 54.232 54.27 54.35 54.99 55.537 54.903 54.95 54.967 55.003 55.085 55.112 55.08 55.042 54.978 55.215 55.37 55.445 55.54 55.793 55.99 56.188 56.305 56.395 56.463 56.562 56.63 56.702 56.76 56.827 56.835 56.83 56.845 56.86 56.84 56.84 56.88 56.912 56.923 56.947 56.963 56.967 57.028 57.08 57.158 57.15 57.18 57.188 57.27 57.278 57.292 57.235 57.197 57.12 57.055 56.933 56.767 56.423 56.052 55.645 55.272 55.243 55.315 55.42 55.268 54.607 53.515 51.975 51.897 51.21 51.06 50.935 50.98 51.033 51.065 51.075 51.138 51.107 51.083 51.003 50.638 49.91 49.708 49.622 49.278 48.665 48.09 47.25 47.04 46.72 45.64 44.643 44.607 46.93 50.812 49.995 53.44 52.255 51.283 46.698 45.075 45.08 45.088 45.11 45.14 45.16 45.33 45.278 47.8 50.452 51.853 51.96 51.417 49.235 45.31 45.658 45.838 46.5 46.408 48.4 45.243 45.675 45.592 45.235 45.908 46.235 46.065 46.002 45.638 45.7 45.768 45.975 45.995 46.037 46.178 46.29 46.445 46.54 46.645 46.785 46.935 47.06 47.215 47.253 47.365 47.557 47.625 47.69 47.757 47.833 47.905 48.003 48.068 48.138 48.21 48.292 48.373 48.442 48.55 48.618 48.72 48.803 48.858 48.935 49.028 49.092 49.167 49.22 49.287 49.35 49.425 49.507 49.57 49.64 49.728 49.812 49.903 51.143 51.123 50.357 50.35 50.47 50.608 50.763 50.888 51.018 51.167 51.292 51.433 51.622 51.8 51.952
