ncols 457
nrows 31
xllcorner    245038
yllcorner    134822
cellsize     2
NODATA_value -9999
13.173 13.57 14.217 14.75 12.925 12.773 13.352 14.483 15.222 16.212 17.292 17.452 17.365 17.435 17.647 17.948 18.35 18.9 19.743 20.323 20.688 21.038 21.71 22.442 22.92 23.85 25.048 25.62 26.175 26.985 27.655 28.503 29.05 29.44 29.7 29.785 29.853 30.173 30.8 31.153 31.45 32.458 33.838 34.68 35.915 36.515 36.56 36.833 36.552 37.173 38.662 39.488 39.167 39.03 38.127 37.118 36.715 37.6 38.32 39.177 38.632 38.222 37.89 37.345 36.868 36.568 36.127 35.375 34.463 33.56 33.007 32.432 32.18 31.725 30.845 30.737 31.087 31.267 31.618 31.51 30.955 30.892 30.808 29.515 28.923 28.615 28.547 28.615 28.615 28.25 27.483 26.753 25.915 24.805 24.722 24.792 23.535 22.628 22.98 23.048 22.55 22.032 21.57 21.13 20.573 19.858 19.858 20.292 20.403 20.307 20.045 19.128 18.222 17.698 17.077 15.983 15.175 14.328 13.663 13.142 12.795 12.907 12.54 12.007 11.745 11.443 11.543 11.472 11.102 11.163 11.12 11.48 11.545 11.785 11.97 12.275 12.18 11.8 11.425 11.038 10.802 10.73 10.618 10.525 10.533 10.485 10.318 10.385 10.333 10.195 10.193 10.245 10.315 10.535 10.702 10.915 10.922 10.925 10.587 10.135 9.948 9.94 9.91 9.917 9.93 9.932 9.898 9.847 9.87 9.868 9.908 9.945 9.95 9.95 9.953 9.922 9.945 9.977 10.05 10.08 10.073 10.075 10.07 10.07 10.205 10.265 10.292 10.292 10.325 10.385 10.528 10.538 10.733 10.993 11.307 11.99 12.16 11.903 11.903 12.105 12.312 12.423 12.2 12.167 12.333 12.533 12.347 12.41 12.417 12.485 12.445 12.552 12.673 12.645 12.71 12.945 13.12 13.18 13.27 13.182 13.137 13.08 13.148 13.22 13.203 13.212 13.425 13.663 13.825 13.903 13.972 14.225 14.445 14.295 14.298 14.318 14.438 14.71 14.85 15.193 15.285 15.427 15.523 15.645 15.928 16.503 16.667 16.365 16.163 16.545 17.01 17.487 18.013 18.635 19.225 19.355 19.49 19.745 20.015 20.342 20.892 21.608 22.215 22.833 23.235 23.815 24.805 25.993 26.438 26.443 26.09 25.33 25.28 25.2 25.305 25.587 25.968 26.905 27.145 26.53 26.513 27.73 28.55 28.7 28.833 28.577 27.325 27.022 26.847 26.448 26.767 27.093 27.163 26.798 27.073 26.507 26.958 27.222 26.94 26.15 25.632 25.295 25.032 24.528 24.185 23.792 22.392 21.688 21.425 20.983 20.46 19.82 18.783 17.452 16.698 16.097 14.993 14.385 14.453 14.57 14.823 14.977 14.872 14.72 14.045 13.823 14.055 14.465 14.222 13.917 13.358 13.39 13.265 13.135 13.11 13.005 13.033 13.128 13.135 13.09 13.23 14.1 14.523 14.423 14.227 14.288 13.915 13.868 14.205 14.918 14.81 13.997 13.18 12.887 12.2 10.927 10.837 11.238 11.052 11.235 11.958 12.523 12.37 12.26 12.247 12.238 12.148 12.14 12.185 12.17 12.092 12.005 11.938 11.943 11.938 11.965 12.038 12.052 12.08 12.1 12.057 12.028 12.025 12.087 12.167 12.235 12.193 12.13 12.048 11.97 11.955 11.608 11.382 11.505 11.747 11.477 10.91 10.825 10.72 10.472 10.432 10.458 10.445 10.335 10.3 10.27 10.398 10.38 10.568 10.685 10.295 10.483 10.663 10.358 10.372 10.39 10.52 10.64 10.7 10.948 11.142 11.025 10.865 10.62 10.347 10.323 10.4 10.502 10.573 10.667 10.892 11.085 11.25 11.333 11.31 10.773 10.863 10.953 11.045 10.93 10.713 11.167 11.57 11.75 11.708 11.74 11.395 10.908 10.73 10.595 11.023 11.012 10.36 10.288 10.33 10.46 10.495
13.54 13.92 14.545 15.243 13.91 12.96 13.163 13.875 14.975 16.627 16.907 17.09 17.222 17.29 17.612 17.923 18.413 19.155 19.745 20.045 20.325 20.735 21.545 22.33 22.932 23.9 24.432 24.952 25.63 26.75 27.392 28.285 28.597 28.69 29.188 29.272 29.455 29.962 30.91 31.94 32.33 32.835 33.665 34.895 35.545 36.062 36.778 37.132 37.377 37.347 38.27 39.427 39.14 38.632 37.698 36.97 36.995 39.265 38.958 38.865 38.588 38.237 38.275 38.028 37.243 36.303 35.507 34.82 34.27 33.47 32.885 32.397 31.855 31.28 30.835 30.417 30.425 31.415 31.743 31.12 30.455 30.448 30.545 29.91 28.97 28.52 28.16 28.705 28.76 28.468 27.568 26.702 25.618 24.737 24.77 23.975 23.595 24.355 24.065 23.372 22.695 22.272 21.708 21.53 21.37 20.94 19.952 20.007 20.388 20.487 20.267 19.493 18.927 18.347 17.837 17.085 15.708 14.753 14.585 13.61 13.653 13.182 12.565 12.293 11.955 11.58 11.92 11.635 11.148 11.087 11.06 11.23 11.62 12.035 12.413 12.493 12.307 11.882 11.632 11.11 10.847 10.802 10.795 10.89 10.93 10.597 10.25 10.227 10.188 10.23 10.26 10.305 10.337 10.635 10.87 11.087 11.302 11.113 10.61 10.227 9.993 9.91 9.805 9.792 9.842 9.868 9.865 9.86 9.858 9.858 9.86 9.887 9.917 9.948 9.952 9.977 9.99 9.96 9.945 10.01 10.068 10.07 10.113 10.157 10.335 10.703 10.82 10.597 10.465 10.363 10.377 10.417 10.425 10.46 10.512 10.773 10.925 11.042 11.29 11.855 12.195 12.262 12.09 11.953 11.922 11.977 12.095 12.328 12.575 12.64 12.48 12.39 12.295 12.43 12.67 13.2 13.71 13.368 13.125 13.11 13.215 13.13 13.318 13.275 12.93 12.75 12.86 13.148 13.497 13.738 13.722 14.065 14.405 14.267 14.358 14.295 14.465 14.722 14.648 14.847 14.908 15.017 15.24 15.505 15.75 15.96 16.147 16.253 16.065 16.395 16.885 17.355 17.837 18.305 18.693 19.093 19.53 19.737 20.022 20.647 21.75 22.58 22.705 23.388 23.573 23.745 24.62 25.53 26.112 26.052 25.748 25.37 25.76 25.59 25.862 25.987 26.265 26.785 26.942 26.5 26.243 27.083 27.733 27.983 28.795 28.715 27.677 27.948 28.09 27.09 27.077 27.327 27.128 27.245 27.858 27.18 26.538 26.462 26.052 25.455 24.862 24.943 24.635 23.693 23.478 23.368 22.448 22.085 22.005 21.552 20.88 20.18 19.017 17.597 16.975 15.767 14.773 14.622 14.407 14.392 14.49 14.68 14.645 14.24 13.83 13.658 13.738 14.15 13.887 13.632 13.295 13.333 12.995 12.958 12.935 12.88 12.875 12.93 12.898 12.927 13.073 13.977 14.502 13.905 13.99 14.148 13.495 13.27 13.365 13.922 13.805 13.552 12.528 11.823 11.41 10.99 11.033 11.252 11.095 11.113 11.615 12.347 12.235 12.2 12.2 12.145 12.12 12.097 12.087 12.068 11.98 11.953 11.94 11.988 12.04 12.045 12.012 12.005 12.033 12.015 11.977 11.98 12.015 12.085 12.102 12.065 11.948 11.865 11.905 12.003 11.792 11.517 11.267 11.345 11.26 11.155 10.84 10.613 10.568 10.48 10.403 10.41 10.39 10.43 10.347 10.302 10.295 10.262 10.677 10.507 10.307 10.59 11.068 10.417 10.323 10.255 10.212 10.32 10.743 11.13 11.512 11.628 11.597 11.512 10.675 10.275 10.4 10.288 10.407 10.438 10.658 11.023 11.173 11.225 11.165 11.033 11.078 11.278 10.988 10.887 11.14 11.623 11.915 11.693 11.778 11.743 11.19 10.76 10.555 10.78 10.88 10.42 10.362 10.363 10.413 10.435 10.45
13.698 14.215 14.727 15.175 14.835 13.5 13.307 13.868 15.472 15.755 16.185 16.61 16.955 17.24 17.323 17.42 18.3 19.122 19.405 19.443 19.985 20.188 20.965 21.958 22.655 23.708 24.083 24.335 25.007 25.775 26.605 27.062 27.077 28.233 29.052 29.728 30.228 30.712 31.423 32.4 33.375 34.105 34.877 35.678 36.167 36.555 36.915 37.037 37.065 37.353 38.002 39.105 39.62 38.47 37.463 36.803 37.21 38.533 38.833 38.577 38.228 37.932 37.6 37.175 37.068 36.765 36.178 35.257 34.455 33.803 33.245 32.792 32.39 31.882 31.38 30.69 29.943 30.2 31.243 30.677 30.25 30.02 30.01 30.175 29.555 28.775 27.978 28.3 28.528 28.4 27.667 26.78 25.688 25.19 24.763 24.432 24.91 25.052 24.57 23.583 22.725 22.15 22.097 21.955 21.255 20.99 20.76 20.138 20.21 20.337 20.235 19.565 19.24 18.925 18.38 17.558 16.85 15.81 15.045 14.305 14.365 13.58 12.958 12.653 12.248 11.993 12.283 12.28 11.62 11.382 11.27 11.468 11.82 12.395 12.545 12.575 12.45 12.015 11.708 11.15 10.87 10.79 10.795 11.068 11.352 11.007 10.382 10.252 10.17 10.137 10.165 10.24 10.288 10.557 10.83 11.355 11.57 11.4 10.9 10.095 9.965 9.885 9.79 9.81 9.837 9.835 9.895 9.863 9.872 9.882 9.895 9.905 9.903 9.922 9.932 9.967 9.997 9.95 9.938 9.985 10.01 10.042 10.087 10.123 10.27 10.722 10.898 11.057 10.725 10.483 10.38 10.495 10.618 10.56 10.42 10.35 10.425 10.455 10.575 11.07 11.395 11.477 11.645 11.595 11.658 11.693 11.712 11.905 12.148 12.358 12.347 12.17 12.078 12.22 12.663 13.477 13.965 13.54 13.295 13.415 13.307 13.125 13.102 13.253 12.79 12.477 12.363 12.5 13.005 13.517 13.42 13.985 14.202 13.81 13.795 14.045 14.165 14.28 14.445 14.44 14.565 14.882 15.188 15.4 15.735 15.885 15.8 15.955 15.965 16.312 16.673 17.175 17.625 18.065 18.655 19.202 19.725 20.097 20.763 21.345 22.722 23.247 23.385 23.862 24.138 24.188 24.365 24.77 25.6 25.84 25.472 25.227 25.517 25.795 26.615 26.61 26.795 27.032 26.91 26.653 26.677 26.858 27.182 27.465 27.897 28.655 28.475 28.47 28.247 27.767 27.587 27.612 27.14 27.347 27.872 27.507 26.778 26.323 25.85 25.635 24.987 24.897 24.395 23.783 23.26 22.875 22.747 22.535 22.385 21.985 21.173 19.978 18.743 17.47 16.823 15.705 14.983 15.273 14.64 14.39 14.323 14.278 14.193 13.95 13.792 13.575 13.483 13.528 13.37 13.132 12.895 12.875 12.773 12.815 12.823 12.785 12.755 12.8 12.797 12.792 12.92 13.745 13.825 13.63 13.807 13.642 13.137 12.847 12.885 13.01 12.748 12.182 11.587 11.23 11.083 11.092 11.207 11.323 11.038 11.035 11.335 12.017 12.105 12.122 12.16 12.167 12.095 12.078 12.03 11.917 11.872 11.898 11.925 11.952 12.02 11.99 11.825 11.778 11.85 11.885 11.91 12.005 12.03 11.95 11.907 11.85 11.743 11.672 11.82 11.717 11.557 11.302 11.17 11.078 10.983 11.002 10.88 10.547 10.495 10.38 10.333 10.387 10.408 10.457 10.395 10.318 10.342 10.302 10.182 10.08 10.182 10.292 10.318 10.375 10.355 10.26 10.16 10.222 10.738 11.312 11.795 11.962 12.135 11.938 11.32 10.972 10.743 10.5 10.27 10.403 10.765 11.075 11.22 11.267 11.173 11.113 11.14 11.82 12.017 11.443 11.443 11.725 11.618 11.627 11.382 11.45 10.895 10.61 10.453 10.497 10.375 10.247 10.783 10.5 10.52 10.387 10.31
13.68 13.977 14.343 14.785 15.15 14.46 13.545 13.918 15.305 15.31 15.48 15.898 16.458 16.853 16.993 16.985 17.58 18.445 18.845 18.763 19.19 19.735 20.702 21.58 21.993 23.007 23.392 23.715 24.353 25.153 25.49 25.68 26.377 27.33 28.11 28.645 29.955 30.913 31.76 32.66 34.65 35.443 35.55 36.177 36.455 36.89 36.92 36.872 37.07 37 37.575 38.952 39.808 38.393 37.335 36.647 37.033 38.365 39.215 38.628 38.11 37.958 37.722 37.355 36.895 36.377 36.018 35.67 35.268 34.885 34.51 34.257 33.475 32.855 32.362 31.815 30.647 29.705 29.615 30.24 30.033 29.92 29.938 30.02 29.728 28.865 27.818 27.68 28.09 28.167 27.855 26.36 25.517 25.173 25.045 25.015 25.083 24.97 24.603 23.935 22.97 22.625 22.233 21.985 21.548 21.2 21.335 20.997 20.34 19.952 19.958 19.702 19.462 19.333 18.67 17.853 16.908 16.245 15.97 15.42 14.6 13.798 13.37 12.878 12.838 12.79 12.715 12.395 11.935 11.738 11.67 12.285 12.325 12.5 12.767 12.595 12.267 12.025 11.695 11.28 11.05 10.855 10.86 10.962 11.36 11.007 10.85 10.52 10.493 10.267 10.075 9.993 9.993 10.123 10.24 10.555 10.8 10.568 10.04 10.03 10.05 10.097 10.005 9.927 9.845 9.868 9.885 9.887 9.875 9.903 9.923 9.94 9.955 9.94 9.923 9.945 9.972 9.955 9.967 10.025 10.033 10.015 10.062 10.132 10.41 10.952 11.198 11.078 10.71 10.63 10.405 10.542 10.807 10.917 10.63 10.35 10.298 10.3 10.35 10.5 10.595 10.727 10.935 11.208 11.185 11.295 11.498 11.675 11.882 12.042 12.047 11.983 11.977 12.012 12.34 13.005 13.128 13.055 12.998 13.325 13.347 13.333 13.188 13.352 13.135 12.618 12.25 12.2 12.488 13.003 13.247 13.66 13.753 13.653 13.548 13.733 13.698 13.74 13.94 13.975 14.212 14.7 14.997 15.22 15.542 15.775 15.618 15.693 15.79 16.193 16.587 17.108 17.548 18.087 18.575 19.267 19.87 20.542 21.41 21.868 22.938 23.573 23.903 24.673 24.907 24.935 25.253 25.337 25.58 25.767 25.762 25.935 26.068 26.49 26.682 26.423 26.507 26.812 27.11 26.79 26.548 26.585 26.823 27.252 28.102 28.935 29.297 29.442 28.78 28.358 28.345 28.645 27.605 27.79 28.083 27.245 26.7 26.417 26.073 25.425 25.042 24.772 24.125 23.608 23.415 23.087 23.083 22.748 22.24 21.845 20.763 19.445 18.245 17.2 16.255 15.68 15.405 15.23 14.825 14.57 14.41 14.273 14.078 13.913 13.76 13.533 13.387 13.307 13.135 13.045 12.905 12.755 12.725 12.765 12.815 12.775 12.698 12.695 12.72 12.7 12.695 12.962 13.148 13.415 13.578 13.29 12.79 12.44 12.275 12.175 11.823 11.452 11.182 11.09 11.06 11.193 11.43 11.302 10.977 10.92 11.19 11.44 11.555 11.818 12.087 12.115 12.073 12.02 11.92 11.89 11.83 11.858 11.962 11.985 11.922 11.722 11.413 11.333 11.46 11.65 11.91 12.09 12.01 11.877 11.79 11.72 11.587 11.62 11.465 11.562 11.255 11.073 11.065 11.078 11.038 10.835 10.675 10.535 10.465 10.363 10.34 10.375 10.39 10.455 10.347 10.292 10.61 10.41 10.275 10.18 10.19 10.195 10.307 10.295 10.438 10.34 10.145 10.123 10.577 11.225 11.767 12.052 12.208 11.91 11.605 11.225 10.87 10.488 10.295 10.35 10.515 10.835 10.985 10.98 10.925 11.035 11.335 11.903 11.965 11.347 11.52 11.795 11.642 11.445 10.752 10.653 10.46 10.293 10.325 10.288 10.245 10.245 10.285 10.54 10.497 10.512 10.403
14.095 14.46 14.823 15.033 15.26 15.033 13.927 14.11 15.235 14.983 15.06 15.38 16.04 16.443 16.743 16.63 16.868 17.75 18.16 18.27 18.618 19.335 20.235 21.007 21.645 22.13 22.64 23.177 23.757 24.39 24.52 24.943 25.635 26.61 27.702 28.47 29.835 30.875 32.108 33.237 34.657 34.757 34.917 35.903 36.628 36.68 37.02 37.022 37.353 37.595 37.987 39.405 39.505 38.193 37.21 36.43 36.412 37.145 38.875 39.04 38.993 38.847 38.815 38.585 38.065 37.595 37.26 36.783 36.385 36.035 35.55 34.81 34.272 33.588 33.022 32.393 31.945 31.05 29.663 29.395 29.737 29.885 30.08 30.017 29.568 28.583 27.61 27.175 27.38 27.007 26.037 25.54 25.695 25.485 25.267 25.233 24.983 24.688 24.282 23.95 23.42 22.993 22.52 22.217 21.868 21.517 21.747 21.698 20.93 19.923 19.65 19.85 19.792 19.628 19.32 18.228 17.295 16.82 16.612 16.128 14.773 14.265 13.79 13.702 13.78 12.922 12.82 12.645 12.2 12.055 12.108 12.445 12.517 12.602 12.733 12.618 12.247 12.095 11.872 11.618 11.335 11.025 11.003 11.09 11.188 11.39 10.955 10.682 10.835 10.38 10.37 10.205 10.068 9.998 10.025 10.052 10.102 10.173 10.273 10.33 10.725 10.798 10.475 10.038 9.927 9.94 9.91 9.9 9.885 9.9 9.94 9.977 10.025 9.985 9.945 9.92 9.94 9.905 9.94 9.993 9.985 10.005 10.048 10.18 10.56 11.042 11.198 11.092 10.76 10.78 10.552 10.665 11.155 11.318 10.94 10.58 10.31 10.233 10.225 10.265 10.345 10.432 10.557 10.608 10.592 10.775 11.173 11.513 11.625 11.792 11.83 11.753 11.712 11.763 11.958 12.257 12.318 12.413 12.635 12.815 12.905 13.05 13.58 13.475 12.922 12.645 12.39 12.215 12.185 12.497 12.925 13.54 13.54 13.365 13.122 13.423 13.427 13.392 13.568 13.605 13.985 14.517 14.715 14.815 15.17 15.262 15.27 15.38 15.595 16.028 16.605 17.22 17.558 18.115 18.66 19.27 19.733 20.285 20.968 21.693 22.645 23.413 23.895 24.532 25.01 25.425 25.98 26.243 26.288 25.802 26.06 26.673 26.765 27.055 26.833 26.495 26.48 26.612 27 26.65 26.36 26.295 26.49 26.995 28.015 28.923 29.25 29.013 28.915 29.045 28.868 28.638 28.065 28.022 27.523 27.045 26.597 26.095 25.868 25.407 24.71 24.427 24.052 23.665 23.345 23.11 22.96 22.642 22.032 21.545 20.6 19.342 18.135 17.055 16.29 15.983 15.77 15.368 14.96 14.785 14.613 14.39 14.44 14.083 13.858 13.568 13.422 13.39 13.35 13.32 13.188 12.97 12.837 12.885 12.985 13.01 12.795 12.64 12.645 12.602 12.485 12.722 12.83 12.985 13.182 13.41 12.505 12.165 11.965 11.747 11.5 11.225 11.065 10.983 10.977 11.07 11.32 11.123 10.915 10.81 11.36 11.89 11.69 11.653 11.882 12 12.007 11.97 11.892 11.828 11.865 11.927 11.967 11.91 11.757 11.342 11.04 10.993 11.182 11.585 11.995 12.167 12.02 11.823 11.688 11.59 11.458 11.305 11.222 11.11 11.045 11.023 11.052 11.017 11.003 10.815 10.662 10.543 10.465 10.335 10.345 10.288 10.305 10.29 10.302 10.378 10.485 10.398 10.458 10.46 10.318 10.22 10.18 10.28 10.417 10.28 10.175 10.167 10.533 11.15 11.58 11.945 12.12 11.892 11.573 11.153 11.13 10.908 10.46 10.49 10.605 10.767 10.8 10.722 10.76 10.77 11.122 11.24 11.083 11.203 11.605 11.625 11.613 11.725 11.347 10.403 10.288 10.267 10.275 10.253 10.22 10.167 10.292 10.438 10.425 10.368 10.435
14.67 15.118 15.42 15.62 15.76 15.747 14.775 14.495 15.11 14.87 14.698 15.04 15.955 16.26 16.385 16.235 16.37 16.798 17.353 17.673 18.013 18.62 19.625 20.475 20.978 21.208 21.775 22.67 23.205 23.53 23.748 24.068 24.71 26.057 27.103 27.952 29.698 30.48 31.028 31.667 32.353 33.237 34.295 35.067 35.682 36.515 37.272 37.69 38.208 38.882 39.105 39.69 39.857 38.083 37.092 36.115 35.835 36.213 37.667 39.53 40 40.048 39.73 39.84 39.355 38.917 38.48 38.02 37.697 37.217 36.568 35.847 35.085 34.295 33.893 33.153 32.487 32.408 31.362 29.715 29.305 29.312 29.23 29.112 28.655 28.145 27.63 27.158 26.83 26.405 26.575 27.12 26.405 25.958 25.712 25.298 24.45 24.033 23.76 23.68 23.32 23.075 22.807 22.335 21.955 21.63 21.788 21.55 21.565 20.347 19.715 19.862 20.08 19.89 19.847 19.25 18.27 17.892 16.618 15.712 15.382 14.94 14.352 14.453 14.443 13.568 13.16 12.708 12.45 12.193 12.28 12.42 12.517 12.632 12.698 12.632 12.483 12.333 12.2 11.932 11.712 11.273 11.108 11.057 11.195 11.635 11.04 10.62 10.975 10.812 11.09 10.585 10.375 10.195 10.252 10.61 10.827 11.087 10.755 10.69 10.523 10.545 10.62 10.182 10.065 9.997 9.915 9.875 9.922 9.885 9.932 10 9.997 9.967 9.948 9.91 9.945 9.93 9.935 9.952 9.995 10.005 10.09 10.36 10.8 11.225 10.915 10.702 10.645 10.597 10.472 10.525 10.967 11.24 11.21 10.898 10.385 10.28 10.243 10.267 10.305 10.328 10.382 10.378 10.283 10.36 10.573 10.842 11.1 11.475 11.72 11.543 11.435 11.465 11.708 11.945 12.015 12.14 12.413 12.565 12.54 12.562 12.58 12.538 12.557 12.422 12.205 12.052 12.007 12.182 12.597 13.105 13.077 12.905 12.71 12.98 13.182 13.075 13.07 13.218 13.663 14.105 14.225 14.355 14.578 14.835 15.108 15.295 15.525 15.767 16.298 17.01 17.41 18.16 18.717 19.135 19.608 20.165 20.847 21.717 22.72 23.345 23.623 23.88 24.548 25.115 25.722 26.12 26.55 25.727 25.7 26.36 26.302 26.465 26.655 26.502 26.558 26.555 27.125 26.858 26.468 26.535 26.865 26.925 27.485 28.097 28.538 28.815 28.71 28.938 28.972 28.855 28.537 28.035 27.507 27.092 26.59 26.073 25.788 25.427 24.718 24.06 23.757 23.503 23.253 23.173 23.085 23.033 22.218 21.4 20.257 19.042 17.915 17.052 16.533 16.485 15.785 15.362 15.153 15.365 15.27 14.917 15.048 14.415 14.285 13.823 13.448 13.422 13.45 13.53 13.712 13.648 13.403 13.298 13.352 13.32 13.115 12.79 12.622 12.495 12.19 12.302 12.51 12.585 12.483 12.42 11.95 11.733 11.63 11.48 11.283 11.075 11.017 10.97 10.977 10.972 10.948 11.017 10.93 10.725 11.435 11.71 11.288 11.278 11.618 11.873 11.837 11.837 11.797 11.76 11.795 11.845 11.905 11.88 11.79 11.22 10.915 11.015 11.368 11.788 12.078 12.172 12.017 11.82 11.632 11.493 11.375 11.24 11.11 11.055 11.097 11.352 11.455 11.485 11.323 11.102 10.66 10.66 10.578 10.347 10.335 10.35 10.46 10.64 10.718 10.69 10.472 10.35 10.503 10.528 10.545 10.415 10.217 10.26 10.283 10.235 10.217 10.243 10.403 11.09 11.73 12.238 12.283 12.155 11.83 11.327 11.095 11.078 11.042 10.72 10.6 10.75 10.575 10.642 10.858 10.74 10.685 10.682 10.825 11.085 11.557 11.448 11.695 11.385 11.052 10.465 10.283 10.222 10.245 10.21 10.262 10.342 10.378 10.29 10.335 10.535 10.538
15.445 15.725 15.785 15.858 15.727 15.638 15.253 14.935 15.405 14.983 14.56 14.64 15.27 15.562 15.79 15.75 15.948 16.155 16.502 16.907 17.41 18.048 18.81 19.557 20.1 20.597 21.22 21.865 22.522 23.025 23.21 23.517 24.092 24.938 25.993 26.965 28.19 28.535 29.862 31.038 31.925 33.123 34.33 35.202 35.43 36.18 37.155 37.923 38.042 38.827 39.505 40.115 39.833 37.862 36.895 35.752 35.35 35.693 36.982 38.597 40.423 41.01 41.077 40.568 40.838 40.278 39.858 39.382 39.075 38.48 37.717 36.807 35.945 35.345 34.682 33.868 32.997 32.95 32.458 30.92 29.34 29.408 29.108 28.69 28.365 28.042 27.717 27.372 27.055 26.85 27.07 27.247 26.757 26.32 25.998 25.288 24.2 23.59 23.215 23.273 22.968 23.327 22.92 22.317 21.92 21.86 21.76 21.33 21.53 21.042 19.92 19.75 19.827 19.85 19.892 19.525 18.743 17.325 16.653 16.647 16.51 15.733 15.045 15.033 14.542 14.443 13.42 12.927 12.593 12.273 12.27 12.408 12.542 12.715 12.927 12.97 12.783 12.552 12.475 12.122 11.852 11.505 11.225 11.085 11.055 11.1 10.94 10.73 10.677 10.73 10.972 10.99 11.093 10.35 10.46 11.057 11.46 11.455 10.84 10.81 10.6 10.148 10.113 10.062 10.093 9.972 9.915 9.94 9.945 9.948 9.913 9.945 9.98 9.96 9.843 9.798 9.908 9.955 9.975 9.972 9.98 10.028 10.142 10.432 11.012 11.13 10.73 10.602 10.355 10.898 10.575 10.44 10.753 10.96 11.507 10.72 10.455 10.34 10.312 10.33 10.378 10.365 10.323 10.29 10.285 10.247 10.345 10.435 10.62 11.05 11.155 11.48 11.273 11.215 11.283 11.52 11.733 11.972 12.273 12.413 12.423 12.193 11.988 11.915 11.927 11.903 11.855 11.85 11.837 11.94 12.248 12.513 12.568 12.4 12.33 12.517 12.82 12.802 12.688 12.845 13.148 13.515 13.725 14.047 14.453 14.868 15.025 15.28 15.368 15.55 16.138 16.595 17.095 17.785 18.37 18.763 19.345 20.212 20.93 21.628 22.302 22.98 23.295 23.585 24.083 24.62 25.18 25.785 26.077 25.94 25.593 25.895 25.975 25.99 26.218 26.603 26.667 26.688 27.087 27.27 26.767 27.08 27.595 27.835 28.09 27.923 28.142 28.515 28.425 28.91 29.052 28.818 28.59 28.19 27.73 27.497 26.87 26.175 25.642 25.257 24.307 23.855 23.455 23.2 23.085 23.202 23.225 22.925 21.972 21.175 19.84 18.812 17.7 17.212 16.927 16.205 15.825 15.987 16.195 16.247 15.958 15.538 15.458 14.667 14.335 14.17 13.637 13.5 13.49 13.71 14.025 14.307 14.14 14.21 13.795 13.778 13.597 13.165 12.807 12.415 12.052 11.975 12.028 12.023 11.847 11.658 11.51 11.363 11.245 11.208 11.102 11.035 10.98 10.858 10.82 10.828 10.837 10.895 10.97 10.68 11.337 11.44 11.023 10.952 11.358 11.685 11.677 11.628 11.512 11.505 11.648 11.698 11.762 11.837 11.715 11.188 11.03 11.438 11.75 12.042 12.128 12.105 11.988 11.797 11.61 11.448 11.335 11.208 11.132 11.158 11.273 11.71 11.61 11.638 11.632 11.45 10.823 10.67 10.625 10.47 10.347 10.405 10.747 11.112 11.365 11.128 10.738 10.327 10.218 10.3 10.45 10.448 10.3 10.318 10.387 10.45 10.368 10.355 10.67 11.365 11.92 12.09 12.052 12.028 11.86 11.587 11.403 11.622 11.745 11.158 10.885 10.615 10.538 10.548 10.562 10.48 10.45 10.485 10.525 10.587 10.847 11.153 11.142 10.995 10.425 10.267 10.273 10.205 10.32 10.338 10.372 10.363 10.212 10.44 10.42 10.42 10.53
15.948 15.905 15.815 15.628 15.495 15.573 15.438 15.23 15.983 15.3 14.565 14.505 14.802 14.99 15.198 15.24 15.408 15.53 15.733 16.077 16.735 17.44 18.185 18.802 19.542 20.165 20.737 21.26 21.812 22.28 22.62 22.927 23.568 24.45 25.17 26.058 27.025 28.403 29.967 31.005 31.9 33.167 34.41 35.12 34.932 35.52 36.327 36.847 37.235 38.307 39.397 39.135 37.97 37.327 36.537 35.365 34.93 35.202 36.292 37.502 40.042 41.028 41.32 40.643 41.627 41.615 41.237 40.842 40.46 39.56 38.535 37.91 36.993 36.087 35.255 34.228 33.64 33.452 32.618 31.395 29.94 29.782 30.055 29.935 29.72 28.95 28.462 27.975 27.148 27.05 26.858 26.82 26.3 25.798 25.593 25.12 24.23 23.552 23.077 23.007 22.84 22.522 22.417 22.202 22.347 22.2 22.028 21.915 21.767 21.382 20.157 19.885 19.917 19.9 19.58 18.84 18.062 17.847 18.015 18.025 17.87 16.562 16.233 15.872 15.44 14.818 14.155 13.48 12.975 12.847 12.785 12.59 12.595 12.93 13.195 13.12 13.108 12.885 12.618 12.38 12.185 11.927 11.413 11.282 11.16 11.227 11.102 11.01 10.86 10.592 10.913 11.057 11.307 10.785 10.615 10.765 11.062 10.965 10.823 10.625 10.693 10.195 10.137 10.108 10.003 9.887 9.92 10.015 9.98 9.98 10.003 10.017 9.977 9.988 9.863 9.82 9.85 9.89 9.93 9.98 10.002 10.035 10.23 10.413 10.827 11.245 10.92 10.485 10.658 10.497 10.637 10.767 10.613 10.632 10.685 10.807 10.565 10.352 10.305 10.295 10.327 10.347 10.325 10.295 10.245 10.243 10.225 10.273 10.488 10.64 10.682 10.783 11.038 11.023 11.045 11.113 11.435 11.852 12.23 12.273 12.11 11.895 11.73 11.665 11.637 11.755 11.958 11.915 11.698 11.835 12.052 12.048 12.285 12.148 12.02 12.025 12.255 12.387 12.413 12.663 12.988 13.318 13.663 14.235 14.578 14.882 15.14 15.115 15.087 15.083 15.56 16.087 16.66 17.167 17.77 18.295 18.95 19.688 20.323 21.057 21.733 22.128 22.778 23.892 24.31 24.585 25.105 25.392 25.507 25.257 25.212 25.315 25.65 25.927 26.327 26.907 27.015 26.908 27.333 27.52 27.142 27.155 27.392 27.938 28.27 28.245 27.897 27.948 28.042 28.555 28.505 28.502 28.138 27.612 27.31 26.975 26.47 25.75 25.317 24.712 24.08 23.52 23.185 23.075 23.105 23.105 22.938 22.423 21.573 20.597 19.735 18.625 17.805 17.347 16.817 16.395 16.923 17.057 16.61 15.99 15.363 15.32 15.405 14.818 14.477 14.208 13.87 13.63 13.602 13.847 14.27 14.612 14.763 14.815 14.33 14.218 14.135 13.757 13.245 12.78 12.155 11.98 11.89 11.573 11.378 11.238 11.227 11.142 10.993 10.935 10.88 10.823 10.765 10.722 10.677 10.63 10.618 10.667 10.845 10.648 11.087 10.99 10.635 10.642 10.938 11.475 11.507 11.385 11.257 11.295 11.417 11.485 11.587 11.735 11.63 11.362 11.273 11.562 12.035 12.227 12.205 12.093 11.92 11.788 11.61 11.448 11.337 11.235 11.195 11.285 11.467 11.68 11.595 11.395 11.605 11.57 10.99 10.65 10.49 10.422 10.432 10.625 10.785 11.073 11.343 11.32 10.852 10.453 10.222 10.267 10.528 10.483 10.488 10.578 10.733 10.755 10.747 10.615 10.847 11.54 12.07 11.983 11.653 11.838 11.94 11.712 11.343 11.245 11.512 11.292 10.925 10.56 10.965 10.613 10.6 10.36 10.498 10.34 10.44 10.337 10.75 10.915 10.535 10.653 10.325 10.253 10.35 10.252 10.325 10.26 10.342 10.298 10.295 10.315 10.6 10.57 10.408
16.037 15.945 15.863 15.67 15.41 15.315 15.403 15.3 16.325 15.585 14.605 14.395 14.335 14.535 14.717 14.717 14.637 14.802 15.007 15.458 15.943 16.785 17.72 18.307 18.845 19.587 20.188 20.63 21.07 21.43 21.818 22.31 23.06 24.02 24.935 25.91 27.102 28.43 29.44 30.522 31.343 32.5 33.447 34.268 34.298 34.647 35.443 36.365 37.66 38.842 39.055 37.88 36.963 36.643 35.713 34.88 34.48 34.68 35.55 36.577 37.787 39.423 40.69 40.34 40.978 42.215 42.555 42.19 41.385 40.243 39.673 38.875 37.912 36.81 35.592 34.525 34.263 33.545 32.425 31.575 30.663 30.132 30.487 30.475 30.022 29.465 28.98 28.407 27.77 27.4 27.228 26.33 25.718 25.343 25.155 24.95 24.345 23.685 23.475 23.337 22.993 22.753 22.983 22.747 22.667 22.57 22.498 21.875 21.983 20.862 20.323 20.108 20.035 19.948 19.623 19.3 19.278 18.972 18.775 18.623 18.1 17.423 16.983 16.432 15.843 15.467 14.895 14.427 14.052 14.39 13.983 13.49 13.398 13.295 13.32 13.495 13.712 13.605 13.245 12.69 12.547 12.525 12.2 11.77 11.773 11.715 11.688 11.38 11.202 11.03 10.837 10.727 10.738 10.587 10.595 10.752 10.905 10.833 10.622 10.59 10.597 10.375 10.283 10.26 10.048 10.003 9.878 9.98 10.03 10.007 9.958 9.975 9.995 10.01 10.028 9.943 9.91 9.903 9.87 9.903 10.028 10.193 10.27 10.273 10.488 10.997 10.977 10.41 10.597 10.44 10.81 10.705 10.738 10.93 10.735 10.858 10.608 10.365 10.335 10.325 10.335 10.34 10.298 10.25 10.25 10.247 10.21 10.16 10.205 10.33 10.55 10.782 10.88 10.705 10.8 10.863 11.14 11.67 12.073 12.145 11.802 11.493 11.462 11.488 11.47 11.682 11.93 11.948 11.6 11.76 11.968 12.1 12.085 11.958 11.807 11.775 11.882 12.075 12.347 12.802 13.125 13.39 13.658 14.163 14.387 14.488 14.852 14.913 14.75 14.665 14.903 15.37 15.993 16.915 17.67 18.097 18.548 19.095 19.61 20.55 21.32 22.007 22.548 23.24 23.702 24.177 24.603 24.632 24.712 24.745 24.837 25.085 25.817 26.27 26.548 26.932 26.855 26.89 27.263 27.765 27.655 27.833 27.592 27.435 27.73 27.96 27.65 27.76 27.88 28.075 28.005 27.923 27.278 26.865 26.503 26.427 26.188 25.61 24.862 24.665 24.055 23.585 23.255 23.01 22.765 22.612 22.237 21.608 21.12 20.36 19.59 18.745 17.835 17.33 17.128 17.045 17.503 17.21 16.913 16.325 15.76 15.698 15.328 14.887 14.762 14.32 13.955 13.852 14.08 14.33 14.413 14.77 14.845 14.28 14.24 13.953 13.878 13.935 13.395 13.25 12.595 12.052 11.907 11.528 11.22 11 10.927 10.892 10.89 10.762 10.715 10.677 10.645 10.568 10.545 10.502 10.498 10.538 10.76 10.653 10.97 10.812 10.54 10.5 10.545 11.015 11.2 11.145 11.215 11.26 11.347 11.435 11.583 11.79 11.722 11.733 11.747 11.988 12.262 12.28 12.2 12.16 11.927 11.807 11.667 11.525 11.415 11.333 11.325 11.39 11.595 11.715 11.788 11.438 11.485 11.305 10.852 10.562 10.453 10.413 10.493 10.83 10.852 11.015 11.32 11.392 11.085 10.91 10.71 10.48 10.59 10.735 10.725 10.778 10.927 11.05 11.13 10.977 11.108 11.68 11.985 12.032 12.05 12.208 12.22 12.265 11.74 11.493 11.503 11.438 11.175 10.785 10.677 10.755 10.48 10.36 10.28 10.243 10.315 10.418 10.775 10.373 10.368 10.458 10.365 10.307 10.198 10.727 10.735 10.295 10.328 10.485 10.365 10.378 10.283 10.188 10.2
16.243 16.123 16.142 15.948 15.693 15.49 15.363 15.18 16.208 15.46 14.583 14.318 14.048 14.042 14.038 13.832 13.762 13.9 14.208 14.922 15.545 16.215 17.005 17.46 18.012 18.61 19.372 19.997 20.378 20.885 21.415 21.987 22.638 23.338 24.43 25.325 26.9 28.07 28.983 29.868 30.92 32.272 32.952 33.32 33.653 34.515 35.135 36.46 37.518 37.888 37.478 36.605 36.128 35.84 34.96 34.215 33.917 34.145 34.885 35.87 36.877 38.275 39.405 39.755 40.645 41.8 42.675 42.347 41.715 41.537 40.823 39.835 38.673 37.533 36.393 35.342 34.583 33.607 32.46 31.722 31.32 30.432 30.733 30.67 30.083 29.7 29.202 28.735 28.36 27.81 27.202 26.062 25.427 25.06 24.888 24.932 24.743 24.2 24.015 23.753 23.385 23.278 23.565 23.405 22.88 22.82 22.948 22.362 21.39 20.673 20.34 20.448 20.355 20.245 20.342 20.243 19.923 19.535 19.41 19.13 18.812 18.595 18.155 17.452 16.85 16.215 16.007 15.265 14.895 14.542 14.597 14.587 14.28 14.422 14.035 13.61 13.852 13.753 13.74 13.403 13.29 13.05 13.042 12.375 12.47 12.477 12.533 12.16 12.045 11.392 11.142 10.922 10.915 10.778 10.7 10.625 10.693 11.163 11.078 10.932 10.983 11.087 11.145 10.725 10.355 10.052 9.94 9.895 10.023 10.042 9.863 9.882 9.995 10.035 9.997 10.02 10.01 9.95 9.908 9.9 10.035 10.525 10.552 10.387 10.285 10.455 10.642 11.038 10.52 10.552 10.962 10.825 11.08 11.185 10.975 10.595 10.608 10.355 10.355 10.368 10.37 10.347 10.29 10.265 10.265 10.26 10.28 10.29 10.23 10.23 10.202 10.24 10.382 10.445 10.448 10.61 10.708 10.97 11.255 11.61 11.358 11.097 11.16 11.302 11.185 11.392 11.43 11.472 11.375 11.493 11.545 12.05 12.245 12.075 11.83 11.76 11.882 12.173 12.415 12.797 13.212 13.297 13.343 13.618 13.818 13.977 14.378 14.552 14.45 14.39 14.515 14.85 15.448 16.19 16.92 17.675 18.18 18.888 19.24 20.04 20.632 21.022 21.408 22.185 22.792 23.188 23.645 23.932 24.51 24.638 24.66 25.235 25.8 25.93 26.145 26.28 26.58 26.815 27.355 27.985 28.142 28.093 28.163 28.038 27.755 27.215 27.147 27.375 27.772 28.022 27.62 27.615 26.743 26.233 26.038 25.94 25.667 25.36 24.735 24.503 23.927 23.552 23.358 23.03 22.145 21.735 21.372 20.983 20.833 20.283 19.3 18.13 17.855 17.763 17.597 17.507 17.753 17.517 17.132 16.41 15.85 15.693 15.355 15.007 14.882 14.587 14.137 13.958 14.46 14.542 14.378 14.685 14.903 14.295 13.215 12.923 12.932 12.68 12.733 13.292 13.185 12.135 11.997 11.67 11.263 11.07 10.935 10.778 10.72 10.62 10.577 10.507 10.467 10.43 10.415 10.375 10.39 10.435 10.682 10.595 10.815 10.745 10.515 10.438 10.483 10.63 10.783 11.083 11.31 11.335 11.422 11.465 11.65 11.84 12.005 12.09 12.092 12.142 12.153 12.142 12.167 12.142 11.932 11.788 11.705 11.622 11.547 11.458 11.445 11.468 11.59 11.805 11.935 11.58 11.215 10.858 10.675 10.542 10.462 10.46 10.828 10.948 11.048 11.01 11.217 11.392 11.455 11.645 11.51 11.265 11.048 11.158 11.193 11.073 11.033 11.042 11.055 11.28 11.54 11.807 11.9 12.023 12.557 12.89 12.935 12.818 12.253 11.945 11.507 11.227 11.025 10.858 10.733 10.39 10.323 10.347 10.502 10.273 10.27 10.28 10.578 11.8 10.273 10.293 10.36 10.265 10.288 10.548 10.648 10.45 10.425 10.743 10.677 10.18 10.205 10.22 10.142
16.31 16.255 16.243 16.308 16.065 15.807 15.288 15.052 15.775 15.545 14.413 14.145 13.962 13.788 13.538 13.403 13.363 13.51 13.84 14.602 15.332 15.983 16.085 16.382 16.993 17.705 18.62 19.415 20.115 20.743 21.295 21.812 22.385 22.94 23.873 25.095 26.542 27.943 29.073 29.927 30.85 31.785 32.612 33.092 34.448 35.085 35.632 36.29 37.052 37.943 36.995 35.815 35.263 34.84 34.127 33.605 33.395 33.63 34.287 35.165 36.122 37.145 38.217 39.323 41.385 41.54 41.693 42.002 42.857 42.805 41.833 40.692 39.485 38.193 37.013 35.987 34.885 33.923 32.745 32.37 31.987 30.712 30.99 30.783 30.333 30.03 29.385 29.07 28.892 27.935 26.785 25.878 25.323 24.985 24.9 24.92 24.86 24.455 24.182 24.07 23.818 23.853 24.06 23.46 23.435 23.198 22.958 21.965 21.21 21.255 21.468 21.438 21.185 20.382 20.38 20.64 20.282 19.847 19.8 19.823 19.79 19.342 19.038 18.55 17.97 17.397 17.118 16.557 15.912 15.43 15.285 15.092 15.325 15.535 14.725 13.938 13.938 13.747 14.3 13.895 13.415 13.925 13.912 13.115 13.038 13.215 13.327 13.002 12.515 12.055 11.827 11.493 11.58 11.198 11.005 11.052 11.255 11.672 11.802 11.538 11.86 11.477 11.403 11.255 11.458 10.39 10.038 10.033 10.113 10.185 10.08 9.925 9.877 9.977 10.01 9.99 10.035 10.08 10.043 10.042 10.137 10.64 10.517 10.53 10.413 10.3 10.323 10.555 10.53 10.565 10.795 10.805 11.468 10.698 10.698 10.625 10.425 10.347 10.337 10.34 10.315 10.333 10.295 10.328 10.382 10.455 10.35 10.373 10.347 10.323 10.292 10.218 10.218 10.23 10.295 10.375 10.33 10.53 10.695 10.792 10.755 10.788 10.842 10.92 10.842 10.845 10.85 10.795 10.862 11.097 11.21 11.302 11.68 12.017 11.798 11.722 11.825 12.033 12.18 12.405 12.67 12.73 12.82 13.132 13.32 13.637 13.917 14.12 14.175 14.17 14.233 14.443 14.913 15.53 16.272 16.962 17.375 18.112 18.625 19.193 19.632 20.132 20.862 21.46 21.755 22.353 22.948 23.665 23.955 24.185 24.31 25.087 25.257 25.038 25.568 25.885 26.263 26.342 26.712 27.067 27.495 27.747 27.625 27.817 27.188 26.802 26.943 27.095 27.307 27.21 27.255 27.353 26.59 26.068 25.64 25.198 25.112 24.798 24.455 24.323 24.43 23.513 23.118 22.542 21.79 21.235 21.03 20.847 20.542 19.99 18.682 18.257 18.525 18.208 17.837 17.923 17.923 17.595 17.17 16.395 15.847 15.693 15.333 14.9 14.932 14.828 14.525 13.967 13.968 14.095 14.632 14.913 15.115 14.552 13.535 12.815 12.427 12.052 11.96 12.628 12.983 12.29 12.045 11.875 11.34 11.007 10.852 10.717 10.642 10.57 10.5 10.413 10.342 10.33 10.328 10.323 10.34 10.352 10.58 10.557 10.693 10.557 10.477 10.425 10.517 10.688 10.917 11.275 11.46 11.472 11.5 11.46 11.575 11.845 11.962 11.995 11.975 11.91 11.807 11.762 11.805 11.915 11.837 11.812 11.82 11.775 11.72 11.613 11.573 11.573 11.658 11.82 11.967 11.655 11.32 11.165 10.648 10.475 10.528 10.69 10.837 11.163 11.323 11.193 11.205 11.337 11.62 11.882 12.18 12.198 11.715 11.583 11.658 11.352 11.358 11.497 11.052 11.068 11.65 12.298 12.22 12.158 12.682 13.188 12.91 12.92 12.382 12.028 11.485 11.295 11.108 10.962 10.747 10.47 10.377 10.557 10.355 10.43 10.667 10.512 10.735 10.392 10.675 11.333 10.21 10.153 10.248 10.43 10.562 10.438 10.265 10.158 10.217 10.33 10.32 10.173 10.283
15.442 16.155 16.265 16.032 15.847 15.722 15.217 15.012 15.448 15.535 14.368 13.99 13.85 13.71 13.458 13.325 13.35 13.48 13.76 14.38 14.877 14.727 14.845 15.325 15.977 16.965 18.062 19.085 19.985 20.767 21.055 21.743 22.43 22.92 23.755 24.935 26.53 27.78 28.905 29.948 31.033 32.107 32.69 33.1 34.013 34.37 35.125 36.055 37.115 36.885 36.195 35.345 34.54 33.938 33.298 32.868 32.79 33.138 33.77 34.555 35.415 36.358 37.34 38.382 39.702 40.822 41.535 42.385 42.89 43.285 42.487 41.145 39.825 38.678 37.618 36.4 35.225 34.188 32.993 32.673 32.553 31.05 31.243 31.075 30.573 30.127 29.335 29.235 29.36 27.987 26.65 25.923 25.472 25.247 25.1 24.92 24.743 24.253 24.01 24.147 24.132 24.225 24.433 24.08 23.722 23.568 22.405 21.855 22.233 22.642 22.392 22.155 22.01 21.015 20.737 20.932 20.74 20.245 20.177 20.358 20.353 20 19.722 19.405 18.892 18.253 18.278 17.825 17.295 16.83 16.335 16.353 16.028 16.243 15.9 14.895 14.655 14.468 15.005 13.91 14.443 14.24 14.165 13.843 13.583 13.788 13.73 13.79 13.438 13.21 12.347 11.953 11.682 11.69 11.658 11.84 11.995 12.432 12.565 12.325 12.237 11.842 11.452 11.415 11.46 11.083 11.062 10.512 10.092 10.222 10.12 10.062 9.94 9.892 9.93 9.983 10.023 10.023 10.06 10.125 10.312 10.77 10.515 10.41 10.512 10.56 10.378 10.47 10.552 10.56 10.645 10.765 10.507 10.648 10.523 10.608 10.37 10.333 10.3 10.26 10.27 10.298 10.342 10.355 10.343 10.355 10.365 10.372 10.405 10.363 10.38 10.37 10.368 10.373 10.347 10.292 10.175 10.158 10.25 10.355 10.413 10.56 10.698 10.64 10.637 10.658 10.632 10.565 10.507 10.535 10.665 10.78 10.87 11.068 11.305 11.5 11.698 11.837 11.887 11.98 12.167 12.31 12.483 12.775 12.945 13.125 13.368 13.63 13.858 13.805 13.908 14.073 14.39 14.943 15.515 15.97 16.452 17.24 17.895 18.478 18.95 19.6 20.04 20.438 20.823 21.3 21.87 22.618 22.97 23.375 23.8 24.153 24.388 24.423 24.72 25.022 25.438 25.78 26.323 26.823 26.96 26.805 26.785 26.772 26.542 26.888 27.263 27.295 27.068 26.835 27.105 27.068 26.448 26.073 25.63 25.265 24.778 24.405 24.217 24.147 24.31 23.558 22.903 22.135 21.51 21.145 21.013 20.807 20.285 19.175 18.805 19.147 18.92 18.685 18.53 18.055 18.012 17.493 17.165 16.812 16.24 15.842 15.39 14.855 14.828 14.79 14.493 14.012 13.903 14.065 14.545 14.91 15.08 14.682 13.533 12.705 12 11.823 11.628 11.71 12.355 12.335 12.062 12.025 11.59 11.095 10.87 10.757 10.698 10.645 10.493 10.363 10.285 10.278 10.297 10.28 10.27 10.318 10.48 10.557 10.635 10.517 10.422 10.457 10.613 10.818 11.132 11.425 11.56 11.622 11.703 11.483 11.493 11.837 11.962 11.903 11.775 11.657 11.545 11.56 11.677 11.773 11.847 11.967 12.073 12.017 11.833 11.688 11.637 11.677 11.783 11.925 12.227 12.012 11.577 11.212 10.663 10.583 10.72 11.145 10.967 11.262 11.455 11.595 11.352 11.435 11.688 11.943 12.28 12.497 12.26 12.155 11.83 11.45 11.823 11.87 11.57 11.7 11.825 12.47 12.475 12.373 12.688 12.802 12.483 12.462 12.355 12.08 11.565 11.135 11.177 10.903 10.89 10.555 10.36 10.602 10.59 10.315 10.495 10.573 10.41 10.562 11.083 10.825 10.325 10.215 10.273 10.292 10.233 10.165 10.135 10.285 10.368 10.42 10.323 10.175 10.278
13.833 14.975 15.583 15.677 15.613 15.472 15.087 14.977 15.202 15.337 14.83 14.082 13.802 13.765 13.653 13.545 13.675 13.852 13.99 14.07 14.22 14.495 14.917 15.597 16.335 17.288 18.237 18.843 19.612 20.695 21.125 21.618 22.373 22.993 23.882 24.782 26.743 27.712 28.772 29.743 30.97 31.762 32.415 32.963 33.56 34.153 34.997 35.855 36.388 35.225 34.868 34.46 33.625 32.972 32.507 32.26 32.252 32.588 33.2 33.978 34.803 35.643 36.632 37.815 39.58 41.548 41.775 41.768 42.037 42.32 42.018 41.472 40.55 39.465 38.202 37.135 35.882 34.67 33.565 32.775 32.84 31.472 31.407 31.263 30.315 29.972 29.4 29.388 29.403 28.345 27.048 26.275 25.862 25.647 25.388 25 24.712 24.3 24.057 24.077 24.285 24.57 24.81 24.507 23.81 22.985 22.61 23.135 23.355 23.112 22.855 22.622 22.23 21.708 21.26 21.185 21.105 20.92 20.868 20.997 20.882 20.737 20.483 20.06 19.8 19.337 18.932 18.965 18.743 18.41 18.2 17.745 17.38 17.6 17.278 16.688 16.032 15.413 16.048 14.708 14.507 14.562 14.358 14.195 14.18 14.35 14.323 14.363 13.738 13.585 12.852 12.743 12.53 12.64 12.472 12.573 12.775 13.165 13.382 13.077 12.868 12.547 11.628 11.325 11.372 11.325 11.392 11.257 10.627 10.35 10.323 10.193 10.13 9.967 9.958 9.932 10.048 10.035 10.078 10.21 10.422 10.507 10.405 10.425 10.477 10.495 10.47 10.485 10.515 10.535 10.562 10.743 10.62 10.547 10.46 10.36 10.352 10.305 10.267 10.243 10.278 10.387 10.42 10.35 10.355 10.347 10.36 10.37 10.452 10.417 10.432 10.475 10.413 10.47 10.452 10.382 10.347 10.288 10.243 10.267 10.278 10.33 10.42 10.417 10.443 10.467 10.465 10.48 10.465 10.535 10.605 10.627 10.587 10.712 10.805 11.01 11.535 11.99 11.89 11.97 12.193 12.488 12.44 12.57 12.69 12.833 13.052 13.25 13.36 13.462 13.605 13.725 14.05 14.465 15 15.51 15.985 16.642 17.283 17.865 18.403 18.938 19.51 20.26 20.798 21.325 21.818 22.427 23.095 23.625 23.89 24.208 24.045 24.182 24.448 24.785 25.2 25.522 26.007 26.347 26.218 26.327 26.38 26.42 26.542 26.712 26.972 26.775 26.52 26.77 27 26.767 26.097 25.748 25.378 25.005 24.677 24.18 24 23.818 23.78 23.605 22.552 22.13 21.658 21.498 21.042 20.288 19.622 19.323 19.673 19.42 18.935 18.965 19.215 18.865 18.513 18.445 17.975 17.638 16.967 16.48 16.153 15.032 14.597 14.493 14.352 13.943 13.82 13.923 14.365 14.565 14.75 14.562 14.065 12.663 12.017 11.7 11.538 11.552 12.04 12.312 12.163 12.045 11.767 11.368 10.975 10.872 10.83 10.717 10.545 10.395 10.295 10.275 10.29 10.327 10.283 10.298 10.43 10.505 10.56 10.517 10.41 10.465 10.667 10.977 11.33 11.48 11.627 11.745 11.823 11.6 11.52 11.795 11.907 11.887 11.767 11.658 11.65 11.693 11.705 11.827 11.965 12.3 12.507 12.382 12.033 11.715 11.637 11.715 11.81 11.96 12.453 12.03 11.722 11.078 10.79 10.795 10.95 11.167 10.887 11.083 11.44 11.767 11.523 11.438 11.89 12.14 12.278 12.613 12.675 12.408 11.535 11.387 12.06 12.385 12.177 12.102 12.203 12.54 12.63 12.63 12.833 13.047 12.825 12.342 12.28 11.905 11.59 10.948 10.85 10.805 10.778 10.417 10.3 10.363 10.48 10.382 10.327 10.378 10.413 10.385 10.587 10.438 10.273 10.148 10.273 10.142 10.105 10.315 10.168 10.365 10.36 10.28 10.148 10.345 10.273
14.012 14.11 14.532 15.003 15.23 15.26 14.958 14.887 14.962 15.095 14.812 14.415 14.26 14.255 14.035 13.99 13.96 14.023 14.175 14.545 14.993 15.227 15.682 16.177 16.888 17.622 18.692 19.36 19.625 20.103 21.27 21.81 22.267 23.14 23.95 24.74 26.212 27.597 28.692 29.763 30.772 31.805 32.238 32.792 33.415 34.103 35.07 35.053 34.153 33.595 33.338 33.028 32.528 31.95 31.67 31.55 31.688 32.083 32.66 33.39 34.205 35.022 36.022 37.63 38.728 39.908 40.588 40.59 41.028 42.003 42.732 42.498 41.39 40.118 38.872 37.74 36.552 35.397 34.202 33.055 33.213 31.958 31.493 31.47 30.655 29.705 29.415 29.255 29.247 28.722 27.615 26.807 26.412 25.972 25.647 25.255 24.693 24.45 24.318 24.362 24.558 24.782 25.022 24.705 23.64 23.34 23.755 23.688 23.688 23.728 22.84 22.682 22.153 21.8 21.638 21.517 21.462 21.542 21.725 21.99 21.63 21.388 21.04 20.835 20.6 20.497 20.147 19.825 20.205 19.903 20.005 19.56 19.17 18.515 18.645 17.94 17.53 16.927 16.18 15.847 15.378 15.675 14.762 14.837 14.895 14.885 15.025 15.005 14.818 14.065 13.823 13.89 13.738 14.142 13.45 13.315 13.413 13.743 13.86 13.788 13.505 13.318 12.948 11.935 11.352 11.47 11.305 11.485 11.413 11.235 11.195 10.685 10.398 10.285 10.173 10.19 10.302 10.14 10.22 10.375 10.352 10.295 10.427 10.523 10.637 10.597 10.49 10.747 10.677 10.583 10.458 10.417 10.455 10.358 10.368 10.347 10.312 10.265 10.262 10.29 10.382 10.41 10.405 10.477 10.405 10.377 10.363 10.36 10.352 10.42 10.387 10.497 10.568 10.565 10.525 10.435 10.387 10.342 10.368 10.318 10.34 10.345 10.398 10.38 10.387 10.398 10.408 10.438 10.422 10.372 10.483 10.498 10.55 10.587 10.677 10.685 10.95 11.337 11.41 11.375 11.693 12.045 12.215 12.342 12.555 12.55 12.675 12.91 13.07 13.203 13.325 13.517 13.833 14.165 14.545 15.04 15.48 16.112 16.865 17.57 18.188 18.875 19.82 20.833 21.4 21.78 22.267 22.872 23.26 23.165 23.448 23.605 23.51 23.798 24.16 24.612 25.03 25.19 25.612 25.92 26.085 26.41 26.545 26.27 26.247 26.24 26.425 26.115 25.855 26.025 26.19 26.132 25.505 24.858 24.52 24.37 24.09 23.833 23.448 23.228 23.307 23.448 22.365 21.818 21.315 21.118 20.378 19.92 19.693 19.99 20.007 19.317 18.983 19.182 19.385 19.157 18.945 19.033 18.535 17.83 17.188 16.622 16.353 15.227 14.34 14.198 14.038 13.74 13.653 13.885 14.085 14.385 14.627 14.62 13.995 13.007 12.252 11.908 11.873 11.7 11.885 12.175 12.208 12.065 11.842 11.51 11.188 11.025 10.922 10.755 10.592 10.467 10.382 10.36 10.35 10.36 10.35 10.308 10.417 10.455 10.475 10.507 10.39 10.46 10.773 11.208 11.512 11.59 11.685 11.833 11.872 11.623 11.608 11.82 11.94 11.8 11.725 11.66 11.682 11.73 11.792 11.908 12.115 12.523 12.573 12.542 12.23 11.738 11.62 11.658 11.717 12.04 12.435 12.102 11.895 11.55 11.363 11.302 11.068 10.925 11.012 11.37 11.762 11.733 11.788 11.557 11.858 12.132 12.495 12.792 12.913 12.438 11.505 11.195 11.812 12.757 12.8 12.645 12.667 12.55 12.667 12.81 12.96 13 12.81 12.323 11.827 11.565 11.198 10.943 10.72 10.677 10.57 10.417 10.355 10.365 10.335 10.422 10.3 10.26 10.288 10.292 10.47 10.243 10.115 10.115 10.25 10.307 10.165 10.122 10.273 10.175 10.17 10.087 10.145 10.25 10.132
15.267 15.108 15.052 15.26 15.352 15.145 14.762 14.8 14.89 14.965 14.98 14.835 14.417 14.073 13.938 13.983 14.273 14.688 14.865 15.097 15.165 15.347 15.775 16.292 17.183 17.9 18.495 19.505 19.95 19.905 20.467 21.85 22.31 23.158 24.193 25.112 26.017 27.405 28.708 30.062 30.943 31.487 31.933 32.555 32.935 33.745 33.132 32.965 32.57 32.278 32.097 31.818 31.398 31.045 30.847 30.895 31.157 31.585 32.138 32.855 33.622 34.423 35.335 36.542 37.528 38.35 39.213 39.68 40.908 42.745 43.45 43.118 41.985 40.705 39.665 38.467 37.255 35.925 34.745 33.592 33.165 32.425 31.665 31.535 30.895 30.16 29.6 29.513 29.483 29.185 28.228 27.575 26.88 26.467 26.09 25.77 25.275 24.995 24.985 24.987 25.025 25.182 25.057 24.362 24.007 24.318 24.173 23.987 24.02 23.747 22.89 22.805 22.3 22.08 22.263 22.06 21.9 22 22.54 22.79 23.25 22.712 21.882 21.495 21.257 21.392 20.975 20.538 21.1 21.212 21.39 21.295 20.655 19.925 20.12 19.498 18.577 17.78 17.267 16.775 16.363 16.135 15.863 15.51 15.722 15.52 15.59 15.573 15.452 15.123 15.233 15.533 15.382 14.888 14.41 14.175 14.485 14.632 14.503 14.58 14.123 13.618 13.095 12.825 12.415 11.837 11.75 11.938 12.035 11.765 11.533 11.253 11.282 11.25 10.755 10.693 10.57 10.342 10.43 10.605 10.635 10.505 10.38 10.517 10.642 10.95 10.64 11.07 10.83 10.497 10.435 10.378 10.358 10.36 10.37 10.37 10.282 10.27 10.318 10.38 10.497 10.425 10.41 10.415 10.445 10.38 10.355 10.38 10.355 10.38 10.465 10.422 10.493 10.565 10.83 10.445 10.545 10.52 10.43 10.33 10.335 10.435 10.425 10.452 10.445 10.42 10.403 10.392 10.355 10.305 10.39 10.368 10.345 10.363 10.46 10.528 10.548 10.715 11 11.015 11.26 11.512 11.645 11.858 12.038 12.22 12.445 12.622 12.792 12.997 13.267 13.495 13.765 14.028 14.32 14.695 15.238 15.863 16.608 17.365 18.138 19.075 20.017 20.81 21.37 21.913 22.493 22.98 22.895 22.72 22.837 22.907 23.165 23.552 23.98 24.325 24.735 24.78 25.045 25.458 25.845 26.025 25.932 25.673 25.632 25.347 25.583 25.667 25.462 25.65 25.677 25.445 24.8 24.198 23.667 23.407 23.105 22.83 22.603 22.65 22.783 22.923 22.217 21.68 20.903 20.198 19.875 20.067 20.64 20.015 19.568 19.147 19.298 19.353 19.568 19.472 19.307 19.465 18.972 18.413 17.702 17.15 16.105 15.177 14.172 13.892 13.812 13.55 13.408 13.698 13.91 13.957 14.095 14.145 14.02 13.403 12.91 12.913 12.927 12.382 12.142 12.29 12.227 12.113 11.96 11.665 11.417 11.233 11.085 10.845 10.672 10.585 10.515 10.468 10.403 10.392 10.395 10.385 10.432 10.432 10.41 10.477 10.345 10.48 10.815 11.35 11.635 11.743 11.845 11.935 11.995 11.833 11.795 11.89 11.875 11.802 11.753 11.722 11.75 11.785 11.847 11.957 12.17 12.39 12.538 12.42 12.158 11.82 11.573 11.578 11.63 11.892 12.3 12.337 12.312 12.167 11.953 11.865 11.577 11.27 11.6 11.955 12.21 12.203 12.238 11.9 11.86 12.257 12.587 12.833 12.837 12.59 11.727 11.29 11.913 12.96 13.14 12.865 12.583 12.542 12.74 12.837 12.77 12.42 12.205 12.005 11.66 11.407 10.985 10.835 10.565 10.562 10.68 10.61 10.39 10.3 10.288 10.285 10.307 10.38 10.352 10.173 10.163 10.142 10.118 10.155 10.163 10.182 10.225 10.243 10.247 10.23 10.14 10.115 10.128 10.12 10.093
16.303 16.29 15.725 15.885 16.028 15.467 14.6 14.762 15.012 15.023 14.863 14.642 14.377 14.15 14.275 14.33 14.462 14.693 15.262 15.722 16.09 15.965 16.06 16.725 17.778 18.74 18.958 19.283 20.015 19.8 19.892 21.068 22.472 23.38 24.31 25.347 26.4 27.47 28.392 29.67 30.438 31.153 31.728 32.01 31.333 31.255 31.378 31.505 31.345 31.052 30.815 30.565 30.312 30.167 30.08 30.188 30.483 30.948 31.517 32.232 32.982 33.783 34.66 35.698 36.493 37.408 38.3 39.278 40.685 42.592 43.37 43.283 42.588 41.607 40.365 39.055 37.82 36.568 35.395 34.217 33.28 32.778 31.805 31.587 31.08 30.625 30.315 30.007 29.82 29.513 28.528 27.983 27.528 26.97 26.623 26.423 26.14 26.04 25.735 25.733 25.717 25.445 24.772 24.612 24.97 24.987 24.795 24.903 24.125 23.657 23.04 22.612 22.622 22.462 22.552 22.575 22.502 22.39 22.67 23.282 23.722 23.905 23.1 22.077 21.838 21.882 21.528 21.423 22.013 22.337 22.47 22.26 21.71 21.34 21.263 20.897 20.712 19.435 18.608 18.02 17.58 17.057 16.655 16.46 16.65 16.525 16.177 16.395 16.388 16.765 16.77 16.38 16.167 16.122 15.285 15.435 15.855 15.615 15.368 15.298 14.462 14.02 13.762 13.455 13.12 12.845 12.505 12.083 12.512 12.023 11.67 11.58 11.22 11.448 11.245 11.163 10.765 10.477 10.47 10.57 10.745 10.775 10.705 11.023 10.523 10.483 10.708 10.812 11.48 10.677 10.45 10.41 10.342 10.368 10.39 10.375 10.32 10.375 10.528 10.547 10.525 10.44 10.42 10.42 10.41 10.417 10.365 10.368 10.475 10.38 10.358 10.392 10.45 10.448 10.533 10.517 10.52 10.605 10.548 10.49 10.363 10.448 10.42 10.467 10.497 10.5 10.44 10.387 10.333 10.297 10.305 10.307 10.292 10.285 10.283 10.28 10.327 10.425 10.595 10.805 11.123 11.382 11.725 11.712 11.688 11.783 12.02 12.318 12.51 12.755 13 13.297 13.663 13.932 14.172 14.452 15.05 15.795 16.448 17.175 17.972 18.99 19.885 20.583 21.218 21.825 22.567 22.747 22.56 22.317 22.397 22.568 23.035 23.392 23.788 24.185 24.515 24.618 24.825 25.083 25.28 25.327 25.272 25.215 25.255 24.85 25.025 25.17 25.352 25.577 25.312 24.73 23.95 23.53 23.05 22.897 22.555 22.39 22.505 22.265 21.962 22.067 21.61 20.952 20.26 19.875 20.185 20.858 20.932 20.245 19.602 19.327 19.517 19.458 19.542 19.618 19.278 19.138 19.075 18.272 17.81 16.83 15.93 15.108 14.312 13.722 13.58 13.27 13.11 13.62 13.938 13.948 13.855 13.905 13.755 13.693 13.355 13.195 13.153 13.065 12.84 12.63 12.267 12.2 12.158 11.828 11.548 11.395 11.233 11.038 10.802 10.708 10.65 10.605 10.597 10.557 10.497 10.452 10.515 10.458 10.36 10.502 10.39 10.38 10.688 11.585 11.798 11.895 11.962 12.062 12.1 12.017 11.983 11.99 11.948 11.887 11.83 11.792 11.83 11.85 11.828 11.895 12.055 12.175 12.302 12.295 12.073 12.028 11.538 11.557 11.655 11.932 12.36 12.57 12.538 12.503 12.512 12.375 11.7 11.6 12.035 12.387 12.472 12.458 12.405 12.033 11.65 11.98 12.37 12.46 12.395 12.298 12.003 11.515 12.193 12.775 12.985 12.97 12.717 12.56 12.483 12.503 12.655 12.323 12.2 11.688 11.472 11.203 10.923 10.653 10.552 10.42 10.575 10.455 10.44 10.27 10.37 10.315 10.227 10.177 10.27 10.212 10.225 10.2 10.2 10.283 10.24 10.182 10.243 10.27 10.193 10.165 10.278 10.157 10.078 10.05 10.05
16.222 15.693 15.542 15.8 15.812 15.19 14.438 14.605 14.71 14.7 14.695 14.707 14.602 14.48 14.52 14.517 14.778 15.262 16.318 16.708 17.155 17.202 16.725 17.205 18.185 19.075 19.35 19.645 19.842 19.59 19.382 20.02 22.01 23.288 24.015 23.798 24.525 25.417 26.15 28.092 28.955 29.985 30.513 30.202 29.642 29.75 29.995 30.062 29.945 29.733 29.6 29.522 29.403 29.267 29.273 29.493 29.877 30.355 30.892 31.575 32.302 33.1 33.963 34.825 35.695 36.615 37.622 38.658 39.857 41.9 42.765 42.5 42.757 42.23 40.985 39.708 38.445 37.298 36.003 34.725 33.65 33.18 31.98 31.715 31.483 31.04 30.67 30.373 30.233 29.987 29.085 28.555 28.212 27.7 27.193 27.005 27.015 26.962 26.868 26.487 25.658 25.163 25.042 25.182 25.442 25.087 25.14 25.325 24.9 24.175 23.26 22.795 22.73 22.72 22.743 22.76 22.698 22.52 22.55 22.915 23.467 23.715 23.085 22.465 22.035 22.033 21.995 22.317 22.562 22.562 22.677 23.25 23.307 22.76 22.36 21.948 21.583 20.91 19.897 19.302 18.99 18.552 18.055 17.802 17.465 17.283 16.845 17.058 17.392 17.818 17.6 17.22 16.997 16.685 16.44 16.487 16.74 16.827 16.528 15.983 15.247 14.765 14.657 14.4 14.02 13.693 13.328 12.747 12.75 12.163 11.895 11.84 11.79 11.55 11.235 11.193 10.972 10.845 10.705 10.663 10.65 10.703 10.825 11.323 10.622 10.515 10.65 10.87 11.145 10.407 10.52 10.585 10.432 10.483 10.505 10.53 10.605 10.69 10.71 10.58 10.583 10.465 10.493 10.552 10.44 10.417 10.413 10.4 10.403 10.415 10.42 10.452 10.452 10.557 10.535 10.45 10.59 10.625 10.773 10.83 10.722 10.453 10.452 10.45 10.503 10.53 10.615 10.49 10.38 10.31 10.295 10.345 10.35 10.337 10.28 10.255 10.302 10.358 10.438 10.497 10.87 11.238 11.493 11.703 11.215 11.363 11.528 11.715 11.943 12.185 12.507 12.762 13.115 13.505 13.823 14.235 14.778 15.532 16.16 16.993 17.722 18.698 19.577 20.44 20.975 21.483 21.95 22.198 21.932 21.8 21.87 22.34 22.93 23.347 23.772 24.195 24.57 24.487 24.642 24.975 24.952 24.927 24.998 25.22 24.903 24.65 24.753 25.095 25.105 24.872 24.667 24.142 23.615 23.267 22.945 22.693 22.388 22.23 22.455 22.147 21.392 21.218 20.99 20.388 20.003 20.202 21.145 21.278 20.712 20.25 19.6 19.583 19.663 19.69 19.493 19.595 19.452 19.173 18.728 18.17 17.677 16.675 15.935 15.392 14.872 13.7 13.113 12.948 12.863 13.33 13.67 13.74 13.562 13.555 13.547 13.693 13.307 12.995 12.837 12.78 12.615 12.525 12.25 12.14 12.12 11.9 11.653 11.475 11.358 11.273 11.055 10.885 10.775 10.685 10.608 10.535 10.48 10.448 10.477 10.455 10.358 10.535 10.395 10.38 10.552 11.427 11.925 12.03 12.11 12.195 12.17 12.125 12.113 12.148 12.065 12.007 11.975 11.932 11.927 11.907 11.845 11.828 11.88 11.95 12.057 12.035 12.02 11.82 11.605 11.675 11.878 12.045 12.382 12.735 12.745 12.79 12.725 12.342 11.745 11.74 12.28 12.592 12.725 12.705 12.372 11.91 11.568 11.552 11.747 11.67 11.655 11.76 12.068 11.993 12.083 12.31 12.688 13.102 13.222 13.18 12.812 12.505 12.285 12.235 12.163 11.73 11.405 11.325 11.175 10.993 10.845 10.575 10.36 10.392 10.3 10.275 10.202 10.18 10.222 10.198 10.342 10.312 10.175 10.245 10.235 10.36 10.525 10.38 10.243 10.295 10.195 10.175 10.182 10.155 10.125 10.073 10.105
15.748 15.477 15.057 15.04 15.207 14.622 14.265 14.4 14.438 14.27 14.068 14.083 14.32 14.675 14.738 14.915 15.44 16.007 16.587 16.84 16.635 17.105 17.478 17.698 18.155 18.7 19.003 19.495 19.282 19.138 19.015 19.243 20.79 21.835 21.993 22.462 23.3 24.208 25.05 26.058 27.1 27.638 27.987 28.19 28.278 28.438 28.677 28.735 28.688 28.552 28.487 28.433 28.388 28.385 28.54 28.833 29.208 29.695 30.292 30.967 31.673 32.46 33.323 34.162 35 35.9 36.878 37.92 38.982 40.105 41.105 41.85 42.362 42.685 41.583 40.388 39.143 37.847 36.528 35.165 33.998 33.11 32.44 31.653 31.638 31.4 30.865 30.542 30.278 30.087 29.745 29.202 28.708 28.118 27.642 27.507 27.753 27.548 26.655 25.965 25.77 25.9 25.77 25.653 25.9 25.315 25.377 25.522 25.292 24.567 23.753 23.305 23.165 22.9 22.823 22.667 22.737 22.787 22.772 22.89 22.95 23.153 22.882 22.493 22.288 22.083 22.062 22.542 23.138 22.882 22.935 23.085 23.305 23.325 23.253 22.735 21.943 21.727 21.102 20.198 20.205 19.987 19.39 18.97 18.513 18.545 17.702 17.675 18.025 18.632 18.427 18.115 17.952 17.78 17.452 17.645 17.77 17.788 17.188 16.715 16.405 15.895 15.62 15.557 15.028 14.5 13.975 13.467 13.012 12.625 12.28 11.918 12.108 11.885 11.922 11.843 11.092 11.105 10.93 10.955 10.89 10.695 10.94 11.08 10.93 10.917 10.618 10.708 10.573 10.618 10.58 10.66 10.52 10.528 10.562 10.64 10.823 10.945 10.858 10.708 10.68 10.56 10.625 10.823 10.53 10.602 10.73 10.535 10.532 10.52 10.477 10.483 10.458 10.445 10.43 10.415 10.427 10.56 10.583 10.752 10.47 10.425 10.423 10.525 10.467 10.538 10.71 10.685 10.495 10.422 10.382 10.425 10.495 10.515 10.452 10.385 10.358 10.365 10.37 10.395 10.483 10.637 10.94 10.962 10.88 10.985 11.195 11.318 11.495 11.708 12.017 12.333 12.675 13.06 13.44 13.87 14.33 14.917 15.565 16.327 16.99 17.875 18.595 19.42 20.275 20.608 21.138 21.485 21.21 21.215 21.41 21.96 22.382 22.9 23.298 23.91 24.48 24.16 24.237 24.592 24.693 24.67 24.597 24.79 24.905 24.828 24.915 24.61 24.163 23.858 23.712 23.74 23.68 23.248 22.938 22.445 21.913 21.795 22.003 21.815 21.173 21.08 20.41 20.233 20.198 20.98 21.73 21.493 21.04 20.433 19.865 19.978 20.087 19.77 19.28 19.285 19.433 19.073 18.215 17.625 17.13 16.608 16.208 15.727 15.137 14.225 13.01 12.637 12.613 13.017 13.25 13.248 13.427 13.358 13.345 13.262 12.852 12.89 12.575 12.432 12.363 12.315 12.1 11.945 11.877 11.775 11.635 11.532 11.455 11.422 11.325 11.185 11.097 10.915 10.628 10.552 10.512 10.528 10.458 10.477 10.368 10.562 10.395 10.373 10.507 11.222 12.137 12.128 12.182 12.257 12.278 12.227 12.227 12.288 12.238 12.205 12.195 12.142 12.127 12.087 11.958 11.812 11.727 11.747 11.733 11.688 11.743 11.55 11.715 12.168 12.735 12.615 12.302 12.395 12.44 12.4 12.07 11.583 11.568 11.38 11.82 12.21 12.318 12.215 11.945 11.858 11.743 11.432 11.3 11.127 11.01 11.29 11.54 11.495 11.69 12.015 12.557 12.965 13.21 13.395 13.392 13.182 12.637 12.472 12.36 12.038 11.573 11.413 11.382 11.083 11.035 10.727 10.417 10.335 10.31 10.227 10.18 10.177 10.233 10.27 10.323 10.392 10.185 10.188 10.04 10.038 10.387 10.71 10.235 10.257 10.17 10.248 10.148 10.205 10.162 10.065 10.118
15.26 15.035 14.55 14.467 14.4 14.047 14.03 14.007 14.225 14.05 13.682 13.358 13.235 13.812 14.443 14.403 14.61 14.622 14.458 14.972 14.98 15.253 15.655 15.943 16.452 17.03 17.562 18.015 18.36 18.685 18.82 18.94 19.54 20.39 20.677 21.67 22.52 23.318 24.147 24.728 25.513 26.052 26.562 26.737 26.91 27.16 27.368 27.513 27.443 27.365 27.368 27.462 27.513 27.542 27.725 28.097 28.55 29.073 29.677 30.35 31.09 31.88 32.677 33.528 34.41 35.255 36.173 37.225 38.105 39.007 40.107 41.167 42.127 42.53 42.118 40.975 39.673 38.333 36.978 35.78 34.59 33.393 32.732 31.812 31.36 31.378 30.9 30.525 30.132 29.865 29.818 29.32 28.847 28.255 27.798 27.575 27.195 26.78 26.495 26.533 26.82 26.62 26.05 25.84 25.925 25.673 25.533 25.43 25.245 25.032 24.632 24.12 23.915 23.745 23.108 22.915 23.103 23.205 23.43 23.495 23.145 22.837 22.743 22.835 22.525 22.08 21.935 22.28 22.978 22.888 23.035 23.382 23.622 23.817 24.065 23.798 23.007 22.447 22.255 21.165 21.04 21.103 20.908 20.177 19.558 19.08 18.69 18.3 18.698 19.145 18.98 19.013 18.923 18.785 18.665 18.665 18.405 17.955 17.337 16.987 17.02 16.675 16.237 16.01 15.698 15.285 14.807 14.108 13.613 13.208 12.895 12.45 12.08 11.898 11.762 11.667 11.52 11.395 11.438 11.21 11.045 10.945 11.227 10.96 11 10.99 11.2 10.665 10.535 10.46 10.528 10.475 10.488 10.568 10.635 10.778 10.977 11.068 11.052 11.002 11.095 10.977 10.845 10.818 10.87 10.815 10.802 10.823 11.115 11.035 11.077 10.698 10.542 10.585 10.717 10.755 10.48 10.39 10.4 10.408 10.385 10.648 10.342 10.39 10.45 10.575 10.505 10.597 10.562 10.635 10.63 10.665 10.788 11.035 10.935 10.892 10.632 10.61 10.56 10.562 10.573 10.535 10.602 10.698 10.8 10.903 11.03 11.208 11.375 11.615 11.95 12.295 12.658 13.075 13.498 13.855 14.195 14.645 15.18 15.793 16.407 17.017 17.445 17.985 18.955 19.59 20.2 20.44 20.635 20.855 21.145 21.538 21.827 22.368 22.827 23.3 23.843 23.795 23.92 24.353 24.567 24.528 24.545 24.737 24.76 24.875 25.13 24.705 24.25 23.722 23.595 23.502 23.565 23.135 22.693 22.267 21.827 21.545 21.642 21.5 21.03 20.67 20.51 20.41 20.48 21.215 21.603 21.6 21.35 20.747 20.218 20.04 20.125 19.792 19.31 18.862 18.757 18.695 18.185 17.667 17.025 17.183 16.73 15.975 15.507 14.693 14.102 13.145 12.422 12.565 12.9 12.997 13.08 13.075 12.94 12.705 12.443 12.305 12.205 12.04 12.042 12.148 12.065 11.962 11.905 11.828 11.735 11.665 11.568 11.552 11.548 11.455 11.415 11.222 10.788 10.507 10.528 10.505 10.448 10.498 10.417 10.568 10.378 10.373 10.515 10.957 12.035 12.14 12.233 12.385 12.47 12.382 12.3 12.423 12.448 12.42 12.372 12.305 12.27 12.24 12.062 11.802 11.663 11.72 11.688 11.635 11.485 11.448 11.795 12.505 12.84 13.025 12.53 12.075 11.795 11.738 11.328 11.295 11.245 10.948 11.262 11.533 11.708 11.59 11.73 11.802 11.585 11.38 11.115 10.812 10.622 10.95 10.925 11.017 11.385 11.532 12.11 12.472 12.66 12.972 13.212 13.18 13.1 12.583 12.283 11.955 11.635 11.283 11.2 11.262 11.267 11.057 10.64 10.335 10.302 10.278 10.235 10.237 10.25 10.288 10.312 10.568 10.618 10.583 10.422 10.212 10.387 10.458 10.188 10.173 10.105 10.235 10.102 10.115 10.062 10.073 10.038
15.038 14.685 14.23 13.943 13.712 13.47 13.585 13.69 13.9 14.18 13.887 13.405 12.99 12.805 12.825 12.688 12.682 12.855 13.097 13.4 13.635 13.898 14.245 14.685 15.25 15.815 16.382 16.943 17.693 18.37 18.623 18.843 19.342 19.705 20.325 21.267 21.868 22.493 23.375 23.878 24.182 24.752 25.175 25.515 25.733 25.932 26.025 26.208 26.292 26.26 26.3 26.405 26.51 26.68 26.995 27.37 27.82 28.372 29.013 29.698 30.465 31.292 32.04 32.842 33.77 34.612 35.472 36.39 37.27 38.145 39.175 40.36 40.577 41.505 41.798 41.067 40.09 38.822 37.605 36.38 35.165 33.92 33.03 32.107 31.267 30.938 30.975 30.36 30.035 29.715 29.505 29.173 28.82 28.292 27.833 27.525 27.307 27.292 27.46 27.747 28.042 27.528 26.718 26.22 25.882 25.718 25.642 25.792 25.743 25.67 25.362 25.05 24.85 24.638 23.948 23.562 23.493 23.515 23.38 23.528 23.658 23.16 22.647 22.46 22.358 22.31 22.185 22.135 22.41 22.673 22.993 23.42 23.792 24.338 24.465 24.013 23.625 23.257 23.278 22.355 21.83 21.715 21.67 21.475 20.778 20.497 19.91 19.093 19.318 19.978 19.875 19.855 19.733 19.6 19.455 19.32 18.907 18.355 17.688 17.222 16.96 16.812 16.765 16.75 16.585 16.278 15.698 14.877 14.29 13.985 13.585 13.202 12.818 12.398 12.387 12.37 12.275 12.175 11.85 11.533 11.38 11.333 11.275 11.392 11.285 11.413 11.995 11.08 10.815 10.575 10.557 10.568 10.52 10.57 10.677 10.958 11.285 11.58 11.632 11.493 11.477 11.345 11.302 11.208 11.19 11.12 11.167 11.31 11.597 11.837 11.975 11.243 11.04 11.247 11.488 11.155 10.75 10.515 10.462 10.403 10.423 10.483 10.432 10.47 10.67 10.587 10.46 10.472 10.58 10.677 10.85 10.943 11.073 11.408 11.583 11.36 11.823 11.09 11.108 11.03 10.927 10.812 10.743 10.752 10.825 10.948 11.11 11.298 11.498 11.725 12.028 12.33 12.71 13.188 13.637 14.132 14.76 15.298 15.485 15.977 16.372 16.608 16.827 17.12 17.7 18.53 19.245 19.462 20.378 20.885 21.08 21.403 21.845 22.298 22.77 23.142 23.362 23.263 23.438 23.837 24.052 24.005 24.307 24.755 24.522 24.425 24.645 24.355 23.673 23.363 23.41 23.25 23.19 22.583 22.245 22.022 21.735 21.568 21.64 21.405 21.025 20.775 20.862 21.05 21.112 21.13 21.298 21.388 21.302 20.942 20.395 20.1 20.23 19.735 19.333 18.858 18.628 18.545 18.013 17.507 17.26 17.458 17.14 15.943 14.835 14.712 14.705 13.77 12.283 12.323 12.555 12.63 12.65 12.648 12.533 12.323 12.118 11.948 11.815 11.778 11.885 12.028 12.113 12.087 12.052 11.968 11.91 11.925 11.88 11.802 11.76 11.682 11.667 11.618 11.182 10.635 10.52 10.467 10.472 10.548 10.458 10.6 10.392 10.457 10.625 10.955 11.708 12.157 12.337 12.472 12.595 12.505 12.36 12.488 12.597 12.597 12.528 12.385 12.312 12.307 12.093 11.753 11.54 11.545 11.605 11.523 11.347 11.38 11.653 12.177 12.688 12.985 12.823 12.068 11.418 11.05 10.79 10.72 10.62 10.53 10.873 11.055 11.075 11.205 11.528 11.378 11.385 11.288 11.062 10.932 10.597 10.51 10.605 10.715 11.108 11.49 11.667 11.64 11.698 12.007 12.423 12.448 12.483 12.58 12.395 12.045 11.908 11.485 11.533 11.253 11.155 10.88 10.512 10.403 10.335 10.335 10.52 10.32 10.288 10.302 10.342 10.597 10.765 10.785 10.775 10.602 10.645 10.427 10.195 10.073 10.078 10.142 10.08 10.08 10.05 10.062 10.055
14.975 14.783 14.507 13.67 13.145 13.035 13.105 13.218 13.757 14.25 14.467 14.315 13.658 12.958 12.677 12.467 12.335 12.285 12.292 12.38 12.538 12.795 13.12 13.455 13.997 14.557 15.175 15.92 16.715 17.608 18.155 18.353 19.077 19.93 20.45 20.898 21.47 21.76 22.245 22.608 22.987 23.555 23.85 24.145 24.355 24.577 24.79 24.997 25.055 25.18 25.288 25.503 25.7 25.945 26.208 26.63 27.167 27.745 28.325 29.028 29.808 30.625 31.417 32.26 33.103 33.965 34.842 35.708 36.588 37.48 38.308 38.978 39.455 40.22 40.885 41.217 40.635 39.382 38.12 36.728 35.415 34.243 33.27 32.533 31.84 30.775 30.288 30.103 29.833 29.468 29.17 28.882 28.702 28.495 28.283 28.18 28.165 28.07 28.003 28.307 28.645 28.235 27.315 26.347 25.855 25.802 25.995 26.243 26.417 26.3 25.99 25.64 25.46 25.302 25.118 24.467 23.715 23.705 23.62 23.735 23.753 23.365 22.875 22.533 22.372 22.257 22.35 22.783 22.638 22.92 22.952 23.333 23.653 24.097 24.288 24.09 24.215 24.08 23.895 23.63 22.517 22.062 22.222 22.24 21.965 21.87 21.118 20.062 19.667 20.748 20.75 20.63 20.425 20.15 20.073 20.052 19.927 19.42 18.278 18.11 17.737 17.395 17.28 17.285 17.323 17.04 16.435 15.6 14.94 14.55 14.278 13.852 13.435 13.042 12.997 13.01 12.887 12.798 12.43 11.825 11.605 11.622 11.765 11.715 11.725 11.875 11.745 11.375 11.387 10.783 10.818 10.637 10.613 10.63 10.733 11.025 11.585 11.923 12.198 12.363 12.225 12.185 12.137 11.88 11.748 11.66 11.8 11.873 12.33 12.573 12.47 11.887 11.595 11.76 11.738 11.528 11.722 11.385 10.802 11.032 10.837 10.752 10.847 10.943 10.79 10.62 10.648 10.5 10.727 10.98 11.12 11.39 11.355 11.655 11.882 11.91 12.05 12.14 11.983 11.565 11.347 11.082 10.86 10.89 10.997 11.142 11.345 11.477 11.765 12.047 12.347 12.693 13.1 13.56 13.998 14.56 15.39 16.093 16.782 17.038 16.868 16.96 17.145 17.302 17.538 17.923 18.33 18.935 19.698 20.407 21.198 21.628 21.908 22.285 22.49 22.638 22.58 22.513 22.722 23.132 23.468 23.502 23.885 24.235 23.995 24.028 24.19 24.255 23.227 22.728 22.842 22.878 22.942 22.628 22.31 22.075 21.94 21.862 21.667 21.365 21.283 21.558 21.9 22.36 22.033 21.278 21.435 21.115 21.173 20.897 20.372 20.07 19.878 19.533 19.252 18.788 18.625 18.417 17.915 17.382 17.493 17.193 17.095 16.432 15.087 15.128 14.515 13.33 12.155 12.122 12.233 12.16 12.17 11.998 11.93 11.917 11.83 11.718 11.702 11.792 11.975 12.15 12.257 12.273 12.278 12.2 12.167 12.218 12.198 12.068 11.945 11.882 11.837 11.812 11.622 10.995 10.56 10.45 10.46 10.592 10.488 10.608 10.443 10.472 10.712 11.123 11.61 12.195 12.48 12.475 12.62 12.507 12.328 12.443 12.64 12.755 12.83 12.59 12.245 12.46 12.392 12.115 11.475 11.345 11.413 11.337 11.267 11.455 11.778 12.28 12.868 13.105 12.873 12.102 11.595 11.025 10.43 10.188 10.083 10.283 10.368 10.477 10.585 10.955 10.945 10.89 11.198 11.013 10.885 10.825 10.767 10.635 10.45 10.462 10.628 11.182 11.165 11.032 11.188 11.17 11.623 11.623 11.745 11.847 12.082 11.785 11.547 11.327 11.12 10.863 10.682 10.58 10.53 10.488 10.41 10.392 10.365 10.312 10.29 10.26 10.307 10.485 10.6 10.698 10.727 10.533 10.505 10.485 10.285 10.118 10.1 10.195 10.118 10.073 10.07 10.06 10.057
15.087 14.77 14.512 13.618 12.858 12.717 12.557 12.498 13.18 14.062 14.575 14.932 15.052 13.948 13.123 12.745 12.48 12.262 12.12 12.04 12.06 12.12 12.245 12.517 12.948 13.448 14.062 14.895 15.797 16.792 17.575 17.74 18.362 19.593 20.263 20.577 20.785 20.688 20.985 21.362 21.772 22.292 22.565 22.888 23.03 23.32 23.6 23.755 23.948 24.188 24.362 24.58 24.837 25.148 25.517 25.958 26.488 27.017 27.608 28.32 29.13 29.917 30.792 31.665 32.518 33.395 34.302 35.138 36.035 36.945 37.78 38.403 38.945 39.63 40.197 40.555 40.205 39.145 37.963 36.752 35.638 34.522 33.537 33.04 32.408 31.63 30.368 29.712 29.452 29.205 28.958 28.917 29.08 28.995 28.745 28.665 28.285 28.24 28.062 28.38 28.67 28.425 27.407 26.407 25.978 25.9 26.122 26.295 26.385 26.56 26.627 26.415 26.215 26.07 25.92 25.295 24.567 24.185 24.173 24.08 23.997 23.588 23.11 22.865 22.747 22.61 22.257 22.548 22.785 22.552 22.872 23.452 23.897 24.07 24.208 24.408 24.528 24.205 24.08 23.743 22.983 22.58 22.597 22.718 22.413 22.253 22.247 21.41 20.158 21.147 21.373 21.06 20.948 20.712 20.515 20.435 20.247 19.802 19.272 18.945 18.88 18.55 17.772 17.623 17.583 17.628 16.923 16.25 15.802 15.073 14.78 14.41 13.935 13.69 13.608 13.54 13.405 13.16 12.665 12.235 12.045 12.125 12.017 11.8 11.797 12.055 12.068 11.94 11.425 11.205 11.102 10.932 10.792 10.835 10.925 11.182 11.653 12.052 12.528 13.105 13.13 13.212 13.328 13.108 12.51 12.52 12.605 12.738 13.102 12.96 12.983 12.525 12.273 11.783 11.862 11.683 11.41 11.345 11.153 11.97 11.165 11.445 11.635 11.395 11.23 10.775 10.64 10.658 10.757 11.583 11.533 11.725 11.642 11.708 12.172 12.538 13.06 13.55 13.597 12.837 11.698 11.113 11.023 11.1 11.24 11.43 11.632 11.802 12.193 12.533 12.877 13.227 13.745 14.257 14.685 15.233 15.855 16.71 17.468 17.878 18.007 18.092 18.353 18.365 18.38 18.853 19.272 19.58 20.03 20.815 21.288 21.667 22.18 22.407 22.605 22.673 22.585 22.483 22.622 22.835 23.118 23.452 23.897 24.075 23.92 23.712 23.427 23.095 22.642 22.343 22.542 22.69 22.68 22.845 22.79 22.717 22.52 22.07 21.65 21.792 22.095 22.225 22.413 22.485 22.013 21.6 21.49 20.907 20.805 20.6 20.228 20.103 20.005 19.695 19.097 18.823 18.525 18.24 17.847 17.403 17.312 17.138 16.235 15.477 14.78 14.528 13.722 12.693 12.128 11.988 11.958 11.815 11.762 11.717 11.733 11.762 11.84 11.852 11.833 11.998 12.165 12.355 12.45 12.48 12.523 12.483 12.51 12.525 12.495 12.332 12.13 12.032 11.918 11.872 11.812 11.533 10.917 10.568 10.452 10.592 10.528 10.65 10.46 10.568 10.858 11.305 11.73 12.21 12.61 12.668 12.61 12.472 12.36 12.373 12.435 12.613 12.57 12.375 12.225 12.51 12.765 12.39 11.43 11.22 11.18 11.167 11.248 11.61 11.997 12.163 12.615 12.815 12.69 12.445 11.693 11.118 10.637 10.17 10.085 10.11 10.142 10.262 10.533 11.017 11.07 11.03 10.925 10.71 10.565 10.65 10.435 10.408 10.467 10.505 10.398 10.665 10.835 10.398 10.373 10.347 10.533 10.915 11.315 11.578 11.6 11.467 11.602 11.66 11.648 11.323 11.155 10.917 10.748 10.592 10.61 10.368 10.305 10.31 10.323 10.225 10.24 10.363 10.417 10.488 10.493 10.52 10.475 10.375 10.255 10.16 10.087 10.092 10.062 10.052 10.06 10.055 10.07
14.972 14.83 14.61 13.583 12.788 12.62 12.347 12.102 12.29 13.082 14.055 15.17 15.645 14.943 14.017 13.265 12.84 12.542 12.275 12.062 11.943 11.875 11.9 12.025 12.195 12.528 13.125 14.005 14.882 15.833 16.483 16.96 17.858 18.92 19.745 19.722 19.665 19.575 19.763 20.105 20.455 21.023 21.298 21.585 21.775 22.062 22.467 22.695 22.878 23.142 23.407 23.725 24.045 24.372 24.747 25.222 25.792 26.373 26.943 27.653 28.39 29.212 30.083 30.997 31.935 32.87 33.745 34.635 35.615 36.763 37.928 38.882 40.165 40.713 41.153 40.862 40.548 39.585 38.235 36.952 35.79 34.43 33.808 33.107 32.305 31.368 30.635 29.7 29.167 29.145 28.965 29.135 29.118 29.085 29.115 28.878 28.27 28.11 28.205 28.503 28.89 28.75 27.927 26.792 26.075 25.96 26.085 26.278 26.255 26.37 26.618 26.773 26.663 26.757 26.965 26.065 25.442 24.978 24.663 24.333 24.275 24.097 23.593 23.185 23.298 23.372 22.618 22.007 22.097 22.4 22.785 23.433 24.092 24.465 24.505 24.435 24.305 24.153 24.05 23.917 23.658 23.272 23.032 23.103 23.183 23.175 22.855 22.583 21.3 21.198 21.843 21.472 21.125 21.04 20.93 20.795 20.483 20.51 20.41 20.193 20.04 19.7 18.873 18.315 17.948 17.875 17.52 16.985 16.51 15.975 15.592 15.195 14.28 14.163 14.16 14.132 13.868 13.483 13.148 12.93 12.755 12.658 12.597 12.443 12.718 12.762 12.868 12.977 12.265 11.872 11.573 11.307 11.095 11.222 11.375 11.565 11.965 12.318 12.783 13.327 13.765 14.033 14.227 14.095 13.57 13.653 13.688 13.913 14.153 13.47 13.557 13.278 12.8 12.495 12.42 12.355 12.118 11.75 11.682 11.665 11.675 12.132 11.505 11.863 11.913 11.488 11.175 11.45 11.315 11.39 11.802 11.858 11.993 11.97 12.275 12.92 13.54 14.07 14.282 14.01 12.618 11.56 11.33 11.425 11.548 11.702 11.915 12.208 12.552 12.913 13.495 14.128 14.703 15.115 15.57 15.95 16.54 17.24 17.93 18.788 19.212 19.58 20.108 20.43 20.535 20.323 20.24 20.688 20.942 21.34 21.715 21.993 22.265 22.595 22.812 22.915 22.775 22.618 22.702 22.968 23.318 23.645 23.94 23.695 23.56 23.722 23.618 23.045 22.56 22.318 22.347 22.462 22.702 22.907 22.99 22.823 22.312 21.87 22.005 22.41 22.568 22.392 22.307 22.263 22.222 22.092 22.028 21.408 20.83 21.022 21.71 20.325 20.355 20.077 19.675 18.98 18.673 18.34 18.202 17.785 16.84 16.358 15.967 15.16 14.628 14.085 13.292 12.665 12.195 11.968 11.827 11.718 11.71 11.76 11.815 11.892 12.012 12.095 12.13 12.257 12.462 12.595 12.642 12.625 12.71 12.7 12.725 12.738 12.733 12.578 12.405 12.25 12.14 12.035 11.932 11.82 11.595 11.155 10.64 10.622 10.592 10.673 10.517 10.727 11.12 11.587 12.105 12.65 12.735 12.672 12.513 12.453 12.292 12.16 12.173 12.31 12.312 12.132 12.015 12.328 12.545 11.997 11.29 11.138 11.08 11.07 11.142 11.387 11.74 12.128 12.57 12.712 12.75 12.177 11.72 11.247 10.64 10.275 10.163 10.165 10.25 10.35 10.665 11.038 11.1 10.842 10.625 10.562 10.495 10.405 10.328 10.262 10.24 10.28 10.33 10.413 10.467 10.412 10.403 10.43 10.542 10.977 11.34 11.635 11.79 12.32 12.72 12.592 12.342 11.645 11.523 11.158 10.698 10.762 11.108 10.823 10.385 10.283 10.29 10.295 10.292 10.283 10.297 10.32 10.347 10.35 10.35 10.297 10.283 10.153 10.118 10.123 10.068 10.057 10.043 10.06 10.062
14.715 14.642 14.198 13.185 12.908 12.722 12.287 11.965 11.792 12.023 12.753 13.96 14.733 14.898 14.532 13.725 13.215 12.913 12.67 12.307 12.102 11.923 11.832 11.86 11.887 12.105 12.575 13.285 14.2 15.012 15.778 16.403 17.233 18.06 19.04 19.1 18.628 18.41 18.583 18.925 19.35 19.698 19.942 20.22 20.507 20.88 21.183 21.475 21.83 22.175 22.493 22.827 23.188 23.577 24.07 24.573 25.097 25.638 26.302 26.993 27.728 28.502 29.372 30.288 31.31 32.335 33.247 34.175 35.245 36.577 38.632 39.868 41.153 42.022 41.772 41.255 40.69 39.555 38.198 36.925 35.575 34.375 33.845 33.15 32.09 31.205 30.63 30.122 29.278 29.185 29.18 29.163 29.062 29.395 29.08 28.685 28.247 28.177 28.415 28.632 29.07 28.81 27.923 26.975 26.505 26.553 26.327 26.302 26.122 26.188 26.6 26.845 26.897 27.083 27.403 26.955 26.132 25.505 24.897 24.413 24.182 24.052 23.747 23.39 23.345 23.147 23.147 22.247 22.035 22.103 22.658 23.28 23.875 24.493 24.743 24.4 24.17 24.09 23.92 24.108 24.465 24.062 23.693 23.75 23.755 23.85 23.345 23.19 22.12 21.408 21.983 21.81 21.27 21.18 21.265 20.967 20.875 20.855 20.808 20.89 20.73 20.802 20.125 19.09 18.503 18.295 18.112 17.71 17.475 16.915 16.335 15.365 14.91 14.812 14.622 14.677 14.205 13.962 13.788 13.745 13.523 13.25 13.273 13.347 13.43 13.222 13.352 13.775 13.007 12.72 12.155 11.71 11.577 11.75 11.88 11.988 12.292 12.665 12.98 13.388 13.92 14.27 14.495 14.69 14.648 14.872 15.023 15.235 14.805 14.14 13.898 13.82 13.548 13.26 13.102 13.073 12.68 12.485 12.318 12.128 12.212 12.443 12.325 12.288 12.43 12.27 11.525 11.347 11.538 11.81 12.158 12.64 12.413 12.535 12.475 12.993 13.76 14.243 14.547 14.483 13.443 12.462 11.845 11.872 12.073 12.115 12.355 12.665 13.038 13.463 14.132 15.092 15.565 15.917 16.528 16.817 17.157 17.815 18.513 19.36 19.92 20.108 20.667 21.295 21.93 22.108 21.305 21.62 21.798 21.868 21.987 22.158 22.26 22.443 22.515 22.403 22.318 22.345 22.392 22.548 22.972 23.205 23.45 23.33 23.118 23.535 23.722 23.423 23.005 22.6 22.59 22.698 22.737 22.517 22.438 22.395 22.212 22.132 22.487 22.705 22.76 22.535 22.253 22.392 22.585 22.405 22.455 21.748 20.975 21.218 21.142 20.555 20.642 20.525 20.278 19.6 18.987 18.847 18.712 18.233 17.497 16.8 15.753 15.09 14.552 13.87 13.205 12.757 12.42 12.142 11.977 11.878 11.84 11.892 12.005 12.113 12.158 12.275 12.35 12.53 12.778 12.97 12.837 12.82 12.913 12.858 12.823 12.852 12.88 12.775 12.632 12.435 12.31 12.157 12.042 11.905 11.747 11.595 11.342 10.83 10.642 10.733 10.573 10.87 11.533 12.068 12.565 12.735 12.757 12.635 12.458 12.408 12.12 11.985 12.045 12.13 12.33 12.217 11.938 12.342 12.42 11.695 11.247 11.065 11 11.028 11.132 11.472 11.88 12.27 12.432 12.59 12.465 12.05 11.55 11.017 10.45 10.265 10.267 10.398 10.575 10.722 11.17 11.363 11 10.66 10.475 10.477 10.413 10.318 10.243 10.235 10.217 10.273 10.355 10.288 10.333 10.583 11.055 11.182 11.175 11.235 11.635 11.757 12.092 12.818 13.28 13.125 12.592 11.94 11.552 11.198 10.795 10.733 10.95 10.795 10.675 10.32 10.305 10.283 10.32 10.295 10.307 10.298 10.29 10.307 10.365 10.288 10.285 10.16 10.165 10.14 10.125 10.083 10.092 10.09 10.077
13.91 13.693 13.345 13.233 13.132 13.105 12.783 12.075 11.648 11.565 11.887 12.855 13.715 14.423 14.218 13.688 13.262 13.078 13.22 12.705 12.233 11.997 11.855 11.79 11.762 11.895 12.33 12.892 13.493 14.035 14.802 15.72 16.522 17.22 17.98 18.145 17.682 17.43 17.5 17.715 18.068 18.438 18.737 18.997 19.295 19.615 19.987 20.417 20.802 21.153 21.52 21.93 22.382 22.858 23.345 23.833 24.355 25.013 25.628 26.267 26.98 27.79 28.673 29.642 30.702 31.75 32.78 33.765 34.912 36.305 37.722 39.283 41.318 41.923 41.535 40.845 40.048 38.938 37.77 36.62 35.31 34.485 33.91 33.057 32.1 31.333 30.645 30.397 29.97 29.358 29.48 29.58 29.378 29.267 29.13 28.795 28.593 28.517 28.335 28.303 28.505 28.092 27.56 27.138 27.132 27.115 26.69 26.423 26.212 26.127 26.783 27.035 27.325 27.663 27.83 27.465 26.987 26.23 25.433 24.76 24.385 24.153 24.105 23.708 23.5 22.91 22.56 22.52 22.565 22.28 22.462 23.112 24.18 24.825 24.548 24.533 24.188 24.087 23.57 23.712 24.003 23.695 23.718 24.245 24.63 23.84 23.608 23.83 23.12 21.855 22.3 22.23 21.593 21.823 22.095 21.655 21.605 21.67 21.3 21.368 21.51 21.76 21.37 20.595 19.57 19.193 18.745 18.23 17.625 17.067 16.265 15.653 15.59 15.46 15.415 15.17 14.913 14.7 14.467 14.118 13.955 13.703 13.993 13.98 14.03 14.21 14.173 14.097 13.73 13.165 12.693 12.332 12.225 12.215 12.3 12.38 12.63 13.083 13.44 13.815 14.155 14.515 14.745 14.917 15.307 15.72 15.882 15.96 15.627 14.955 14.325 14.227 14.27 14.163 14.023 13.793 13.33 12.993 12.96 12.837 12.8 12.98 13.13 13.125 13.065 12.727 12.238 11.833 12.02 12.33 12.887 13.225 12.86 12.963 12.885 13.012 13.675 14.465 14.988 15.485 15.252 13.693 12.765 12.448 12.573 12.672 12.872 13.278 13.648 14.09 14.77 15.568 16.222 16.53 17.045 17.458 17.715 18.298 19.022 19.77 20.388 20.6 20.825 21.087 21.475 21.597 21.65 21.823 22.033 22.125 22.067 22.228 22.32 22.34 22.335 22.347 22.343 22.317 22.132 22.097 22.128 22.097 22.41 22.675 22.737 23.11 23.18 22.965 22.862 22.638 22.36 22.022 21.858 21.84 21.932 22.165 22.245 22.362 22.94 22.897 22.635 22.528 22.507 22.427 22.585 22.892 22.983 22.275 21.35 21.19 21.085 20.935 20.948 21.145 20.933 20.288 19.555 19.587 18.993 18.407 17.647 16.82 16.208 15.573 15.015 14.07 13.49 13.03 12.65 12.323 12.215 12.113 12.038 12.003 12.05 12.2 12.31 12.4 12.587 12.795 13.045 13.238 13.012 13.033 13.115 13.047 12.958 12.967 13.048 13 12.833 12.602 12.432 12.26 12.1 12.01 11.882 11.765 11.56 10.922 10.663 10.84 10.767 11.22 12.047 12.385 12.655 12.597 12.54 12.507 12.427 12.365 12.127 11.95 12.057 12.2 12.235 12.177 11.875 11.685 11.51 11.158 10.99 10.948 10.925 10.993 11.222 11.635 12.227 12.54 12.585 12.69 12.702 12.565 12.003 11.062 10.587 10.432 10.562 10.69 10.762 10.985 11.168 11.198 10.637 10.43 10.363 10.323 10.335 10.288 10.16 10.18 10.17 10.148 10.248 10.26 10.278 10.365 10.635 10.84 11.39 12.015 12.343 12.462 12.903 13.46 13.67 13.458 12.905 12.458 11.938 11.34 10.87 10.648 10.8 10.84 10.743 10.375 10.275 10.285 10.37 10.337 10.328 10.337 10.28 10.12 10.045 10.193 10.153 10.328 10.295 10.385 10.398 10.243 10.19 10.12 10.11
13.79 13.488 13.395 13.315 13.28 13.592 14.077 13.38 11.948 11.462 11.52 11.93 12.918 14.5 14.565 13.847 12.892 12.712 12.965 12.605 12.128 11.9 11.793 11.79 11.815 11.783 11.91 12.243 12.413 13.033 13.932 14.908 15.4 16.05 16.855 17 16.62 16.358 16.3 16.532 16.927 17.272 17.443 17.735 18.073 18.46 18.873 19.282 19.677 20.135 20.677 21.108 21.515 22.05 22.625 23.135 23.718 24.325 24.933 25.575 26.33 27.132 28.005 29.03 30.105 31.163 32.3 33.405 34.575 35.9 37.14 38.432 40.885 41.552 40.972 40.307 39.35 38.162 37.167 36.015 35.088 34.708 33.987 32.943 31.907 31.5 31.37 30.938 30.927 29.62 29.805 30.48 30.015 29.68 29.558 29.29 29.247 29.188 28.94 28.542 28.193 27.91 27.81 27.58 27.495 27.27 27.112 27.125 26.632 26.815 26.968 27.528 27.927 28.138 28.153 28.292 27.95 27.308 25.985 25.535 24.96 24.722 24.647 24.792 24.403 23.413 22.99 22.975 23.112 22.927 22.905 23.155 23.472 24.425 24.222 24.115 23.88 23.665 23.368 23.257 23.377 23.532 23.853 24.465 24.967 24.71 24.4 24.193 23.035 22.165 22.562 22.443 22.153 22.513 22.938 22.458 22.568 22.47 22.205 22.048 22.058 21.995 21.435 20.955 20.805 20.038 19.663 18.737 17.85 17.35 16.735 16.225 16.142 16.237 16.22 15.985 15.8 15.57 15.342 15.135 14.717 14.023 13.995 14.083 14.06 14.085 14.01 13.97 13.765 13.517 13.36 13.118 12.913 12.858 12.783 12.748 12.92 13.382 13.892 14.078 14.395 14.65 15.003 15.292 15.775 16.28 16.497 16.615 16.315 16.237 14.875 14.342 14.693 14.92 14.87 14.69 14.425 14.212 13.847 13.542 13.125 13.31 13.64 13.935 13.788 13.292 12.845 12.74 12.72 13 13.302 13.597 13.382 13.507 13.575 13.363 13.695 14.51 15.29 15.702 15.727 15.14 13.91 13.307 13.15 13.288 13.615 13.997 14.41 14.818 15.415 15.993 16.52 16.925 17.225 17.645 18.105 18.627 19.267 19.843 20.145 20.31 20.302 20.333 20.552 20.888 21.39 21.683 21.505 21.535 21.57 21.81 21.837 22 22.253 22.665 23.01 23.163 22.9 22.675 22.55 22.18 22.003 22.097 22.22 22.198 22.06 22.158 22.507 22.487 22.23 22.08 22.39 22.818 22.805 22.46 22.382 22.5 22.775 22.763 22.512 22.513 22.638 22.743 23.05 23.06 23.435 22.745 21.99 21.747 21.362 21.405 21.228 21.31 21.433 20.753 20.343 19.943 19.37 18.683 17.943 17.23 16.49 15.675 14.903 14.172 13.802 13.127 12.655 12.365 12.217 12.19 12.158 12.015 12.07 12.288 12.495 12.62 12.812 13.045 13.158 13.068 13.06 13.155 13.275 13.285 13.208 13.177 13.193 13.115 12.852 12.743 12.605 12.39 12.122 11.997 11.92 11.86 11.587 10.85 10.695 10.948 11.102 11.535 12.01 12.12 12.365 12.455 12.427 12.342 12.327 12.273 12.085 11.83 11.87 11.96 12.015 12.09 11.905 11.56 11.297 10.997 10.943 10.872 10.85 11.03 11.453 11.95 12.525 12.66 12.8 12.863 12.69 12.565 11.922 11.132 10.667 10.515 10.67 10.878 10.92 10.968 10.837 10.542 10.37 10.318 10.3 10.255 10.235 10.13 10.09 10.102 10.092 10.038 10.065 10.243 10.293 10.345 10.438 10.778 11.538 12.007 12.59 13.17 13.64 13.722 13.757 13.5 13.165 12.71 12.165 11.908 10.967 10.86 10.932 10.807 10.618 10.517 10.323 10.177 10.27 10.252 10.203 10.22 10.09 9.677 9.59 9.922 10.1 10.235 10.235 10.328 10.307 10.253 10.198 10.24 10.225
14.545 14.135 13.465 13.15 13.165 13.627 14.217 13.98 13.275 11.877 11.443 11.52 12.163 13.538 13.875 13.552 12.562 12.273 12.17 11.918 11.762 11.745 11.85 12.05 12.222 12.097 11.885 11.767 11.83 12.065 12.68 13.435 14.203 15.012 15.783 15.775 15.485 15.275 15.28 15.452 15.722 15.975 16.3 16.693 16.993 17.33 17.775 18.275 18.712 19.218 19.685 20.185 20.745 21.35 21.875 22.403 23.025 23.68 24.285 24.958 25.698 26.485 27.4 28.403 29.423 30.555 31.752 33.007 34.29 35.537 36.493 37.66 39.615 40.38 39.985 39.49 38.465 37.472 36.327 35.423 34.722 34.522 34.103 33.013 32.188 31.798 31.818 31.555 31.403 30.345 29.65 30.783 30.468 29.932 30.065 29.82 29.475 29.702 29.658 29.323 28.853 28.497 28.22 28.237 28.15 27.983 27.79 27.595 27.3 27.763 27.807 28.017 28.475 28.522 28.175 28.198 27.792 27.698 27.573 27.068 26.105 25.913 25.718 26.103 25.585 24.377 23.78 23.427 24.182 24.105 23.708 23.853 23.67 23.802 23.81 23.79 23.71 23.65 23.42 23.292 23.312 23.818 24.3 24.757 25.115 24.673 24.505 23.802 22.35 22.38 22.407 22.623 22.78 23.188 23.19 23.13 23.353 23.28 22.935 22.378 21.98 21.868 21.403 21.315 21.388 20.46 19.66 18.965 18.39 18.245 17.245 16.757 16.65 16.802 16.87 16.673 16.545 16.533 15.83 15.837 15.642 14.363 14.267 14.19 14.097 14.025 13.938 13.965 14.1 14.212 14.278 13.952 13.528 13.667 13.48 13.198 13.248 13.677 14.32 14.56 14.788 14.887 15.477 15.78 15.91 16.478 16.815 16.597 16.485 15.985 15.135 14.682 14.805 15.32 15.358 14.99 14.988 15.182 14.993 14.227 13.49 13.39 14.225 14.31 13.967 13.47 13.145 13.308 13.438 13.988 14.023 14.222 14.17 14.108 14.64 14.06 13.585 14.217 15.315 15.858 15.96 15.632 14.773 14.475 14.483 14.292 14.578 14.943 15.145 15.455 15.955 16.47 16.938 17.347 17.585 17.93 18.36 18.95 19.475 19.528 19.542 19.485 19.343 19.405 19.568 19.975 20.485 20.62 20.737 20.998 21.257 21.408 21.54 21.88 22.397 22.925 23.108 23.545 23.315 23.065 23.123 22.958 22.475 22.112 22.185 22.198 22.38 22.495 22.658 22.647 22.212 22.695 23.43 23.817 23.525 22.86 22.763 22.603 22.517 22.565 22.727 22.665 23.087 23.3 23.573 23.538 23.78 23.15 22.552 22.175 21.685 21.972 21.92 21.513 21.215 21.235 20.847 20.285 19.63 19.233 18.475 17.388 16.663 15.837 15.007 14.515 14.2 13.177 12.79 12.32 12.093 12.145 12.108 12.033 12.108 12.36 12.585 12.747 12.895 13.05 13.033 12.995 13.033 13.175 13.34 13.34 13.305 13.23 13.195 13.085 12.852 12.733 12.565 12.41 12.173 12.005 11.908 11.87 11.467 10.932 10.76 11.01 11.47 11.755 11.94 11.98 12.11 12.19 12.23 12.193 12.16 12.122 11.962 11.655 11.573 11.66 12.012 12.038 11.847 11.665 11.04 10.94 10.898 10.773 10.802 11.025 11.575 12.13 12.595 12.77 12.935 12.878 12.538 12.18 11.592 11.2 10.557 10.36 10.695 10.837 10.802 10.648 10.535 10.347 10.27 10.247 10.215 10.137 10.105 10.153 10.15 10.1 10.073 10.03 10.075 10.233 10.278 10.358 10.438 10.702 11.32 12.005 12.85 13.485 13.965 14.188 14.11 13.778 13.565 13.125 12.202 11.882 11.243 11.425 11.453 10.943 10.552 10.51 10.413 10.28 10.153 10.102 10.08 10.167 9.965 9.623 9.68 9.868 9.985 10.105 10.195 10.132 10.118 10.13 10.153 10.24 10.21
14.858 14.708 14.373 13.137 13.052 12.835 12.915 13.448 13.452 12.35 11.605 11.485 11.608 12.118 12.67 12.265 11.76 11.738 11.8 11.743 11.71 11.828 12.097 12.275 12.585 12.512 12.36 12.13 11.935 11.952 12.068 12.467 13.205 13.98 14.6 14.807 14.628 14.4 14.382 14.523 14.76 15.028 15.34 15.645 15.995 16.44 16.91 17.32 17.785 18.323 18.858 19.413 19.955 20.517 21.112 21.75 22.375 22.938 23.605 24.355 25.083 25.89 26.833 27.798 28.833 30.01 31.205 32.763 33.69 34.69 35.732 36.842 38.265 38.972 39.43 39.32 38.767 37.76 36.45 35.237 34.36 34.053 33.917 33.445 32.645 32.44 32.213 31.905 31.545 30.765 29.585 30.44 30.737 30.345 30.228 30.108 29.573 29.722 29.767 29.59 29.188 28.725 28.528 28.61 28.733 28.75 28.38 28.09 28.057 28.515 28.68 28.782 28.958 29.01 28.748 29.195 29.247 28.877 28.513 28.225 27.595 26.53 26.87 27.222 26.833 25.362 24.542 24.062 24.015 24.427 24.3 24.155 24.042 23.87 23.788 23.66 23.523 23.585 23.515 23.49 23.583 24.015 24.525 24.74 24.987 24.575 23.722 22.788 22.577 22.605 22.427 22.873 23.15 23.345 23.167 23.165 23.443 23.778 23.388 22.933 22.493 22.43 21.562 21.565 21.603 21.145 20.458 19.853 19.138 18.438 17.882 17.353 17.163 17.4 17.62 17.458 17.057 16.9 16.388 16.312 15.95 14.873 14.632 14.515 14.315 14.137 14.13 14.238 14.497 14.655 14.66 14.667 14.177 14.005 14.128 13.78 13.592 13.802 14.562 14.938 15.047 15.125 15.642 15.845 15.985 16.233 16.638 16.663 16.79 15.858 15.347 15.943 15.658 15.54 15.625 15.403 15.48 15.42 15.305 14.77 13.922 13.625 14.323 14.548 14.083 13.662 13.39 13.555 13.95 14.318 14.545 14.85 14.65 14.302 13.985 13.78 13.84 13.935 14.432 15.645 15.587 15.438 15.392 15.585 15.417 15.193 15.658 15.722 15.998 16.288 16.503 16.73 17.075 17.423 17.718 18.052 18.433 18.655 18.59 18.522 18.483 18.44 18.415 18.468 18.782 19.125 19.452 19.86 20.22 20.638 20.87 21.017 21.325 21.82 22.243 22.835 23.038 23.28 22.865 23.08 23.425 23.122 22.717 22.125 22.318 23.003 23.177 23.275 23.56 23.042 22.177 22.595 23.112 23.302 23.05 23.077 23.048 22.785 22.665 22.897 22.96 23.085 23.497 23.688 23.825 23.705 23.962 23.427 22.835 22.243 21.897 22.395 22.225 21.942 21.4 21.26 21.375 20.968 20.145 19.36 18.585 17.755 17.09 16.57 15.542 14.825 14.355 13.735 12.908 12.288 12.007 12.007 12.025 12.012 12.08 12.35 12.462 12.543 12.745 12.827 12.935 13.033 13.042 13.172 13.318 13.24 13.24 13.217 13.163 13.042 12.875 12.745 12.502 12.307 12.092 11.975 11.892 11.828 11.33 11.05 10.852 11.087 11.725 11.952 11.972 11.977 11.958 12.023 12.023 11.965 11.963 11.913 11.747 11.552 11.503 11.47 11.925 12.1 11.907 11.57 11.19 10.882 10.958 11.19 11.048 11.005 11.568 12.15 12.547 12.778 12.75 12.555 12.267 11.85 11.123 10.778 10.528 10.343 10.55 10.585 10.405 10.392 10.312 10.227 10.212 10.113 10.118 10.12 10.087 10.12 10.078 10.078 10.108 10.11 10.1 10.193 10.342 10.387 10.525 10.985 11.503 11.99 12.635 13.175 13.753 14.182 14.1 13.855 13.568 13.055 12.538 12.115 11.55 11.533 11.283 11.047 10.658 10.498 10.472 10.517 10.193 10.083 10.073 10.132 10.095 9.958 9.865 9.99 9.963 10.017 10.245 10.25 10.122 10.155 10.19 10.145 10.167
14.977 14.798 14.568 13.355 13.165 12.698 12.39 12.238 12.167 11.96 11.693 11.615 11.575 11.505 11.455 11.458 11.608 11.865 11.98 11.995 12.007 12.08 12.503 12.833 13.02 13.215 13.218 13.105 12.81 12.565 12.387 12.212 12.382 12.887 13.373 13.562 13.73 13.837 13.83 13.87 14.012 14.262 14.562 14.903 15.247 15.628 16.045 16.525 17.022 17.54 18.013 18.568 19.192 19.818 20.385 20.995 21.64 22.325 22.993 23.71 24.53 25.307 26.23 27.22 28.265 29.438 30.618 31.858 32.9 33.915 34.987 36.135 37.333 39.205 40.022 39.463 38.917 37.905 36.685 35.528 34.57 34.237 33.945 33.54 33.072 32.85 32.32 31.84 31.493 31.193 29.815 29.81 30.97 30.745 30.54 30.155 29.833 29.725 29.702 29.708 29.435 28.958 29.118 29.112 29.06 29.208 29.005 28.79 28.858 29.23 29.41 29.645 29.845 29.747 29.315 29 29.427 29.513 29.265 29.065 28.693 27.66 27.632 28.05 27.583 26.825 26.195 25.03 24.517 24.673 24.677 24.737 24.48 24.228 24.065 23.942 23.6 23.413 23.478 23.597 23.82 24.612 25.038 24.92 24.642 23.858 23.243 23.01 22.785 22.405 22.392 23.032 23.557 23.69 23.128 23.042 23.443 23.495 23.755 23.417 23.103 22.517 22.068 21.615 21.483 21.395 21.235 20.747 19.913 19.233 19.285 18.827 17.945 17.837 18.462 18.478 17.98 17.43 17.06 16.29 15.505 15.175 15.017 14.835 14.715 14.645 14.71 14.895 14.783 14.83 14.642 14.64 14.417 14.185 14.212 14.062 13.92 14.04 14.455 15.252 15.443 15.427 15.767 15.755 15.895 16.007 16.327 16.44 16.448 16.045 15.825 15.958 16.3 16.08 15.938 16.003 15.945 15.858 15.495 14.91 14.558 14.222 14.323 14.575 14.337 13.998 13.807 13.738 14.017 14.275 14.327 14.342 14.453 14.275 13.892 13.83 13.958 14.095 14.13 14.483 14.943 15.04 15.177 15.715 15.84 15.763 15.93 16.075 16.245 16.443 16.632 16.915 17.24 17.525 17.81 17.862 17.993 17.743 17.59 17.403 17.69 18.028 18.05 18.05 18.342 18.745 19.073 19.57 20.165 20.53 20.645 20.967 21.517 22.06 22.462 22.78 22.955 23.177 22.917 22.775 22.693 22.625 22.515 22.188 22.568 23.28 23.465 23.653 23.908 23.315 22.517 22.685 23.36 23.695 23.735 23.548 23.392 23.225 23.135 23.257 23.163 23.575 24.045 23.985 23.962 23.85 24.292 24.248 23.615 22.928 22.41 22.94 22.59 22.13 21.725 21.52 21.405 21.282 20.595 19.772 19.11 18.465 17.972 16.94 16.335 15.378 14.585 14.155 12.807 12.188 11.917 11.798 11.83 11.918 12.047 12.283 12.395 12.435 12.575 12.665 12.765 12.882 12.958 13.097 13.195 13.243 13.275 13.235 13.1 12.975 12.833 12.67 12.377 12.12 11.935 11.847 11.78 11.712 11.445 11.195 10.9 11.115 11.773 11.863 11.88 11.9 11.96 11.925 11.875 11.778 11.775 11.812 11.733 11.56 11.557 11.493 11.46 11.618 11.703 11.523 11.618 11.233 10.995 11.11 10.925 11.007 11.635 12.28 12.382 12.455 12.415 12.13 11.783 11.375 10.725 10.517 10.398 10.423 10.56 10.327 10.26 10.225 10.225 10.09 10.102 10.07 10.097 10.09 10.068 10.073 10.052 10.052 10.04 10.083 10.085 10.217 10.392 10.477 10.443 10.618 10.812 11.298 11.95 12.65 13.29 13.717 13.702 13.455 13.19 12.965 12.61 12.135 11.915 11.585 11.175 11.003 10.69 10.47 10.31 10.26 10.252 10.137 10.193 10.195 10.2 10.12 9.997 9.98 9.988 10.09 10.078 10.355 10.312 10.21 10.182 10.158 10.097
15 14.87 14.18 13.565 13.34 12.778 12.425 12.19 12.003 11.882 11.773 11.722 11.708 11.635 11.615 11.698 12.005 12.413 12.622 12.4 12.273 12.267 12.493 12.882 13.07 13.233 13.425 13.745 13.812 13.717 13.378 13.005 12.525 12.382 12.653 12.865 13.083 13.288 13.345 13.49 13.613 13.755 13.968 14.212 14.583 14.983 15.395 15.807 16.285 16.78 17.358 17.92 18.435 19.015 19.688 20.312 20.972 21.615 22.307 23.05 23.96 24.795 25.632 26.688 27.772 28.788 29.915 31.062 32.153 33.217 34.39 35.535 36.78 39.003 40.62 40.327 39.38 38.458 37.34 36.322 35.715 35.155 34.507 33.822 33.235 32.81 32.088 31.618 31.17 31.123 30.562 29.78 30.237 30.88 30.84 30.48 30.062 29.938 29.775 29.733 29.702 29.67 29.82 29.782 29.812 30.013 30.062 30.147 29.983 29.95 30.282 30.497 30.135 29.522 29.147 29.173 29.36 29.787 29.935 29.515 28.92 28.765 28.208 28.48 27.757 27.712 27.735 26.618 25.24 25.315 25.263 25.167 24.94 24.597 24.448 24.705 24.63 23.788 23.52 23.548 23.833 24.085 24.295 24.388 23.968 23.86 23.77 23.927 23.802 22.722 22.43 22.585 23.25 23.705 23.507 23.19 23.145 23.122 23.073 22.642 23 22.952 21.8 21.343 21.208 21.382 21.745 21.627 20.705 20.288 20.233 19.805 19.077 18.415 18.25 17.92 17.695 17.108 16.477 15.97 15.635 15.622 15.99 15.595 15.307 15.63 15.377 15.507 15.418 15.177 15.215 15.075 14.917 15.048 14.737 14.537 14.345 14.517 14.5 14.74 15.532 15.903 15.69 15.395 15.472 15.462 15.632 15.483 15.698 15.577 16.003 15.865 16.042 16.138 16.138 16.05 16.25 15.833 15.63 15.145 14.858 14.847 14.882 14.735 14.6 14.31 13.975 13.94 13.71 14.512 13.863 14.04 14.05 14.22 14.017 14.062 14.372 14.298 14.403 14.153 14.227 14.57 14.805 15.195 15.495 15.688 15.818 15.975 16.323 16.6 16.72 16.708 16.88 17.18 17.705 17.958 17.827 17.202 16.92 17.205 17.705 17.935 18.155 18.323 18.555 19.03 19.35 19.737 20.12 20.515 20.827 21.31 21.802 22.255 22.597 22.94 23.155 22.98 22.717 22.19 21.955 21.75 21.562 21.695 22.007 22.55 23.275 23.74 24.18 24.02 23.528 22.952 23.577 23.83 23.542 23.565 23.455 23.37 22.925 22.89 23 23.39 23.892 23.825 23.862 23.933 24.46 24.445 24.21 23.612 22.888 23.263 23.253 22.94 22.495 22.115 21.83 21.532 20.952 20.435 19.62 18.962 18.28 17.585 16.585 15.715 14.795 14.03 13.337 12.247 11.858 11.667 11.677 11.745 11.92 12.127 12.208 12.365 12.458 12.597 12.715 12.807 12.895 13.057 13.182 13.255 13.325 13.16 12.948 12.837 12.743 12.573 12.273 11.993 11.79 11.695 11.642 11.667 11.608 11.448 10.925 11.057 11.725 11.84 11.925 11.948 11.948 11.828 11.775 11.702 11.722 11.802 11.747 11.635 11.635 11.613 11.485 11.347 11.565 11.575 11.59 11.663 10.645 10.595 10.708 11.073 11.665 12.038 12.165 12.215 12.02 11.77 11.618 11.185 10.578 10.408 10.438 10.788 10.645 10.41 10.29 10.04 10.08 10.038 10.052 10.052 10.092 10.175 10.105 10.12 10.055 10.012 10.007 9.98 10.087 10.285 10.548 10.475 10.27 10.18 10.395 10.575 11.37 12.01 12.708 13.613 13.67 13.108 12.67 12.323 12.45 12.355 12.222 11.852 11.39 11.172 10.708 10.38 10.292 10.25 10.262 10.215 10.253 10.27 10.165 10.033 10.012 10.02 10.023 10.13 10.173 10.235 10.233 10.263 10.215 10.167 10.185
15.073 14.913 14.153 13.962 13.677 13.38 13.435 12.923 12.403 12.087 11.852 11.83 11.845 11.825 11.983 12.2 12.562 12.885 12.95 12.648 12.488 12.47 12.618 12.93 13.185 13.422 13.682 14.108 14.208 14.212 14.28 14.128 13.59 12.972 12.748 12.708 12.76 12.882 13.007 13.19 13.358 13.378 13.557 13.785 14.078 14.392 14.78 15.227 15.695 16.177 16.663 17.202 17.807 18.423 18.968 19.595 20.307 20.995 21.685 22.448 23.315 24.237 25.097 26.09 27.128 28.165 29.3 30.42 31.53 32.82 34.045 35.048 36.268 38.235 40.548 40.877 40.28 39.147 38.317 37.535 36.827 36.177 35.478 34.792 34.083 33.445 32.623 31.663 31.145 30.978 30.75 30.305 30.035 30.442 30.817 30.882 30.565 30.278 30.17 30.08 30.443 30.485 30.62 30.8 30.818 30.875 30.585 30.253 30.41 30.782 31.103 30.968 30.198 29.818 29.52 29.627 29.83 30.272 30.978 30.925 30.57 29.725 29.013 29.022 28.888 29.292 28.86 27.49 25.955 25.972 25.868 25.59 25.395 25.035 25.003 25.105 25.173 24.795 23.91 23.77 23.835 24.113 24.263 24.09 24.06 24.625 24.722 24.528 24.312 23.875 23.195 22.423 22.41 22.698 22.792 22.94 23.025 23.052 22.333 22.432 22.958 22.833 22.07 21.345 21.272 21.56 22.188 22.413 21.935 21.573 21.155 20.198 19.458 18.568 18.06 17.665 17.42 17.075 16.88 16.65 16.433 16.38 16.565 16.362 15.882 15.677 15.82 15.863 15.552 15.708 15.695 15.72 15.827 15.48 15.523 15.38 15.007 15.125 14.877 14.56 14.465 14.975 15.65 15.193 15.378 15.255 15.423 15.54 15.295 15.24 15.545 15.79 16.19 16.458 16.342 16.195 16.017 15.67 15.135 15.055 15.14 15.377 15.202 14.898 14.512 14.342 14.23 14.017 14.035 13.78 13.57 13.693 13.84 14.318 14.188 14.26 14.38 14.48 14.645 14.382 14.017 13.938 14.02 14.34 14.825 15.097 15.055 15.153 15.605 16.205 16.255 16.228 16.362 16.63 17.14 17.583 17.69 17.122 17.038 17.632 17.917 18.13 18.337 18.58 18.91 19.285 19.568 19.752 20.035 20.47 20.892 21.317 21.823 22.217 22.632 23.058 22.967 22.498 22.015 21.733 21.47 21.3 21.122 21.225 21.503 21.892 22.43 23.257 24.017 24.19 23.745 23.798 23.54 23.537 23.305 23.28 23.385 23.13 22.587 22.545 22.865 23.415 23.895 24.212 24.105 23.927 23.833 23.917 23.978 23.44 23.075 23.228 23.21 22.62 22.528 22.285 22.2 21.728 21.12 20.458 19.965 19.237 18.775 17.673 16.69 15.823 14.852 14.158 13.372 12.445 11.895 11.64 11.605 11.638 11.785 11.953 12.108 12.238 12.398 12.573 12.733 12.86 12.917 13.06 13.225 13.295 13.28 13.083 12.84 12.753 12.688 12.53 12.22 11.91 11.71 11.6 11.543 11.605 11.722 11.438 10.958 11.04 11.417 11.745 11.905 11.955 11.93 11.84 11.757 11.72 11.743 11.775 11.75 11.712 11.708 11.773 11.6 11.34 11.51 11.592 11.722 11.307 10.628 10.635 10.57 11.062 11.747 11.932 11.887 11.827 11.648 11.488 11.295 10.775 10.5 10.45 10.585 10.958 10.547 10.355 10.27 10.175 10.077 10.038 10.015 10 10.05 10.118 10.172 10.093 10.068 10.002 10.017 10.04 10.158 10.347 10.562 10.422 10.325 10.185 10.23 10.495 10.783 11.467 12.597 13.45 13.653 13.122 13 12.087 12.025 12.448 12.405 12.142 11.61 11.253 10.782 10.325 10.253 10.333 10.18 10.167 10.243 10.257 10.21 10.125 10.095 10.052 10.102 10.137 10.135 10.2 10.318 10.33 10.27 10.202 10.195
