ncols 449
nrows 32
xllcorner    245062
yllcorner    137172
cellsize     2
NODATA_value -9999
13.788 12.58 11.645 10.552 9.608 8.935 8.98 9.142 9.137 9.498 9.905 10.02 9.573 8.568 8.368 8.863 9.273 9.475 9.378 9.17 8.858 7.82 7.577 7.445 7.425 7.448 7.463 7.807 8.345 8.18 7.918 8.658 9.265 9.655 9.568 9.995 10.323 10.608 11.077 10.755 9.977 9.312 8.552 8.062 7.56 7.057 6.948 6.957 7.323 7.33 7.258 7.125 7.085 7.452 7.722 7.648 7.653 7.352 7.225 7.01 7.188 7.332 7.448 7.787 8.13 8.325 8.925 9.542 10.17 10.595 11.145 11.372 11.59 12.007 12.422 12.787 13.105 13.24 13.435 13.7 13.885 14.042 14.59 15.065 15.092 14.892 14.528 13.525 12.542 12.227 12.073 12.005 11.685 11.972 12.628 13.398 14.493 15.688 16.29 16.688 17.058 17.568 18.073 18.4 18.725 18.695 18.462 18.597 19.23 19.597 19.657 19.673 19.533 19.682 20.185 20.605 20.745 20.628 19.955 19.39 19.33 19.66 19.96 20.325 20.12 20.557 21.243 21.888 22.408 22.987 23.255 23.19 23.265 23.243 23.368 23.377 23.45 23.737 23.655 23.818 24.08 23.765 23.427 23.565 23.708 23.87 24.04 24.087 24.042 24.2 24.47 25.028 26.153 26.688 26.642 26.51 25.983 25.962 26.145 25.775 24.915 24.555 24.35 25.028 25.59 25.663 25.267 25.022 24.892 24.542 24.25 23.355 22.952 23.267 23.743 24.375 24.267 23.51 22.743 22.295 22.03 21.702 21.33 21.033 20.818 20.502 19.882 19.115 18.388 17.642 16.878 16.01 15.028 13.855 12.965 12.922 12.983 12.993 12.995 13.112 13.28 13.4 13.423 13.387 13.36 13.395 13.46 13.495 13.5 13.587 13.767 13.842 13.698 13.56 13.515 13.62 13.702 13.725 13.718 13.71 13.392 12.977 12.997 13.015 13.017 13.028 13.045 13.065 13.075 12.682 12.283 12.868 12.49 12.715 12.882 13.497 13.77 13.345 12.83 12.557 12.535 12.61 12.535 12.185 11.705 11.153 10.438 9.878 9.89 9.805 9.737 9.69 9.675 9.61 9.585 9.65 9.69 9.65 9.583 9.58 9.583 9.628 9.688 9.753 9.788 9.85 9.863 9.875 9.972 10.002 10.137 10.605 10.675 10.762 10.932 11.07 10.965 10.915 10.967 11.033 11.375 11.278 11.015 11.115 11.337 11.438 11.568 11.7 12.105 11.955 11.503 11.205 11.127 11.22 11.298 11.315 11.34 11.368 11.422 11.59 11.812 11.965 11.818 11.493 11.453 11.413 11.43 11.5 11.523 11.505 11.55 11.665 12.007 12.512 12.738 12.523 12.475 12.55 12.427 12.12 11.622 11.09 10.727 10.575 10.622 10.57 10.665 11 11.387 11.538 11.698 11.72 11.682 11.63 11.61 11.602 11.593 11.63 11.65 11.655 11.67 11.67 11.655 11.64 11.635 11.64 11.515 11.315 11.158 11.045 11.01 11 11.005 10.985 11.04 11.188 11.452 11.747 11.448 11.392 11.185 11.085 11.03 11.007 11.112 11.185 11.158 11.18 11.23 11.42 11.922 11.955 11.903 11.485 11.548 12.165 12.085 12.36 12.962 13.052 13.075 13.233 13.263 13.135 12.88 12.453 12.092 11.638 11.398 11.465 11.925 12.4 12.82 12.677 12.358 11.753 11.172 11.068 11.092 11.177 11.198 11.18 11.212 11.233 11.21 11.212 11.288 11.325 11.48 11.745 11.99 12.233 12.82 13.71 14.49 14.667 13.882 12.98 12.622 12.667 12.62 12.515 12.465 12.387 12.695 13.185 14.042 13.8 13.413 13.26 13.345 13.483 13.805 14.097 14.342 14.73 15.243 15.85 17.093 18.36 18.472 17.417 17.565 18.68 19.017 18.735 18.425 17.945 17.715
14.135 13.395 11.69 10.562 9.67 8.958 9.34 9.503 9.333 9.565 9.927 9.833 9.205 8.462 8.512 9.28 9.818 10.113 9.863 9.515 9.047 8.765 7.95 7.65 7.72 7.795 7.63 7.87 8.307 8.595 7.457 7.935 8.55 9.615 10.327 10.805 10.86 10.765 10.662 9.962 9.458 8.79 8.403 8.217 7.74 7.31 7.037 6.912 7.07 7.01 6.995 6.943 7.165 7.55 7.722 7.972 8.31 7.858 7.415 7.145 7.13 7.4 7.588 7.533 7.72 8.085 8.9 9.605 10.148 10.575 10.735 11.157 11.445 11.535 11.722 12.323 12.9 13.392 13.66 13.878 14.21 14.302 14.47 14.872 15.15 14.727 14.422 13.7 12.905 12.918 12.985 12.95 12.762 12.467 13.038 14.192 14.615 14.875 15.047 15.363 15.593 16.005 16.388 16.87 17.25 17.22 17.283 17.515 17.895 18.225 18.278 18.222 18.163 18.275 18.757 19.212 19.403 19.493 19.05 18.555 18.58 18.823 19.095 19.38 19.73 20.24 20.753 21.233 21.78 22.2 22.308 22.392 22.097 22.145 22.368 22.362 22.413 22.472 22.72 23.122 23.425 23.452 22.833 22.785 23.087 23.432 23.365 23.325 23.327 23.388 23.645 24.125 25.042 25.965 26.62 27.095 26.63 26.413 25.99 25.625 25.472 25.362 25.312 25.882 25.895 25.843 25.403 25.215 25.185 24.9 24.288 23.52 22.583 22.847 23.515 24.17 24.057 23.147 22.632 22.443 22.062 21.77 21.545 21.198 20.968 20.763 20.237 19.735 19.267 18.542 17.79 16.96 16.067 15.153 13.852 13.002 12.943 12.995 12.995 13.12 13.298 13.405 13.432 13.417 13.387 13.392 13.432 13.467 13.503 13.548 13.667 13.827 13.913 13.8 13.608 13.66 13.7 13.715 13.717 13.702 13.517 13.04 12.975 12.98 12.972 12.985 13.005 13.025 13.03 12.735 12.408 12.455 12.06 12.083 12.5 13.22 13.528 13.14 12.733 12.512 12.505 12.55 12.387 12.003 11.493 11 10.415 9.842 9.835 9.802 9.72 9.677 9.632 9.577 9.592 9.658 9.67 9.597 9.552 9.548 9.55 9.59 9.67 9.74 9.795 9.807 9.855 9.913 10.007 10.048 10.267 10.515 10.465 10.507 10.685 10.76 10.682 10.637 10.712 10.84 11.238 11.267 11.255 11.39 11.465 11.3 11.243 11.33 11.775 11.6 11.295 11.185 11.167 11.198 11.305 11.307 11.432 11.495 11.43 11.56 11.72 11.637 11.352 11.135 11.092 11.19 11.382 11.57 11.648 11.658 11.725 11.778 11.913 12.237 12.648 12.725 12.493 12.312 12.158 11.948 11.69 11.342 10.962 10.655 10.587 10.615 10.905 11.315 11.6 11.708 11.752 11.77 11.755 11.68 11.605 11.6 11.622 11.618 11.583 11.585 11.58 11.56 11.557 11.56 11.573 11.597 11.5 11.32 11.19 11.135 11.09 11.03 10.972 11.003 11.212 11.538 11.845 11.677 11.18 10.872 10.88 10.99 11.04 11.007 11.028 11.125 11.22 11.193 11.29 11.903 12.495 12.163 12.155 11.708 11.552 12.105 12.182 12.285 12.698 13.012 13.16 12.962 12.792 12.583 12.538 12.48 12.285 11.872 11.59 11.615 12.032 12.387 12.59 12.485 12.253 11.62 11.102 11.092 11.1 11.122 11.153 11.19 11.2 11.2 11.205 11.23 11.295 11.387 11.68 12.04 12.282 12.443 13.065 13.988 14.66 14.833 14.023 13.045 12.583 12.632 12.64 12.562 12.573 12.602 12.495 13.198 14.025 14.233 13.89 13.743 13.65 13.605 13.915 14.55 14.903 15.172 16.132 16.853 17.458 17.583 17.208 17.073 17.745 18.25 18.68 19.073 18.892 18.36 18.038
13.637 13.167 12.325 11.078 9.927 9.198 8.903 9.335 9.198 9.323 9.352 9.41 9.102 8.753 9.352 9.932 10.345 10.323 9.747 9.618 8.997 8.358 8.132 8.06 8.158 8.127 7.838 7.962 8.597 9.087 8.75 8.243 8.078 9.105 10.21 11.035 11.495 11.392 10.47 9.29 9.217 8.783 8.01 7.933 7.738 7.49 7.215 7.068 6.94 6.97 6.915 6.89 6.948 7.102 7.438 7.85 8.048 8.177 7.702 7.387 7.138 7.423 7.918 7.82 7.735 8.288 9.09 10.122 10.653 10.778 10.73 10.92 11.075 11.307 11.195 11.63 12.172 12.71 13.283 13.917 14.53 14.735 14.74 14.833 15.61 15.525 14.635 14.052 13.903 14.038 13.78 14.005 14.145 13.573 12.967 13.74 13.637 13.67 13.958 14.18 14.34 14.635 14.885 15.408 15.812 15.983 15.852 16.185 16.642 16.98 16.952 16.837 16.895 17.125 17.597 17.938 18.06 18 17.833 17.673 17.9 18.41 18.86 19.175 19.597 19.97 20.325 20.595 20.94 21.055 21.118 21.327 21.31 21.177 21.347 21.307 21.198 21.365 21.817 22.202 22.385 22.38 22.255 22.638 23.173 22.932 22.765 22.712 22.63 22.61 22.792 23.177 23.952 24.938 25.567 26.335 26.505 25.68 25.077 24.748 24.913 24.92 24.837 25.455 25.375 25.182 25.025 24.837 25.05 24.978 24.417 23.127 22.47 22.895 23.375 24.137 23.815 22.997 22.763 22.478 22.275 21.885 21.642 21.475 21.305 20.845 20.542 20.048 19.767 19.048 18.413 17.798 17.052 16.222 15.075 13.717 13.017 13.023 13.09 13.247 13.407 13.467 13.458 13.452 13.432 13.43 13.448 13.475 13.51 13.54 13.56 13.62 13.887 13.945 13.688 13.667 13.695 13.685 13.682 13.672 13.57 13.185 12.977 12.958 12.945 13.057 13.208 13.19 13.06 12.698 12.327 12.125 12.185 11.757 12.092 13.085 13.205 12.965 12.738 12.583 12.488 12.45 12.175 11.45 10.895 10.568 9.983 9.69 9.767 9.76 9.648 9.613 9.585 9.56 9.587 9.64 9.623 9.55 9.53 9.517 9.53 9.575 9.65 9.715 9.778 9.79 9.875 9.99 10.065 10.175 10.39 10.415 10.36 10.345 10.455 10.515 10.593 10.543 10.615 10.58 10.658 10.7 10.825 11.033 11.245 11.267 10.995 11.14 11.325 11.3 11.132 11.015 11.03 11.028 10.983 11.233 11.54 11.722 11.497 11.493 11.637 11.578 11.135 10.898 10.942 11.123 11.388 11.585 11.745 11.825 11.823 11.82 11.875 12.035 12.28 12.562 12.637 12.43 12.302 12.06 11.75 11.375 11.005 10.712 10.568 10.68 10.908 11.37 11.653 11.745 11.738 11.747 11.708 11.63 11.595 11.587 11.602 11.613 11.577 11.533 11.515 11.515 11.495 11.503 11.542 11.555 11.443 11.302 11.195 11.198 11.185 11.062 10.967 10.988 11.307 11.865 12.092 11.577 11.015 10.8 10.847 10.945 10.97 11.04 11.087 11.095 11.198 11.275 11.395 11.833 12.245 12.097 12.148 12.093 11.655 12.08 12.04 12.132 12.312 12.712 12.703 12.363 12.125 11.88 11.802 11.868 12.307 12.227 11.778 11.847 12.055 12.27 12.54 12.315 11.972 11.497 11.105 11.093 11.11 11.113 11.132 11.155 11.2 11.19 11.198 11.23 11.27 11.44 11.898 12.375 12.648 12.892 13.505 14.345 14.995 15.043 14.038 13.045 12.565 12.58 12.602 12.57 12.57 12.575 12.87 13.238 13.472 13.958 14.01 14.002 14.01 14.062 14.182 14.818 15.39 15.818 16.507 16.658 16.68 16.595 16.585 16.737 17.495 17.812 18.278 18.725 19.123 18.673 18.173
13.19 13.075 12.505 11.048 11 10.188 9.51 9.483 9.445 9.12 8.875 8.972 9.047 9.538 9.96 10.477 10.673 10.455 9.665 9.105 8.657 8.477 8.057 8.215 8.552 8.805 8.395 8.382 8.945 9.24 9.34 9.27 8.497 8.72 9.533 10.785 11.555 11.16 9.96 8.99 9.028 8.052 7.58 7.505 7.653 7.492 7.5 7.3 7.3 7.23 7.665 7.745 7.128 7.073 7.493 7.675 7.905 8.052 8.05 7.625 7.283 7.405 7.74 7.725 7.872 8.4 9.3 10.343 10.805 10.935 10.872 10.73 10.703 10.773 10.972 11.37 11.688 12.235 12.552 13.212 13.855 14.337 14.722 15.333 15.36 14.693 14.505 14.278 14.07 13.773 13.565 13.358 13.688 13.955 13.302 13.038 12.82 12.77 12.788 12.847 13.155 13.505 13.855 14.267 14.757 14.618 14.43 14.658 15.19 15.422 15.743 15.688 15.682 15.96 16.237 16.68 16.885 16.955 16.9 17.038 17.42 18.007 18.11 18.2 18.515 18.79 19.13 19.36 19.623 19.892 19.997 20.183 20.142 19.967 20.017 20.15 20.228 20.545 20.948 21.212 21.362 21.5 21.667 22.355 22.855 22.575 22.372 22.147 21.987 22.125 22.288 22.675 23.145 24.073 24.94 25.248 25.377 24.91 24.487 24.16 24.445 24.347 24.458 25.195 25.213 24.743 24.545 24.655 24.675 24.618 24.257 22.733 22.63 22.892 23.372 24.202 23.71 23.38 23.128 22.695 22.375 22.03 21.892 21.9 21.63 21.25 20.878 20.25 19.802 19.343 18.83 18.403 17.757 17.03 16.077 15.042 13.66 13.13 13.29 13.528 13.658 13.64 13.547 13.495 13.485 13.477 13.487 13.51 13.528 13.55 13.56 13.608 13.767 13.872 13.695 13.657 13.677 13.665 13.655 13.653 13.64 13.377 13.238 13.745 14.01 13.863 14.123 14.078 13.57 12.908 12.375 12.068 11.75 11.905 11.98 12.695 13.038 12.845 12.595 12.58 12.528 12.267 11.653 10.767 10.182 9.762 9.593 9.56 9.712 9.688 9.585 9.583 9.565 9.558 9.592 9.632 9.585 9.533 9.515 9.512 9.53 9.592 9.648 9.69 9.727 9.8 9.927 10.135 10.218 10.295 10.365 10.378 10.43 10.385 10.38 10.427 10.432 10.375 10.387 10.405 10.56 10.39 10.443 10.72 11.057 11.255 11.013 11.097 11.493 11.91 11.868 11.025 10.718 10.895 11.04 11.205 11.523 11.51 11.255 11.257 11.282 11.387 11.198 10.993 11.01 11.352 11.653 11.722 11.785 11.837 11.868 11.852 11.915 12.078 12.385 12.75 12.95 12.93 12.543 12.182 11.788 11.403 11.033 10.79 10.583 10.682 10.943 11.378 11.663 11.753 11.722 11.695 11.655 11.602 11.568 11.568 11.575 11.58 11.568 11.528 11.503 11.49 11.467 11.495 11.538 11.545 11.455 11.278 11.202 11.307 11.413 11.24 11.005 11.043 11.36 11.863 11.903 11.618 11.145 10.898 10.903 10.962 11.095 11.068 11.195 11.262 11.158 11.237 11.443 11.722 12.083 11.818 11.927 12.173 11.78 12.075 12.025 12.05 11.905 12.045 12.163 11.795 11.538 11.453 11.4 11.54 12.113 12.365 11.948 11.907 12.075 12.43 12.443 11.903 11.48 11.23 11.123 11.108 11.115 11.102 11.108 11.142 11.18 11.177 11.182 11.182 11.25 11.443 11.835 12.323 12.595 12.91 13.65 14.525 15.122 15.142 14.252 13.215 12.587 12.555 12.548 12.477 12.438 12.265 12.328 12.465 12.802 13.342 13.738 13.7 13.98 14.195 14.24 14.725 15.193 15.62 15.993 16.247 16.82 16.877 16.722 16.802 17.35 17.767 18.263 18.733 18.985 18.385 18.017
12.645 12.485 12.585 12.195 10.278 10.36 10.53 9.86 9.75 9.238 8.635 8.677 9.29 9.92 10.248 10.693 10.915 10.2 9.345 8.997 9.24 8.613 8.158 8.025 8.495 8.983 8.913 8.858 9.335 9.77 9.665 9.398 9.515 8.43 9.193 10.18 11.273 10.337 9.483 8.66 8.205 7.625 7.342 7.32 7.44 7.532 7.688 7.675 7.882 7.74 8.023 7.963 7.523 7.47 7.645 7.738 7.997 8.415 8.67 8.108 7.552 7.415 7.573 7.7 7.938 8.398 9.312 10.233 11.017 11.07 11.127 11.14 11.198 10.9 10.877 11.452 11.905 11.785 12.057 12.52 13.078 13.51 14.087 14.688 14.988 14.49 14.028 13.722 13.35 13.18 13.05 12.865 13.377 13.465 13.082 12.733 12.545 12.378 12.262 12.273 12.37 12.497 12.762 12.988 13.217 13.225 13.54 13.712 13.938 14.102 14.602 14.685 14.79 14.765 15.135 15.627 15.808 15.975 16.285 16.505 16.795 17.03 16.975 17.045 17.312 17.67 17.81 18.067 18.312 18.575 18.875 18.908 18.83 18.84 18.77 19.07 19.415 19.733 19.83 20.185 20.493 20.693 21.062 21.84 22.388 22.235 22.142 22.057 21.98 22.023 22.2 22.458 22.888 23.532 24.185 24.413 24.458 24.34 24.068 23.645 23.79 23.968 24.173 25.15 25.272 24.86 24.627 24.785 24.653 24.317 23.722 22.908 22.903 23.108 23.58 24.305 23.745 23.698 23.5 23.045 22.712 22.342 22.17 22.198 21.8 21.47 20.952 20.63 20.292 19.698 19.307 18.765 18.222 17.915 16.9 15.96 14.762 13.485 13.423 13.715 13.9 13.858 13.688 13.565 13.523 13.497 13.512 13.543 13.557 13.583 13.587 13.632 13.725 13.727 13.673 13.695 13.698 13.685 13.69 13.693 13.69 13.627 13.882 14.785 14.898 14.708 14.507 14.427 13.898 13.283 12.52 12.283 11.637 11.538 11.975 12.533 12.885 12.717 12.47 12.472 12.375 11.952 10.932 10.245 9.708 9.592 9.565 9.577 9.675 9.618 9.54 9.535 9.545 9.55 9.597 9.613 9.54 9.51 9.505 9.517 9.56 9.635 9.653 9.702 9.727 9.78 9.91 10.095 10.24 10.32 10.372 10.363 10.403 10.37 10.29 10.347 10.413 10.29 10.248 10.292 10.253 10.387 10.39 10.715 10.92 11.09 11.118 11.49 11.8 11.935 12.235 11.578 10.917 10.778 11.158 11.295 11.47 11.345 10.935 10.827 10.805 10.885 10.903 10.807 11.27 11.602 11.715 11.775 11.83 11.863 11.815 11.863 11.998 12.175 12.408 12.747 13.065 13.11 12.875 12.365 11.983 11.54 11.21 10.96 10.743 10.887 11.302 11.67 11.748 11.72 11.69 11.663 11.648 11.615 11.555 11.57 11.555 11.562 11.558 11.52 11.507 11.485 11.495 11.547 11.608 11.163 11.248 11.257 11.257 11.403 11.65 11.668 11.43 11.392 11.712 11.935 12.347 12.215 11.597 11.195 11.015 11.043 11.163 11.135 11.27 11.585 11.375 11.233 11.298 11.632 11.727 11.455 11.507 12.1 11.82 12.115 12.195 12.097 12.153 11.812 11.712 11.43 11.318 11.278 11.26 11.42 11.92 12.267 12.048 12.08 12.257 12.63 12.375 11.785 11.41 11.153 11.115 11.125 11.102 11.095 11.09 11.128 11.135 11.142 11.177 11.182 11.222 11.387 11.73 12.06 12.315 12.622 13.417 14.403 14.93 14.73 13.943 13.038 12.585 12.477 12.507 12.432 12.342 12.13 11.903 11.805 12.225 12.812 13.115 13.443 13.63 13.865 14.05 14.342 14.677 15.095 15.455 15.97 16.685 17.292 17.247 17.25 17.575 18.087 18.583 19.112 18.808 18.01 17.562
12.37 11.805 11.625 11.645 11.405 10.243 10.903 10.61 10.203 9.382 8.797 9.095 9.733 10.195 10.39 10.483 10.622 10.423 10.113 9.87 9.245 8.16 8.29 8.775 8.78 8.89 9.372 9.535 9.612 9.93 10.025 9.475 9.562 8.778 8.895 9.825 10.722 10.275 9.27 8.575 7.657 7.375 7.298 7.4 7.485 7.693 7.745 7.918 8.19 8.285 8.218 7.95 7.727 7.818 7.98 8.312 8.42 8.56 8.677 8.285 7.7 7.51 7.418 7.722 8.097 8.583 9.552 10.435 10.94 11.283 11.58 11.507 11.365 11.23 10.93 11.003 11.328 11.582 12.13 12.438 12.795 13.215 13.568 13.935 14.39 14.435 14.108 13.657 12.922 12.448 12.535 12.505 12.668 12.795 12.68 12.675 12.398 12.273 12.083 11.62 11.747 12.105 12.182 12.23 12.36 12.36 12.5 12.622 12.735 13.085 13.578 13.788 14.002 14.148 14.295 14.615 15.003 15.285 15.583 15.878 16.1 16.06 15.773 15.642 15.85 16.017 16.388 16.877 17.06 17.452 17.89 18.122 17.83 17.86 17.73 18.013 18.565 18.833 18.952 19.39 19.805 20.085 20.382 21.267 21.842 21.903 21.868 22.08 22.23 22.445 22.62 22.605 22.73 23.125 23.425 23.733 24.215 24.205 23.625 23.365 23.497 23.847 24.565 25.487 25.467 25.283 24.968 24.978 25.065 24.477 23.667 23.307 23.138 23.458 24.147 24.478 24.115 23.943 23.718 23.318 22.903 22.717 22.432 22.285 21.927 21.67 21.18 20.775 20.618 20.163 19.593 19.083 18.642 18.065 17.47 16.61 15.625 14.365 13.533 13.748 13.895 13.903 13.72 13.587 13.55 13.547 13.568 13.595 13.618 13.62 13.64 13.74 13.84 13.738 13.655 13.69 13.705 13.715 13.715 13.702 13.695 13.868 14.33 15.323 15.028 14.815 14.583 14.583 14.318 13.55 12.668 12.325 12.087 11.227 11.517 12.63 12.74 12.53 12.375 12.377 11.92 11.33 10.515 9.923 9.622 9.61 9.57 9.63 9.632 9.557 9.53 9.52 9.538 9.565 9.605 9.597 9.515 9.51 9.52 9.55 9.608 9.682 9.693 9.715 9.75 9.8 9.887 9.997 10.137 10.292 10.302 10.25 10.217 10.212 10.283 10.38 10.262 9.988 10.112 10.137 10.148 10.235 10.278 10.262 10.592 10.975 11.39 11.552 11.405 11.523 11.677 12.093 11.283 10.788 10.882 11.17 11.285 11.068 10.655 10.493 10.507 10.507 10.523 10.733 11.215 11.415 11.632 11.802 11.792 11.795 11.83 11.858 11.99 12.273 12.51 12.685 12.938 13.16 13.118 12.72 12.382 12.017 11.645 11.445 11.07 11.075 11.587 11.93 11.75 11.703 11.693 11.655 11.642 11.608 11.56 11.56 11.552 11.552 11.545 11.517 11.493 11.49 11.52 11.592 11.622 10.74 10.958 11.267 11.312 11.497 11.93 12.025 12.02 12.01 12.068 12.24 12.663 12.885 12.188 11.84 11.495 11.488 11.52 11.415 11.467 11.69 11.625 11.335 11.163 11.2 11.4 11.328 11.453 11.87 11.775 11.938 12.31 12.38 12.177 11.825 11.462 11.222 11.15 11.148 11.265 11.577 12.08 12.333 12.23 12.203 12.343 12.54 12.403 12.16 11.78 11.432 11.155 11.073 11.068 11.09 11.095 11.085 11.105 11.128 11.122 11.132 11.165 11.255 11.528 11.835 12.097 12.413 13.137 14.11 14.583 14.36 13.66 12.878 12.528 12.462 12.458 12.395 12.285 12.04 11.847 11.995 12.438 13.127 13.212 13.595 13.58 13.72 13.972 14.165 14.493 14.765 15.21 15.898 16.648 17.25 17.595 18.118 18.445 18.663 19.02 19.132 18.452 17.772 17.323
13.55 11.807 11.108 10.925 11.14 11.023 10.438 10.638 10.412 9.773 9.613 9.69 9.938 10.185 10.15 10.302 10.28 10.222 10.038 9.75 9.5 9.66 9.512 9.475 9.622 9.755 9.96 9.955 9.977 10.102 10.087 9.91 9.128 9.288 8.795 9.655 10.318 10.3 9.41 8.61 7.878 7.392 7.21 7.175 7.323 7.713 7.925 8.03 8.458 8.66 8.573 8.63 8.568 8.388 8.55 8.915 8.958 9.278 9.005 8.882 8.548 8.062 7.75 7.812 8.27 8.968 9.887 10.788 11.392 11.613 11.337 10.95 10.705 11.073 11.132 11.075 11.328 11.53 11.815 12.23 12.63 12.85 13.07 13.535 13.7 13.425 13.065 12.398 12.212 11.988 12.155 12.565 12.67 12.655 12.038 11.557 11.375 11.562 11.502 11.023 11.06 11.275 11.57 12.042 12.135 12.025 12.11 11.98 12.057 12.27 12.72 12.84 13.285 13.585 13.815 14.065 14.427 14.88 15.288 15.562 15.78 15.333 15 14.812 14.875 15.065 15.417 15.753 16.208 16.815 17.225 17.175 17.038 17.048 17.228 17.362 17.677 18.05 18.253 18.663 19.235 19.485 19.737 20.368 20.845 21.415 21.462 21.818 22.39 22.77 22.86 22.8 22.755 22.913 23.11 23.443 23.845 23.815 23.445 23.3 23.58 24.052 24.725 25.545 25.95 25.927 25.675 25.45 25.247 24.958 24.34 23.782 23.657 23.913 24.43 24.663 24.148 23.88 23.747 23.517 23.157 22.862 22.573 22.375 21.98 21.642 21.233 20.88 20.505 20.267 19.747 19.443 19.002 18.395 17.695 17.175 16.142 14.975 13.77 13.693 13.792 13.812 13.695 13.628 13.605 13.613 13.64 13.66 13.66 13.67 13.748 14.015 14.115 13.812 13.672 13.673 13.708 13.72 13.712 13.682 13.73 14.11 14.512 14.847 14.632 14.342 14.128 14.47 14.047 13.352 12.725 12.307 12.22 11.725 10.863 11.86 12.525 12.278 12.243 12.113 11.552 10.905 10.295 9.812 9.675 9.628 9.62 9.618 9.565 9.538 9.515 9.505 9.53 9.583 9.6 9.545 9.5 9.505 9.53 9.59 9.645 9.68 9.76 9.788 9.802 9.823 9.852 9.917 10.097 10.167 10.137 10.16 10.315 10.405 10.63 10.852 10.92 10.312 9.83 10.3 10.433 10.278 10.198 10.03 10.215 10.8 11.125 11.02 10.545 10.735 11.04 11.762 11.555 10.827 10.762 11.08 11.007 10.748 10.565 10.503 10.443 10.413 10.422 10.475 10.852 11.077 11.545 11.877 11.805 11.722 11.702 11.818 11.985 12.245 12.495 12.733 12.847 13.025 13.125 13.03 12.945 12.67 12.233 11.785 11.462 11.36 11.802 11.985 11.71 11.672 11.66 11.625 11.658 11.62 11.555 11.55 11.53 11.533 11.52 11.53 11.52 11.475 11.417 11.415 11.465 11.233 11.233 11.33 11.425 11.815 12.255 12.36 12.312 12.363 12.74 12.882 13.097 13.347 13.158 12.575 12.205 11.972 11.65 11.667 11.648 11.682 11.602 11.375 11.312 11.127 11.062 11.202 11.33 11.637 11.67 11.745 12.125 12.245 11.935 11.45 11.205 11.11 11.163 11.205 11.305 11.608 12.248 12.792 12.917 12.842 12.62 12.573 12.37 12.132 11.92 11.54 11.415 11.073 11.065 11.073 11.073 11.075 11.083 11.087 11.073 11.128 11.155 11.2 11.363 11.69 12.062 12.405 13.243 14.25 14.735 14.3 13.382 12.722 12.472 12.443 12.43 12.257 12.1 11.87 11.802 12.16 12.637 13.177 13.445 13.965 14.212 13.775 13.908 14.188 14.427 14.82 15.382 16.06 16.718 17.14 17.64 18.39 18.952 19.237 19.267 18.858 18.155 17.583 17.345
13.943 12.64 11.292 10.57 10.155 10.292 10.695 10.705 10.208 9.698 9.92 10.225 10.142 10.445 10.335 10.257 9.988 10.128 9.945 9.823 9.972 10.062 9.825 9.847 9.997 10.175 10.065 10.095 9.948 9.995 9.993 10.055 9.645 9.525 9.56 9.67 10 10.153 9.578 8.878 8.325 7.615 7.22 7.077 7.207 7.62 7.815 8.167 8.665 8.583 8.93 8.89 8.923 9.432 9.95 10.248 10.387 10.25 9.65 9.577 9.378 8.837 8.34 8.083 8.575 9.43 10.507 11.595 11.888 11.72 11.403 10.847 10.747 10.905 11.132 11.31 11.475 11.583 11.792 11.727 11.658 11.95 11.983 12.363 12.632 12.285 12.03 11.93 11.78 11.767 11.677 11.968 12.273 12.015 11.023 10.587 10.557 10.847 10.79 10.515 10.625 10.757 11.02 11.55 11.823 11.965 11.948 11.945 11.93 12.032 12.15 12.28 12.705 13.003 13.19 13.637 14.048 14.26 14.688 15.007 15.355 14.938 14.265 14.373 14.448 14.608 14.78 15.075 15.613 16.188 16.555 16.653 16.755 16.852 16.8 16.795 17.005 17.45 17.702 18.155 18.545 18.7 19.067 19.57 20.017 20.427 20.772 21.337 22.09 22.868 23.04 22.753 22.737 22.9 23.08 23.38 23.667 23.36 23.062 23.055 23.265 23.615 24.267 24.965 25.615 26.118 26.34 25.962 25.208 25.03 24.698 24.23 23.958 24.077 24.585 24.577 24.177 24.032 24.075 23.833 23.462 22.99 22.79 22.65 22.085 21.66 21.272 20.997 20.538 20.213 19.802 19.59 19.083 18.458 18.04 17.43 16.557 15.347 14.085 13.642 13.722 13.775 13.733 13.677 13.655 13.667 13.685 13.69 13.693 13.688 13.85 14.203 14.19 13.775 13.66 13.68 13.69 13.7 13.695 13.655 13.86 14.542 14.43 13.81 13.755 13.498 13.358 13.895 13.823 13.195 13.07 12.895 12.493 12.405 11.175 10.783 12.09 11.93 12.12 11.923 11.35 10.727 10.122 9.81 9.71 9.665 9.618 9.57 9.54 9.505 9.495 9.497 9.53 9.578 9.58 9.52 9.487 9.48 9.523 9.61 9.64 9.64 9.695 9.747 9.835 9.812 9.83 9.91 10.052 10.033 10.185 10.665 11.255 11.517 11.935 12.158 11.993 11.718 10.715 11.532 10.55 10.128 10.203 10.148 10.257 10.273 10.155 10.12 9.925 10.007 10.417 11.222 11.685 11.06 10.722 10.88 10.927 10.885 10.63 10.863 11.01 10.642 10.462 10.46 10.592 10.812 11.53 11.915 11.885 11.76 11.722 11.795 11.955 12.24 12.52 12.677 12.85 12.98 13.073 13.155 13.265 13.09 12.615 12.132 11.903 11.858 11.895 11.94 11.807 11.702 11.755 11.655 11.562 11.517 11.515 11.51 11.503 11.595 11.565 11.5 11.425 11.243 11.025 10.97 11.155 11.222 11.247 11.395 11.523 11.575 11.698 11.872 12.028 12.227 12.545 12.97 13.435 13.427 13.31 13.062 12.455 11.908 11.61 11.517 11.6 11.79 11.76 11.448 11.452 11.448 11.017 10.96 11.157 11.533 11.552 11.56 11.927 12.083 11.855 11.35 11.1 11.115 11.278 11.383 11.493 11.97 12.533 13.065 13.235 13.247 13.078 12.833 12.625 12.212 11.722 11.42 11.315 11.17 11.05 11.057 11.065 11.025 11.01 11.05 11.08 11.113 11.145 11.217 11.387 11.708 12.092 12.622 13.512 14.507 14.847 14.26 13.267 12.667 12.378 12.422 12.337 12.11 11.967 11.825 11.92 12.288 12.722 13.065 13.27 13.693 13.755 13.82 14.068 14.432 14.76 15.21 15.73 16.362 17.15 17.542 17.97 18.415 18.995 19.175 19.257 18.64 17.94 17.72 17.66
13.797 13.07 12.182 11.365 10.118 9.695 9.48 9.377 9.235 9.27 9.413 9.587 9.65 9.81 9.72 9.878 9.78 9.9 9.75 9.498 9.47 9.54 9.625 9.747 9.615 9.82 9.673 9.727 9.778 9.595 9.515 9.195 9.265 9.523 9.253 9.172 9.137 9.745 9.015 9.023 8.485 7.94 7.613 7.642 7.855 8.065 8.06 8.217 8.43 8.4 8.602 8.788 8.915 9.16 9.72 10.142 10.592 10.865 10.73 10.507 10.17 9.525 8.712 8.097 8.815 10.085 11.052 11.573 11.745 11.217 11.005 11.122 11.097 10.872 11.19 11.327 11.568 11.52 11.32 10.89 10.418 10.517 10.655 10.965 11.33 11.413 11.163 11.073 11.23 11.382 11.288 11.205 11.48 11.325 10.6 10.3 10.087 10.16 10.188 10.19 10.405 10.538 10.68 10.96 11.443 11.785 11.875 11.82 11.795 11.802 11.818 11.917 12.145 12.515 12.757 13.073 13.46 13.62 14.092 14.21 14.227 14.06 13.523 13.79 14.255 14.525 14.448 14.738 15.122 15.5 15.778 16.243 16.718 16.97 16.708 16.585 16.763 16.903 17.195 17.78 17.855 18.102 18.548 19.01 19.225 19.62 20.195 20.888 21.74 22.585 22.97 22.827 22.847 22.772 23.032 23.28 23.36 22.958 22.78 22.945 22.968 23.175 23.663 24.475 25.108 25.525 25.85 25.605 25.028 25.038 25.03 24.515 24.04 24.122 24.423 24.4 24.235 24.337 24.528 24.147 23.76 23.305 22.86 22.555 22.18 21.778 21.4 21.07 20.667 20.295 19.897 19.597 19.14 18.65 18.19 17.68 16.83 15.592 14.307 13.722 13.743 13.795 13.757 13.702 13.673 13.688 13.698 13.708 13.705 13.712 13.9 14.285 14.09 13.68 13.642 13.665 13.67 13.685 13.665 13.68 13.935 14.057 13.257 12.815 12.645 12.488 12.477 12.625 12.655 12.325 12.372 12.895 12.977 12.885 12.007 10.458 11.035 11.372 11.425 11.23 11.05 10.43 9.993 9.755 9.665 9.65 9.602 9.562 9.525 9.493 9.472 9.5 9.542 9.592 9.573 9.493 9.47 9.475 9.523 9.602 9.66 9.645 9.698 9.788 9.823 9.788 9.827 9.93 9.967 10.04 10.628 11.307 11.632 12.262 12.858 13.34 12.837 11.677 10.622 10.315 10.72 10.177 10.007 10.03 10.167 9.938 9.84 9.775 9.75 9.733 9.865 10.77 11.443 11.755 11.115 10.645 10.653 10.645 10.517 10.67 10.69 10.843 10.673 10.368 10.493 10.847 11.503 11.935 12.023 12.023 11.972 12.015 12.11 12.257 12.507 12.672 12.82 12.977 13.105 13.167 13.285 13.325 13.03 12.59 12.368 12.335 12.068 11.81 11.842 11.92 11.935 11.68 11.225 11.055 11.08 11.165 11.31 11.465 11.453 10.805 10.975 11.007 10.85 10.852 11.03 11.273 11.462 11.578 11.52 11.363 11.425 11.468 11.468 11.715 12.092 12.548 13.255 13.577 13.29 12.96 12.438 11.895 11.68 11.523 11.7 12.007 11.958 11.738 11.705 11.597 11.158 10.887 10.93 11.305 11.372 11.325 11.667 11.91 11.922 11.602 11.288 11.208 11.417 11.477 11.875 12.21 12.337 12.512 12.62 12.76 13.03 13.01 12.585 11.975 11.477 11.468 11.432 11.195 11.075 11.073 11.068 11.035 11.03 11.05 11.073 11.118 11.173 11.275 11.485 11.847 12.222 12.788 13.597 14.28 14.555 13.975 13.083 12.648 12.363 12.405 12.275 12.08 12.105 11.97 12.085 12.307 12.738 13.093 13.135 13.273 13.628 14.047 14.515 14.778 15.033 15.528 16.165 16.737 17.487 18.365 18.663 19.065 19.388 19.612 19.472 18.86 18.33 18.003 17.932
13.95 13.288 12.173 11.55 11.312 9.722 9.645 9.23 9.108 9.212 9.325 9.425 9.515 9.57 9.568 9.592 9.533 9.305 9.057 8.925 8.83 8.868 8.945 8.972 8.975 8.953 8.915 8.868 8.868 8.92 8.93 8.818 8.747 8.872 8.767 8.712 8.705 8.745 8.67 8.875 8.922 8.472 8.4 8.392 8.39 8.387 8.253 8.073 8.193 8.38 8.307 8.118 8.753 8.738 9.042 9.41 10.3 10.363 10.688 10.78 10.307 10.202 9.743 7.935 8.955 10.09 10.61 10.903 10.81 10.505 10.59 10.97 10.615 10.962 11.07 11.062 11.118 11.07 10.415 9.915 9.48 9.28 9.44 10.413 10.105 10.085 10.12 10.052 10.227 10.562 10.63 10.63 10.642 10.27 10.11 10.033 9.898 9.907 10.045 10.15 10.222 10.32 10.613 10.735 10.81 11.185 11.385 11.265 11.327 11.573 11.575 11.595 11.845 12.24 12.722 12.988 13.395 13.505 13.655 13.61 13.705 13.358 13.158 13.295 13.807 14.315 14.61 15.042 15.295 15.453 15.807 16.378 16.952 17.327 17.13 16.958 17.403 16.958 16.85 17.18 17.27 17.53 17.948 18.35 18.6 19.125 19.743 20.67 21.673 22.208 22.493 22.493 22.265 22.295 22.33 22.403 22.74 22.733 22.817 22.882 22.895 23.16 23.76 24.53 24.908 25.247 25.455 25.112 24.987 25.327 25.295 24.77 24.337 24.333 24.455 24.632 24.425 24.515 24.59 24.22 24.025 23.295 22.958 22.698 22.305 22.007 21.635 21.17 20.74 20.362 19.96 19.445 19.112 18.77 18.355 17.788 17.048 15.74 14.523 13.86 13.83 13.855 13.805 13.735 13.708 13.71 13.712 13.722 13.733 13.747 13.955 14.295 13.945 13.632 13.63 13.65 13.655 13.66 13.64 13.72 13.557 12.913 12.307 11.922 11.67 11.66 11.675 11.628 11.73 11.985 12.13 12.222 12.43 12.605 12.308 10.923 10.343 10.82 10.403 10.275 10.198 9.88 9.765 9.72 9.693 9.635 9.595 9.538 9.51 9.49 9.498 9.51 9.56 9.593 9.54 9.477 9.462 9.495 9.542 9.62 9.708 9.7 9.71 9.81 9.773 9.78 9.805 9.875 9.923 10.358 11.41 11.708 12.122 12.57 13.188 13.65 13.648 12.675 11.2 10.648 10.938 10.443 10.125 9.98 10.175 10.035 9.915 9.865 9.71 9.68 9.735 10.068 11.14 12.023 11.882 10.587 10.233 10.18 10.205 10.345 10.315 10.462 11.16 10.6 10.503 11.215 11.792 12.078 12.325 12.42 12.425 12.347 12.38 12.488 12.59 12.717 12.85 13.02 13.11 13.15 13.302 13.487 13.288 12.943 12.733 12.453 11.977 11.595 11.815 12.092 12.125 11.8 11.115 10.672 10.615 10.675 10.82 11.145 11.22 10.56 10.752 11.023 10.9 10.882 11.18 11.577 11.807 11.798 11.613 11.32 11.275 11.16 11.135 11.33 11.623 12.327 12.975 13.592 13.495 13.092 12.685 12.035 11.677 11.67 11.92 11.932 11.725 11.648 11.635 11.378 11.235 11.023 10.863 11.005 11.198 11.127 11.372 11.615 11.908 12.025 11.807 11.645 11.875 11.73 11.665 11.98 11.927 11.88 11.953 12.163 12.47 12.292 11.78 11.498 11.375 11.342 11.33 11.17 11.087 11.085 11.075 11.057 11.007 11.005 11.08 11.137 11.21 11.38 11.693 12.025 12.302 12.908 13.682 14.2 14.455 14.097 13.273 12.79 12.497 12.62 12.512 12.315 12.312 12.155 12.18 12.372 12.625 12.99 13.302 13.565 13.958 14.39 15.012 15.153 15.305 15.738 16.39 17.195 17.635 18.173 18.722 19.15 19.385 19.475 19.23 18.772 18.212 17.733 17.595
14.137 12.958 12.238 11.065 12.097 10.54 10.708 10.625 9.97 9.795 9.7 10.095 10.403 10.66 10.663 10.245 10 9.58 9.507 9.222 9.025 9.1 9.273 9.335 9.345 9.01 8.905 8.82 8.792 8.708 8.74 8.705 8.682 8.645 8.653 8.602 8.493 8.535 8.498 8.465 8.45 8.29 8.265 8.365 8.137 8.043 7.648 7.818 7.927 8.025 7.743 7.892 7.988 8.545 8.455 8.74 9.24 9.283 8.15 8.158 8.507 8.735 8.885 7.9 8.368 9.475 9.807 9.922 9.802 9.56 9.96 9.77 9.927 10.27 10.205 10.238 10.02 9.788 9.488 8.925 8.645 8.528 8.77 9.922 8.96 9.13 9.302 9.33 9.585 9.887 10.118 10.172 10.108 10.028 9.91 9.833 9.795 9.888 10.392 10.695 10.835 10.673 10.538 10.747 10.735 10.865 11.145 11.235 11.395 11.562 11.773 11.703 11.87 12.432 13.068 13.1 13.27 12.995 12.887 12.908 12.985 12.815 12.653 12.798 13.19 13.557 14.092 14.632 15.017 15.46 15.83 16.267 16.865 17.51 17.562 17.04 16.938 16.427 16.548 16.827 17.062 17.397 17.705 17.925 18.14 18.665 19.335 20.193 21.003 21.305 21.645 21.81 21.743 21.82 21.892 21.995 22.225 22.548 22.657 22.722 23.307 24.13 24.305 24.66 24.962 25.188 25.295 25.29 25.302 25.653 25.483 25.213 24.597 24.443 24.698 25.108 24.575 24.272 24.503 24.432 24.065 23.3 22.872 22.622 22.413 22.038 21.575 21.173 20.76 20.37 19.938 19.612 19.21 18.76 18.237 17.802 17.032 15.88 14.805 14.065 13.94 13.958 13.887 13.802 13.77 13.798 13.775 13.76 13.773 13.823 14.125 14.378 13.842 13.613 13.613 13.628 13.638 13.642 13.625 13.523 12.807 12.167 11.55 11.14 10.96 10.985 11.025 11.028 11.092 11.248 11.51 11.592 11.575 11.725 11.565 11.08 10.052 10.613 9.823 9.688 9.62 9.555 9.645 9.702 9.672 9.595 9.542 9.513 9.495 9.497 9.505 9.52 9.568 9.57 9.515 9.485 9.488 9.54 9.583 9.65 9.762 9.77 9.755 9.795 9.76 9.792 9.825 9.847 9.962 10.792 11.62 11.6 12.213 12.87 13.318 13.755 13.785 13.205 12.392 11.1 10.977 10.77 10.595 10.243 10.39 10.368 10.01 9.892 9.747 9.698 9.755 9.858 10.6 11.435 10.972 10.208 10.028 10.033 10.615 10.182 10.385 10.173 10.355 10.362 10.552 11.31 11.708 12.215 12.69 12.77 12.762 12.752 12.788 12.747 12.783 12.845 12.923 12.993 13.132 13.165 13.163 13.325 13.095 12.757 12.577 12.56 11.945 11.528 11.712 12.145 12.198 11.873 11.305 10.715 10.47 10.475 10.558 10.795 11.038 11.052 11.023 11.068 10.988 11.035 11.413 11.792 12.035 11.958 11.562 11.083 11.005 11 10.905 11.043 11.345 11.965 12.823 13.6 13.618 13.29 12.76 12.225 11.88 11.962 12.012 11.785 11.552 11.413 11.403 11.337 11.245 11.068 10.985 10.88 10.99 10.98 11.188 11.342 11.635 12.08 12.34 12.325 12.175 11.915 11.557 11.64 11.69 11.66 11.738 11.79 11.8 11.625 11.512 11.4 11.325 11.27 11.2 11.09 11.065 11.083 11.068 11.033 10.995 11.04 11.113 11.162 11.29 11.48 11.83 12.16 12.453 12.913 13.55 14.13 14.712 14.448 13.517 13.085 12.802 13.042 12.708 12.605 12.46 12.39 12.392 12.465 12.812 13.21 13.69 14.155 14.932 15.128 15.66 16.42 16.327 16.067 16.285 16.833 17.63 18.142 18.237 19.077 19.235 19.085 18.462 18.183 17.673 17.342 17.155
14.18 13.298 12.55 12.665 11.967 11.637 11.833 11.597 10.913 10.913 11.055 11.347 11.712 12.035 12.105 12.188 11.77 11.512 11.21 11.042 10.5 10.925 11.105 10.86 10.4 9.83 9.627 9.718 10.108 9.755 9.765 9.387 9.405 9.375 9.645 9.625 9.09 8.663 8.375 8.36 8.32 8.128 7.91 7.79 7.65 7.532 7.457 7.533 7.485 7.47 7.845 7.422 7.43 7.725 8.153 8.195 8.685 9.073 8.852 7.803 7.62 7.378 7.887 7.858 8.753 9.182 8.497 8.493 8.625 8.605 8.51 8.738 8.62 9.262 9.363 9.153 8.94 8.568 8.35 8.122 8.042 8.055 8.255 8.45 8.483 8.65 8.805 8.995 9.265 9.467 9.708 9.975 10.04 10.055 9.727 9.515 9.523 10.122 11.005 11.333 11.37 11.193 11.017 10.788 10.773 10.767 11.153 11.552 11.618 11.538 11.795 11.493 11.615 11.878 12.42 12.688 12.528 12.295 12.215 12.275 12.26 12.087 11.955 12.055 12.405 12.773 13.363 14.02 14.64 14.908 15.153 15.42 16.135 16.455 16.263 15.925 15.985 15.618 15.788 16.538 17.13 17.413 17.565 17.525 17.86 18.213 18.728 19.625 20.265 20.66 21.173 21.345 21.69 21.798 21.972 22.195 22.035 22.07 22.345 22.618 23.265 23.795 24.222 24.57 25.052 25.57 25.833 25.712 25.92 26.103 25.812 25.4 24.945 24.715 24.717 24.837 24.61 24.085 24.162 24.14 23.925 23.782 23.177 22.675 22.45 22.045 21.608 21.272 20.798 20.448 20.05 19.692 19.312 18.767 18.355 17.895 17.173 16.007 15.193 14.337 13.97 13.948 13.943 13.905 13.905 14.023 13.985 13.91 13.898 14.007 14.307 14.25 13.725 13.577 13.595 13.618 13.62 13.62 13.585 13.252 12.252 11.3 10.858 10.753 10.715 10.733 10.785 10.778 10.735 10.82 11.14 11.328 11.203 11.012 10.79 10.58 10.048 10.298 9.983 9.595 9.548 9.535 9.597 9.635 9.63 9.573 9.517 9.5 9.485 9.49 9.503 9.543 9.568 9.562 9.505 9.5 9.525 9.562 9.59 9.61 9.7 9.82 9.855 9.805 9.778 9.798 9.837 9.875 10.023 10.378 10.908 11.32 11.832 12.4 13.087 13.673 13.725 13.132 12.445 11.658 11.09 10.847 10.825 10.58 10.6 10.722 10.282 9.892 9.993 9.675 9.78 9.86 10.31 10.842 10.505 10.095 9.962 10.257 10.233 10.243 10.497 10.202 10.358 10.382 10.775 11.422 11.843 12.39 12.988 12.988 12.935 12.863 12.865 12.847 12.845 12.855 12.917 12.993 13.08 13.193 13.137 13.05 12.71 12.448 12.507 12.695 12.318 11.955 11.83 12 12.172 11.908 11.37 10.842 10.52 10.465 10.51 10.615 10.97 11.295 11.455 11.307 11.025 11.01 11.305 11.665 11.833 11.695 11.235 10.745 10.675 10.677 10.792 10.835 11.188 11.807 12.608 13.22 13.532 13.227 12.75 12.32 12.182 12.305 12.225 11.875 11.55 11.61 11.557 11.628 11.515 11.29 11.06 10.983 10.863 10.935 11.093 11.217 11.41 11.823 12.347 12.528 12.068 11.605 11.462 11.467 11.552 11.613 11.618 11.628 11.585 11.52 11.417 11.363 11.278 11.202 11.163 11.092 11.062 11.042 11.005 11.02 11.01 11.045 11.182 11.278 11.387 11.613 11.945 12.245 12.705 13.238 13.542 14.033 14.73 14.62 14.125 13.587 13.2 13.265 13.405 13.235 13.078 13.038 13.078 13.052 13.215 13.585 14.042 14.778 15.698 16.163 16.467 17.05 17.497 17.443 17.013 16.855 17.51 18.533 18.34 18.69 18.927 18.605 18.07 17.57 16.993 16.682 16.48
13.88 12.825 12.95 12.755 12.41 12.74 12.67 12.56 12.362 12.335 12.74 12.85 12.948 12.85 13.095 13.645 13.56 13.155 12.57 12.575 11.805 11.943 12.07 11.79 11.995 11.485 11.225 11.165 10.97 10.575 10.672 10.505 9.825 9.113 9.4 9.63 9.045 8.635 9.3 8.913 8.347 8.31 8.158 7.773 7.51 7.367 7.233 7.172 7.195 7.273 7.26 7.3 7.227 7.207 7.365 7.84 8.66 8.952 8.795 8.775 7.605 7.17 7.837 7.793 7.9 7.695 7.668 7.568 7.995 7.538 8.17 7.727 8.14 7.68 8.32 7.947 7.787 7.452 7.508 7.517 7.577 7.75 7.975 8.165 8.32 8.465 8.688 8.94 9.097 9.238 9.537 9.467 9.21 8.807 8.387 8.217 8.2 9.76 10.887 11.14 11.622 11.54 11.712 11.267 10.85 10.747 10.913 10.905 11.012 10.99 11.057 11.065 11.243 11.515 12.092 12.467 12.363 11.922 11.923 11.837 11.42 11.298 11.142 11.263 11.462 11.895 12.68 13.483 14.557 15.198 15.14 15.255 15.337 15.025 14.945 15.185 15.382 15.137 15.342 15.797 16.612 17.26 17.32 17.333 17.552 18.07 18.423 18.812 19.65 20.478 20.715 20.81 21.522 21.808 21.767 21.855 21.445 21.18 21.228 21.345 21.817 22.27 22.68 23.125 23.892 25.013 25.715 26.138 26.507 26.555 25.818 25.092 24.85 24.845 24.83 24.83 24.99 24.362 24.265 24.272 24.205 24.427 23.71 22.975 22.577 22.208 21.705 21.312 20.983 20.66 20.408 19.815 19.392 18.837 18.31 17.743 17.07 16.118 15.472 14.615 13.887 13.852 13.852 13.917 13.94 14 14.038 13.95 13.873 13.88 13.952 13.82 13.568 13.533 13.57 13.578 13.58 13.568 13.52 12.823 11.64 10.88 10.675 10.613 10.592 10.605 10.61 10.602 10.608 10.747 11.085 11.278 11.1 10.8 10.545 10.275 9.927 10.017 10.095 9.733 9.623 9.543 9.56 9.568 9.542 9.493 9.48 9.472 9.465 9.465 9.5 9.552 9.573 9.555 9.493 9.52 9.56 9.628 9.6 9.62 9.665 9.727 9.858 9.807 9.8 9.8 9.81 9.885 10.007 10.102 10.525 11.002 11.477 12.1 12.785 13.48 13.488 12.923 12.565 11.938 11.097 10.807 10.71 10.847 10.885 10.945 10.84 10.51 9.802 9.935 9.895 10.085 10.32 10.535 10.312 10.01 9.953 10.47 11.233 10.917 10.25 10.347 10.307 10.443 10.887 11.413 11.715 12.477 13.04 12.935 12.932 12.858 12.9 12.858 12.845 12.898 12.922 12.97 13.05 13.16 13.102 12.915 12.547 12.305 12.44 12.605 12.583 12.243 12.057 11.882 11.91 11.775 11.38 11.015 10.738 10.56 10.63 10.818 11.137 11.655 11.675 11.273 10.95 10.858 10.938 11.102 11.167 11.04 10.785 10.623 10.783 10.533 10.615 10.72 11.028 11.52 12.227 12.792 13.115 13.102 12.708 12.425 12.538 12.735 12.535 12.182 11.908 11.835 11.833 11.955 11.778 11.653 11.312 11.273 11.04 10.94 11.062 11.205 11.312 11.625 12.068 12.307 11.907 11.44 11.3 11.382 11.538 11.547 11.525 11.53 11.538 11.477 11.43 11.342 11.182 11.125 11.135 11.07 11.03 11.023 10.997 10.965 11.007 11.135 11.24 11.352 11.493 11.698 12.045 12.382 12.985 13.66 13.953 14.035 14.72 14.847 14.532 13.967 13.698 13.415 13.59 13.85 13.962 14.238 14.288 14.552 14.413 14.26 14.755 15.512 16.475 17.28 17.48 17.472 17.805 18.147 18.15 17.495 17.55 18.185 18.85 18.715 18.48 17.84 17.548 17.212 16.78 16.327 16.218
13.542 12.415 12.59 12.805 12.903 13.217 13.605 13.945 13.828 13.78 14.288 14.385 14.25 14.568 14.738 15.302 14.757 14.195 13.63 13.595 13.057 12.44 12.852 13.125 13.023 13.02 12.753 12.545 12.295 11.995 12.24 12.038 11.227 10.17 10.783 10.458 9.382 9.212 9.335 9.682 9.378 9.19 9.573 8.48 8.15 8.095 7.52 7.332 7.267 7.188 7.175 7.157 7.168 7.13 7.207 7.405 7.8 8.255 7.91 7.727 7.565 7.238 7.747 7.653 7.472 7.427 7.485 7.298 7.412 7.345 7.32 7.415 7.305 7.213 7.177 7.257 7.29 7.262 7.27 7.325 7.512 7.755 7.99 8.09 8.038 8.11 8.298 8.387 8.32 8.318 8.365 8.278 8.297 8.2 8.073 7.983 8.32 9.398 10.19 10.81 11.363 11.69 11.77 11.78 11.15 10.695 10.653 10.84 10.56 10.625 10.833 10.84 11.118 11.475 12.02 12.352 12.167 11.905 11.722 11.417 11.035 10.645 10.632 10.943 11.092 11.565 12.24 13.153 14.517 15.2 15.562 15.315 14.71 14.347 14.405 14.927 15.583 15.102 15.118 15.622 16.327 16.993 17.068 17.247 17.345 17.593 17.917 18.32 19.088 19.985 20.285 20.75 21.615 22.017 21.392 20.932 20.533 20.202 20.288 20.605 20.83 21.24 21.718 22.248 22.888 23.798 24.978 25.933 26.265 26.302 25.458 24.745 24.588 24.833 24.635 24.315 24.535 24.315 24.278 24.38 24.282 24.272 23.733 22.972 22.673 22.368 21.885 21.52 21.182 20.792 20.342 19.78 19.34 18.835 18.195 17.51 16.847 16.195 15.54 14.845 13.75 13.677 13.688 13.698 13.655 13.618 13.61 13.515 13.472 13.462 13.465 13.462 13.398 13.305 13.493 13.483 13.413 13.39 13.028 12.27 11.155 10.673 10.56 10.533 10.505 10.512 10.512 10.485 10.503 10.665 11.017 11.21 11.062 10.653 10.255 9.995 9.795 9.795 10.062 9.762 9.605 9.548 9.51 9.465 9.458 9.45 9.445 9.443 9.438 9.462 9.517 9.56 9.585 9.54 9.5 9.533 9.597 9.672 9.69 9.712 9.698 9.72 9.855 9.845 9.805 9.79 9.79 9.83 9.917 10.012 10.217 10.663 11.175 11.722 12.35 12.828 13.132 13.1 12.6 11.88 11.108 10.627 10.52 10.72 10.818 10.837 10.77 10.922 10.945 10.693 10.885 10.542 10.762 10.59 10.29 10.12 10.17 10.525 11.1 10.42 10.435 10.375 10.238 10.5 10.83 11.195 11.725 12.6 13.137 12.983 13.023 12.962 12.92 12.935 12.877 12.87 12.908 12.967 13.015 13.097 12.93 12.775 12.573 12.425 12.655 12.642 12.485 12.2 11.945 11.705 11.48 11.432 11.275 11.13 10.943 10.823 10.895 11.108 11.285 11.49 11.302 10.972 10.69 10.735 10.695 10.66 10.663 10.663 10.685 10.75 10.865 10.823 10.722 10.705 10.92 11.25 11.77 12.255 12.628 12.795 12.615 12.613 12.815 13.095 12.997 12.618 12.125 11.935 12.06 12.062 11.988 11.708 11.547 11.565 11.355 11.03 11.127 11.342 11.49 11.602 11.878 12 11.887 11.705 11.573 11.645 11.695 11.637 11.555 11.547 11.562 11.523 11.42 11.265 11.127 11.083 11.068 11.028 11.017 10.985 10.995 11.01 11.062 11.127 11.273 11.445 11.602 11.825 12.125 12.443 13.025 13.49 13.895 14.198 14.727 15.24 14.93 14.34 14.042 14.03 13.967 13.955 14.097 14.365 14.755 15.195 15.675 15.38 15.98 16.608 17.468 17.96 17.917 17.535 17.35 17.778 18.253 18.3 17.808 17.95 18.055 18.052 17.665 17.158 17.13 16.845 16.345 16.112 15.935
14.96 12.775 12.432 13.32 13.462 13.895 14.472 15.057 15.307 15.405 15.715 15.552 15.86 15.925 16.253 16.345 15.802 15.56 15.387 14.477 13.852 13.443 13.795 14.217 14.705 14.438 14.312 13.91 13.278 13.273 13.403 12.915 11.868 11.735 11.523 11.065 10.823 10.552 10.68 10.77 10.587 10.545 10.635 10.307 9.62 9.077 9.075 8.845 8.377 8.415 7.803 7.595 7.552 7.213 7.162 7.185 7.182 7.21 7.24 7.815 7.443 7.328 7.227 7.305 7.352 7.205 7.153 7.125 7.057 7.095 7.09 7.145 7.158 7.122 7.14 7.128 7.125 7.122 7.205 7.36 7.408 7.608 7.793 7.835 7.74 7.488 8.193 7.915 7.867 8.073 8.045 8.462 8.828 8.488 8.238 8.262 8.58 8.993 9.562 10.378 10.972 11.222 11.597 11.61 10.632 10.663 10.695 10.965 10.837 10.882 10.925 11.062 11.13 11.352 11.778 12.05 12.337 12.597 12.08 11.287 11.068 10.788 10.778 10.943 11.137 11.465 12.042 12.892 13.898 15.012 15.653 15.597 15.403 15.203 15.068 15.515 16.267 15.43 15.295 15.6 16.44 16.788 17.028 17.077 17.208 17.315 17.67 18.065 18.68 19.175 19.868 20.68 21.192 21.02 20.468 20.153 19.815 19.587 19.815 20.173 20.327 20.765 21.087 21.57 22.18 22.958 23.962 25.372 26.002 26.125 25.44 24.62 24.173 24.478 24.458 24.108 24.058 24.11 24.173 24.24 24.375 24.188 23.958 23.228 22.728 22.548 22.095 21.658 21.312 21.122 20.363 19.86 19.427 18.688 18.135 17.49 16.955 16.28 15.547 14.7 13.562 13.493 13.472 13.38 13.3 13.295 13.33 13.33 13.31 13.22 13.118 12.93 12.76 13.02 13.007 12.82 12.49 12.22 11.85 11.31 10.767 10.548 10.515 10.495 10.453 10.415 10.39 10.368 10.38 10.52 10.873 11.085 10.985 10.52 10.028 9.738 9.682 9.705 9.927 9.79 9.602 9.53 9.483 9.432 9.423 9.427 9.435 9.44 9.46 9.47 9.528 9.583 9.568 9.52 9.497 9.562 9.625 9.68 9.755 9.765 9.712 9.715 9.783 9.792 9.807 9.775 9.762 9.773 9.847 9.962 10.153 10.43 10.832 11.497 11.778 12.135 12.53 13.2 12.93 12.148 11.185 10.515 10.408 10.418 10.4 10.408 10.56 11.075 11.292 11.413 11.062 10.793 10.802 10.56 10.335 10.225 10.267 10.618 10.462 10.677 10.645 10.528 10.312 10.425 10.688 11.125 11.637 12.608 13.202 13.095 13.023 12.998 12.943 12.965 12.95 12.922 12.93 12.967 13.017 13.003 12.725 12.555 12.505 12.46 12.865 12.48 12.138 11.93 11.685 11.503 11.345 11.278 11.312 11.283 11.185 11.033 10.998 11.157 11.25 11.222 10.972 10.665 10.503 10.632 10.565 10.502 10.528 10.68 10.562 10.663 10.837 11.028 11.15 10.935 10.85 11.123 11.48 11.827 12.285 12.462 12.543 12.675 12.925 13.295 13.285 12.972 12.502 12.128 12.145 12.07 11.86 11.658 11.583 11.8 11.653 11.148 11.18 11.378 11.55 11.635 11.702 11.825 11.797 11.807 11.875 11.907 11.87 11.785 11.73 11.667 11.573 11.443 11.318 11.155 11.04 11.033 11.055 11.003 10.985 10.98 11.005 10.997 11.075 11.185 11.36 11.51 11.698 11.92 12.23 12.495 13.003 13.408 13.85 14.18 14.65 15.365 15.145 14.637 14.368 14.405 14.472 14.673 14.733 14.693 14.733 15.41 16.325 16.673 17.075 17.167 17.235 17.747 17.662 17.2 16.98 17.233 17.735 18.032 17.903 17.58 17.49 17.388 17.055 16.597 16.425 16.003 15.653 15.56 15.788
14.66 14.108 13.757 14.03 14.4 15.012 15.762 15.873 16.45 16.735 16.81 16.693 16.98 17.48 17.642 17.535 17.202 16.915 16.365 15.462 14.767 14.438 14.587 15.195 15.818 14.968 14.443 14.565 14.452 14.403 14.14 13.627 12.96 12.77 12.217 12.435 12.127 12.18 12.362 12.373 13.085 11.837 11.788 11.108 11.068 10.215 10.095 10.22 9.642 9.395 9.185 9.275 8.865 8.68 8.448 8.007 7.64 7.392 7.323 7.293 7.238 7.267 7.253 7.225 7.195 7.21 7.165 7.18 7.165 7.153 7.145 7.2 7.205 7.23 7.217 7.325 7.425 7.133 7.09 7.265 7.345 7.515 7.49 7.638 7.878 7.385 7.745 8.03 8.227 8.035 8.273 8.935 9.415 9.05 8.655 8.533 8.472 8.788 9.125 9.672 10.158 10.173 10.25 10.092 9.825 10.585 10.802 10.86 11.162 11.123 11.2 11.333 11.435 11.625 11.975 12.443 12.82 13.045 12.658 12.185 11.48 11.2 11.225 11.177 11.325 11.762 12.333 12.93 13.835 14.887 15.7 15.977 15.84 16.08 15.77 16.295 16.885 16.12 15.622 15.795 16.64 16.708 16.898 16.87 16.865 17.19 17.658 18.035 18.56 18.822 19.733 20.163 19.965 19.765 19.395 19.285 19.052 18.843 18.788 19.01 19.403 19.59 20.038 20.568 21.198 22.065 23.065 24.353 25.163 25.755 25.405 24.267 23.89 24.205 24.368 24.108 23.935 23.95 23.915 23.895 24.042 23.92 23.728 23.39 22.647 22.445 22.147 21.695 21.34 21.138 20.47 20.087 19.503 18.688 18.183 17.698 16.99 16.233 15.5 14.523 13.315 13.23 13.252 13.193 13.145 13.068 13.115 12.85 12.65 12.31 11.983 12.082 12.042 11.872 11.712 11.538 11.237 10.913 10.663 10.58 10.48 10.495 10.497 10.462 10.417 10.355 10.295 10.243 10.238 10.302 10.535 10.792 10.802 10.41 9.895 9.592 9.625 9.677 9.812 9.767 9.565 9.5 9.465 9.435 9.425 9.435 9.44 9.455 9.477 9.483 9.545 9.587 9.53 9.495 9.493 9.552 9.602 9.637 9.69 9.708 9.745 9.745 9.77 9.81 9.767 9.743 9.733 9.75 9.792 9.917 10.06 10.22 10.38 11.13 11.218 11.358 11.74 12.64 12.977 12.255 11.238 10.517 10.31 10.15 10.105 10.47 10.69 10.917 10.89 11.132 10.95 10.755 10.575 10.36 10.235 10.193 10.61 10.66 10.642 10.747 10.54 10.435 10.267 10.438 10.7 11.15 11.753 12.64 13.175 13.08 13.012 13.05 12.917 12.948 12.962 12.967 12.948 12.967 12.953 12.725 12.503 12.415 12.417 12.3 12.198 12.137 11.975 11.827 11.78 11.82 11.727 11.613 11.533 11.575 11.555 11.323 11.11 10.98 10.88 10.76 10.613 10.41 10.415 10.59 10.915 10.852 10.7 10.787 10.667 10.57 10.755 10.995 11.177 11.205 11.1 11.155 11.415 11.82 12.165 12.33 12.675 13.062 13.208 13.318 13.113 13.003 12.565 12.017 11.985 11.915 11.78 11.708 11.538 11.807 11.685 11.113 11.057 11.34 11.4 11.373 11.425 11.423 11.552 11.685 11.8 11.87 11.87 11.815 11.7 11.555 11.39 11.238 11.073 10.995 10.972 10.99 10.99 10.977 10.977 10.99 10.957 10.993 11.073 11.208 11.368 11.552 11.785 12.062 12.298 12.555 12.975 13.477 13.835 14.32 14.948 15.552 15.547 15.243 14.95 15.167 15.33 15.42 15.55 15.545 15.21 15.422 16.083 16.517 16.605 16.177 16.827 17.388 17.255 16.815 16.665 16.892 17.017 17.25 16.955 16.97 16.647 16.355 16.225 16.087 15.86 15.625 15.335 15.587 15.677
14.585 14.727 14.967 14.667 15.372 16.368 16.655 16.195 16.847 17.605 17.983 18.038 18.18 18.17 17.82 17.983 17.77 17.56 17.535 16.665 16.048 15.533 15.642 15.738 15.305 14.318 15.238 15.61 15.575 15.57 15.795 15.057 14.462 13.868 13.26 13.595 14.065 14.028 13.78 13.833 13.67 13.42 12.722 12.238 11.84 11.59 11.452 11.415 10.323 10.417 10.592 10.372 10.35 10.315 9.91 9.65 9.355 8.8 8.852 8.225 7.925 7.695 7.635 7.525 7.428 7.287 7.168 7.137 7.338 7.307 7.182 7.243 7.4 7.465 7.403 7.775 7.42 7.92 7.663 7.122 7.21 7.33 7.512 7.907 8.342 7.863 7.597 7.988 8.028 8.095 8.195 8.655 9.623 9.528 8.885 8.387 8.372 8.42 8.75 9.105 9.225 9.3 9.43 9.555 10.275 11.188 11.128 10.887 10.932 11.173 11.188 11.453 11.55 11.795 12.097 12.51 12.943 13.193 12.835 12.127 11.715 11.547 11.53 11.52 11.663 12.305 12.635 13.175 14.102 15.112 15.983 16.552 16.3 16.21 16.165 16.682 16.772 16.295 16.415 16.458 17.285 17.075 16.708 16.725 16.63 17.075 17.778 18.188 18.667 18.882 19.283 19.017 18.663 18.495 18.298 18.443 18.397 18.295 18.298 18.32 18.608 18.71 18.85 19.528 20.225 21 22.005 23.255 24.342 25.25 25.372 24.28 23.888 24.175 24.425 23.967 23.853 23.882 23.81 23.592 23.49 23.43 23.548 23.215 22.535 22.233 21.897 21.65 21.26 21.427 20.573 19.968 19.66 18.823 18.15 17.5 16.905 16.185 15.33 14.222 13.085 13.195 13.03 12.465 12.363 12.21 12.095 11.685 11.347 11.235 11.467 11.413 11.02 10.677 10.503 10.3 10.1 10.015 10.007 10.105 10.382 10.465 10.47 10.43 10.377 10.312 10.245 10.18 10.148 10.148 10.233 10.39 10.525 10.285 9.865 9.56 9.58 9.67 9.735 9.738 9.545 9.48 9.432 9.42 9.423 9.435 9.443 9.455 9.483 9.51 9.575 9.565 9.5 9.497 9.53 9.558 9.573 9.587 9.595 9.622 9.665 9.708 9.715 9.722 9.712 9.705 9.69 9.715 9.765 9.905 9.967 10.047 10.12 10.227 10.25 10.66 11.062 12.122 12.512 11.97 11.055 10.415 10.188 10.065 10.31 10.628 10.773 10.565 10.56 10.83 10.993 10.747 10.497 10.285 10.23 10.158 10.167 10.957 10.505 10.318 10.32 10.337 10.295 10.45 10.807 11.235 11.878 12.85 13.057 12.99 13.007 12.955 12.985 12.925 13.068 13.09 13.052 13.102 12.773 12.318 12.29 12.382 12.493 12.465 12.19 12.033 11.98 12.023 12.227 12.31 12.253 12.082 11.84 11.795 11.865 11.655 11.307 10.915 10.637 10.46 10.372 10.4 10.54 10.93 11.307 11.51 11.355 11.215 10.943 10.77 10.84 11 11.118 11.115 11.165 11.333 11.615 11.872 12.01 12.257 13.062 14.023 14.4 14.188 13.31 12.9 12.517 12.007 11.765 11.78 11.8 11.453 11.365 11.608 11.595 11.01 10.882 11.23 11.328 11.215 11.188 11.208 11.36 11.505 11.595 11.695 11.788 11.705 11.51 11.325 11.1 10.958 10.89 10.88 10.898 10.917 10.967 10.945 10.945 10.95 10.938 10.985 11.06 11.175 11.387 11.608 11.875 12.172 12.4 12.717 13.342 13.6 13.915 14.595 15.288 15.797 15.64 15.355 15.325 15.34 15.363 15.382 15.4 15.395 15.33 15.483 15.905 16.295 16.525 16.347 17.052 17.02 16.615 16.22 16.26 16.388 16.42 16.505 16.552 16.6 16.32 15.94 15.57 15.538 15.645 15.602 15.247 15.26 15.315
16.115 15.943 15.655 15.815 16.15 16.92 17.452 17.213 16.673 17.163 17.79 18.485 18.915 17.972 17.038 16.95 17.065 17.092 17.225 16.833 16.478 15.92 15.743 15.727 14.523 13.775 15.255 16.13 16.46 16.495 16.323 16.302 15.318 14.235 13.642 14.205 14.675 14.765 14.7 14.802 14.958 14.6 13.96 13.337 12.983 13.048 12.72 12.255 11.122 12.215 12.062 11.815 11.57 11.41 11.203 10.778 10.807 10.21 9.96 9.583 9.32 9.215 8.927 8.48 8.14 7.735 7.53 7.207 7.097 7.13 7.025 7.037 7.415 7.503 7.628 7.84 7.975 8.435 7.438 7.275 7.365 7.338 7.43 7.405 7.525 7.665 7.595 7.842 8.882 7.865 8.055 8.408 9.49 9.99 9.057 8.507 8.422 8.39 8.538 8.785 9.01 9.31 9.648 10.19 11.062 11.535 11.485 10.903 10.818 10.997 11.195 11.445 11.6 11.773 11.99 12.532 12.815 13.302 12.798 12.015 11.462 11.195 11.157 11.023 11.31 12.413 13.323 13.73 14.462 15.105 15.958 16.735 16.77 16.948 16.352 16.438 16.22 16.142 16.375 16.855 17.443 17.257 17.068 16.818 16.995 17.593 17.997 18.495 18.882 19.1 18.552 17.917 17.77 17.352 17.483 17.66 17.688 17.665 17.802 18.022 17.795 17.917 18.122 18.715 19.275 20.1 21.208 22.677 23.958 25.455 25.23 24.182 24.022 24.288 24.128 23.79 23.775 23.917 23.628 23.483 23.39 23.415 23.295 22.795 22.495 22.118 21.81 21.528 21.195 20.93 20.975 20.51 19.565 18.788 18.193 17.495 16.715 15.788 14.983 13.595 12.985 13.238 12.368 11.59 11.145 10.887 10.648 10.562 10.68 10.77 10.762 10.672 10.417 10.267 10.073 9.863 9.745 9.783 9.855 10.13 10.413 10.462 10.435 10.38 10.368 10.312 10.247 10.19 10.118 10.073 10.073 10.102 10.163 10.082 9.815 9.595 9.575 9.663 9.68 9.72 9.523 9.45 9.417 9.4 9.413 9.41 9.432 9.453 9.477 9.538 9.577 9.545 9.505 9.52 9.555 9.55 9.545 9.542 9.548 9.573 9.597 9.618 9.622 9.658 9.675 9.658 9.64 9.69 9.74 9.842 9.892 9.938 10.382 10.618 10.193 10.278 10.55 11.202 11.533 11.15 10.573 10.188 10.153 10.14 10.36 10.63 10.642 10.528 10.632 10.835 11.18 10.94 10.653 10.575 10.448 10.38 10.505 10.108 9.995 10.18 10.335 10.25 10.365 10.507 10.865 11.452 12.025 12.81 13.087 13.017 12.955 12.95 12.93 13.03 13.21 13.252 13.127 13.082 12.538 12.337 12.385 12.592 12.755 12.753 12.568 12.21 12.243 12.093 12.283 12.495 12.48 12.208 11.962 11.905 11.843 11.733 11.42 10.967 10.608 10.438 10.425 10.51 10.773 11.247 11.693 11.73 11.493 11.17 10.83 10.733 10.815 10.943 11.012 11.025 11.3 11.635 11.77 11.738 11.842 12.425 13.392 14.485 14.783 14.73 14.435 13.153 12.55 12.12 11.73 11.587 11.52 11.273 11.332 11.59 11.485 10.875 10.767 11.05 11.233 11.093 11.145 11.222 11.262 11.458 11.59 11.645 11.71 11.618 11.38 11.12 10.86 10.815 10.823 10.863 10.86 10.86 10.917 10.91 10.915 10.925 10.905 10.958 11.068 11.227 11.398 11.648 11.935 12.165 12.427 12.91 13.653 14.01 14.477 15.028 15.61 16.068 15.438 15.312 15.345 15.358 15.378 15.39 15.388 15.375 15.363 15.488 15.748 16.097 16.55 16.753 16.48 16.72 16.173 15.882 15.86 15.855 15.825 15.965 16.125 16.08 15.945 15.51 14.948 15.113 14.868 14.682 14.72 14.823 14.932
17.08 17.353 17.375 17.392 17.597 17.638 17.865 16.975 16.843 16.972 17.192 17.677 17.837 17.235 16.382 15.745 15.745 15.735 16.105 16.17 16.208 15.887 15.483 14.783 13.6 13.31 13.913 14.79 15.46 15.84 15.905 15.56 14.878 14.252 13.837 14.345 14.718 14.775 14.81 14.887 14.927 14.938 14.587 14.12 13.927 14.092 13.302 12.715 11.79 13.37 13.805 14.153 12.967 12.792 12.465 12.172 11.827 11.445 11.142 10.91 10.573 10.635 9.975 9.57 9.158 8.972 8.78 7.66 7.488 7.827 7.472 7.23 7.19 7.278 7.467 7.842 7.765 8.083 7.45 7.548 7.432 7.535 7.715 7.415 7.698 7.457 7.74 8.667 8.307 7.943 7.895 8.02 8.868 9.585 8.985 8.888 8.868 8.575 8.613 8.825 9.623 9.73 9.89 10.8 11.365 11.757 11.555 11.337 10.823 10.868 11.27 11.427 11.552 11.775 12.07 12.427 13.013 13.528 12.89 12.11 11.562 11.12 10.95 11.18 11.163 12.132 13.575 14.425 15.083 15.573 16.16 16.625 16.57 16.09 15.975 15.977 15.665 15.833 16.353 16.927 17.565 17.478 17.417 17.345 17.267 17.638 18.188 18.775 19.05 18.642 17.72 17.34 16.677 16.825 17.13 17.272 17.438 17.29 17.165 17.32 17.112 17.115 17.4 18.038 18.638 19.737 21.073 22.483 23.573 25.09 25.288 24.333 24.265 24.532 24.083 23.907 23.843 23.658 23.433 23.195 23.323 23.693 23.025 22.575 22.343 22.15 21.735 21.642 21.245 20.997 20.58 20.193 19.455 18.838 18.157 17.36 16.622 15.52 14.547 12.99 13.042 12.882 11.725 11.007 10.49 10.345 10.3 10.255 10.26 10.297 10.285 10.267 10.202 10.09 9.955 9.775 9.712 9.72 9.925 10.288 10.44 10.467 10.405 10.347 10.33 10.3 10.265 10.212 10.135 10.068 10.013 9.97 9.918 9.845 9.73 9.625 9.573 9.66 9.675 9.703 9.505 9.435 9.41 9.4 9.385 9.398 9.43 9.455 9.475 9.573 9.575 9.52 9.515 9.523 9.535 9.54 9.535 9.528 9.523 9.552 9.555 9.57 9.587 9.62 9.642 9.625 9.605 9.658 9.717 9.807 9.878 9.872 10.005 10.003 9.983 10.04 10.148 10.29 10.24 10.195 10.157 10.108 10.15 10.273 10.408 10.682 10.825 10.812 10.91 11.21 11.395 11.255 11.055 11.028 10.965 10.94 10.637 10.21 10.115 10.295 10.455 10.337 10.497 10.653 10.975 11.483 11.868 12.372 12.788 12.915 12.99 13.118 13.092 13.28 13.387 13.465 13.217 12.95 12.517 12.47 12.667 12.757 12.745 12.75 12.745 12.615 12.408 12.273 12.205 12.07 12.077 11.96 11.975 12.023 11.842 11.507 11.145 10.83 10.655 10.555 10.587 10.717 11.043 11.547 11.93 11.73 11.325 10.908 10.712 10.727 10.785 10.757 10.93 11.19 11.533 11.76 11.747 11.722 11.913 12.842 13.9 14.507 14.417 14.475 14.387 13.51 12.703 12.358 11.975 11.533 11.355 11.323 11.51 11.585 11.32 10.807 10.677 10.878 11.077 11.002 11.075 11.125 11.32 11.61 11.757 11.77 11.618 11.47 11.235 10.962 10.745 10.727 10.78 10.818 10.82 10.785 10.815 10.88 10.903 10.875 10.87 10.948 11.055 11.205 11.438 11.69 11.927 12.155 12.417 13.033 13.923 14.427 15.038 15.557 15.61 15.44 15.288 15.315 15.337 15.36 15.372 15.38 15.382 15.312 15.382 15.45 15.575 15.79 15.88 16.007 15.927 15.7 15.573 15.46 15.35 15.368 15.427 15.503 15.66 15.602 15.337 15.22 15.07 14.895 14.36 14.233 14.17 14.427 14.898
18.038 18.24 18.417 18.597 18.48 18.355 17.517 16.91 16.63 16.802 16.667 17.142 16.845 16.202 15.545 15.005 14.725 14.76 14.833 14.712 14.61 13.983 13.962 13.345 13.24 12.91 12.89 13.325 14.01 14.562 14.577 14.96 14.282 13.868 13.988 14.565 14.682 14.635 14.438 14.358 14.307 14.427 14.27 13.895 13.887 14.04 13.5 12.725 12.08 13.233 14.67 14.288 13.818 13.99 14.028 13.85 13.083 12.855 12.525 12.3 11.847 11.315 10.71 10.6 10.243 9.88 9.227 8.56 8.56 7.912 7.9 7.785 7.475 7.318 7.27 7.375 7.422 7.435 7.682 7.422 7.81 7.945 7.662 7.668 7.845 7.952 7.625 7.922 7.965 7.693 7.878 7.943 7.988 8.137 8.435 8.805 9.323 9.048 8.795 8.595 9.495 9.573 9.8 10.602 11.142 11.67 11.81 11.58 10.932 10.91 11.16 11.345 11.545 11.842 12.337 12.847 13.45 13.398 12.865 12.173 11.745 11.413 11.193 11.095 11.132 11.882 13.158 14.735 15.25 15.795 16.218 16.185 15.938 15.587 15.7 15.68 15.5 15.79 16.312 17.052 17.76 17.93 17.71 18.158 18.06 18.278 18.92 19.39 19.435 17.587 16.695 16.872 16.745 16.79 16.835 17.057 17.327 16.98 16.53 16.455 16.82 16.998 17.585 18.147 19.038 20.165 21.062 22.17 23.458 24.802 25.538 25.07 24.858 24.958 24.655 24.392 24.06 23.628 23.278 23.075 23.065 23.228 23.055 22.548 22.34 22.042 22.27 21.993 21.292 21 20.503 19.985 19.612 18.833 18.132 17.233 16.245 15.113 13.71 12.675 12.987 12.355 11.255 10.535 10.355 10.24 10.182 10.285 10.215 10.212 10.21 10.188 10.12 10.007 9.882 9.788 9.748 9.755 9.972 10.198 10.177 10.398 10.398 10.337 10.295 10.273 10.257 10.202 10.125 10.057 10.02 9.93 9.785 9.667 9.547 9.495 9.505 9.653 9.622 9.693 9.5 9.425 9.398 9.38 9.38 9.403 9.425 9.442 9.493 9.575 9.555 9.507 9.505 9.5 9.52 9.525 9.52 9.51 9.517 9.53 9.54 9.55 9.597 9.458 9.363 9.698 9.625 9.62 9.66 9.722 9.792 9.858 9.85 9.805 9.863 9.96 10.015 10.118 10.188 10.173 10.137 10.235 10.365 10.387 10.505 10.765 10.972 11.083 11.363 11.655 11.99 11.827 11.688 11.49 11.273 10.905 10.762 10.528 10.408 10.545 10.585 10.405 10.497 10.727 11.163 11.6 11.842 12.048 12.47 12.9 13.073 13.445 13.62 13.623 13.665 13.663 13.59 13.06 12.825 12.855 12.9 12.805 12.765 12.767 12.75 12.753 12.737 12.615 12.417 11.882 11.575 11.555 11.84 12.03 11.9 11.355 10.812 10.74 10.72 10.765 10.828 11.002 11.343 11.985 12.283 11.79 11.132 10.705 10.738 10.79 10.87 10.755 10.967 11.343 11.967 12.22 12.068 11.958 12.38 13.457 14.325 14.255 13.83 13.96 13.938 13.475 13.015 12.792 12.42 11.818 11.608 11.627 11.733 11.585 11.193 10.812 10.702 10.852 10.977 10.998 11.023 11.113 11.34 11.788 12.052 11.93 11.535 11.26 11.06 10.84 10.693 10.67 10.73 10.757 10.745 10.75 10.783 10.815 10.837 10.837 10.868 10.915 11.083 11.28 11.477 11.7 11.953 12.203 12.533 13.325 14.055 14.705 15.22 15.427 15.257 15.352 15.298 15.315 15.323 15.333 15.358 15.35 15.22 15.21 15.275 14.962 14.797 14.767 15.047 15.215 15.275 15.165 15.023 14.835 14.755 14.698 14.82 14.938 14.967 14.84 15.045 15.163 15.15 14.542 14.315 14.113 14.015 14.378 14.77
18.403 18.505 18.177 18.048 17.605 17.43 17.055 16.455 16.188 16.443 16.215 16.073 15.795 15.37 15.182 14.858 14.77 14.782 14.165 13.72 13.375 13.03 12.96 12.778 12.517 12.693 12.715 13.017 13.505 13.625 13.475 13.783 13.762 13.552 13.818 14.432 14.315 14.07 13.828 13.665 13.525 13.507 13.145 13.115 13.16 13.325 13.038 12.562 12.182 13.57 14.922 15.372 14.548 14.805 14.375 14.085 14.142 13.785 13.69 13.653 13.015 12.243 11.935 12.087 11.568 10.997 10.23 9.672 8.61 7.838 8.618 8.275 7.995 7.722 7.33 7.427 7.43 7.575 7.185 7.387 7.26 7.61 7.505 7.503 7.755 7.407 7.323 7.767 7.628 7.715 7.965 7.863 7.927 7.945 8.132 8.39 9.083 9.295 8.863 8.4 8.807 9.517 9.733 9.995 10.485 11.01 11.347 11.193 11.012 10.905 10.955 11.208 11.42 11.86 12.533 13.245 13.335 13.012 12.653 12.137 11.705 11.565 11.587 11.462 11.375 11.645 12.593 13.993 14.865 15.427 16.108 16.298 16.097 15.707 15.773 15.807 15.815 15.898 16.378 17.02 17.865 18.173 17.76 18.483 18.415 18.88 19.34 19.83 19.505 18.56 17.48 16.538 16.34 16.18 16.132 16.145 16.522 16.765 16.695 16.837 17.173 17.8 18.538 19.202 19.943 20.577 21.36 22.548 23.775 24.827 26.128 25.757 25.562 25.267 24.743 24.185 23.882 23.483 23.147 23.007 22.95 23.01 23.315 22.79 22.325 22.2 22.365 22.033 21.395 21.022 20.558 20.042 19.6 18.78 17.923 17.052 15.967 14.797 12.95 12.608 12.685 11.658 10.733 10.385 10.26 10.238 10.205 10.253 10.29 10.177 10.202 10.177 10.06 9.93 9.823 9.788 9.767 9.76 9.847 9.79 9.315 9.915 10.312 10.3 10.26 10.233 10.21 10.155 10.105 10.048 10.085 10.052 9.845 9.557 9.42 9.415 9.455 9.63 9.54 9.64 9.497 9.4 9.37 9.375 9.392 9.41 9.43 9.445 9.52 9.568 9.523 9.507 9.498 9.47 9.49 9.485 9.493 9.493 9.517 9.53 9.54 9.55 9.648 9.315 9.21 9.717 9.627 9.573 9.6 9.64 9.735 9.773 9.83 9.815 9.827 9.85 9.983 10.092 10.087 10.077 10.12 10.24 10.408 10.655 10.827 11.182 11.6 11.935 12.18 12.595 12.137 11.855 11.885 11.585 11.163 10.797 10.605 10.49 10.448 10.605 10.645 10.375 10.503 10.677 11.045 11.35 11.57 11.77 12.128 12.66 13.127 13.595 13.907 13.94 14.025 13.852 13.56 13.435 13.13 12.955 12.967 12.862 12.743 12.765 12.763 12.753 12.755 12.86 12.67 12.032 11.472 11.38 11.458 11.663 11.602 11.14 10.805 10.823 10.983 10.975 11.03 11.323 11.783 12.27 12.413 12.102 11.35 10.825 10.823 11.085 11.227 11.092 11.252 11.698 12.283 12.8 12.762 12.44 12.872 13.595 13.717 13.415 13 13.083 13.023 12.915 13.137 13.235 12.628 12.257 12.19 11.9 11.77 11.413 11.012 10.855 10.773 10.92 11.005 11.06 11.04 11.137 11.465 11.908 12.177 11.98 11.503 11.13 10.88 10.733 10.698 10.663 10.663 10.688 10.71 10.72 10.727 10.757 10.818 10.795 10.872 10.993 11.15 11.34 11.568 11.82 12.073 12.392 12.898 13.658 14.07 14.613 15.118 15.14 15.065 15.043 15.047 14.95 15.007 15.062 15.13 14.962 14.747 15.083 14.583 14.382 14.248 14.255 14.515 14.602 14.578 14.523 14.265 14.16 13.96 14.05 14.28 14.458 14.415 14.497 14.833 15.12 15.048 14.557 14.37 14.105 13.962 14.212 14.555
17.188 16.737 16.638 16.685 16.555 16.427 16.02 15.435 15.627 15.408 15.155 14.905 14.797 14.583 14.68 14.802 14.725 14.62 14.01 13.62 13.32 13.29 12.872 12.445 12.325 12.368 12.718 12.988 13.455 13.347 13.205 13.515 13.59 13.365 13.245 13.378 13.672 13.637 13.415 13.233 12.903 12.475 12.44 12.413 12.427 12.53 12.398 12.37 12.592 13.462 14.468 14.675 14.743 14.91 15.34 14.512 14.507 14.165 13.91 13.798 13.9 12.415 12.58 13.102 12.84 12.102 11.395 10.667 9.642 8.922 8.073 7.725 8.475 8.307 8.195 7.997 7.408 7.36 7.29 7.283 7.253 7.217 7.622 7.543 7.693 7.94 7.338 7.32 7.72 8.005 8.097 8.455 8.44 8.085 7.935 8.245 9.42 9.212 8.727 8.485 8.28 8.663 9.403 9.405 10.035 10.472 10.645 11.102 11.285 10.98 10.823 10.917 11.285 11.833 12.415 13.12 13.015 12.615 12.087 11.64 11.415 11.33 11.343 11.453 12.048 11.823 12.385 13.47 14.765 15.583 16.295 16.487 16.392 16.173 16.225 16.375 16.42 15.948 16.345 17.26 18 18.245 18.427 18.693 18.89 19.295 19.823 20.243 20.122 19.5 18.993 18.237 17.423 16.397 16.202 16.188 16.243 16.77 17.208 17.493 17.737 18.345 19.057 19.858 20.472 21.22 22.44 23.608 24.545 25.38 26.06 25.958 25.483 25.327 24.833 24.51 24.095 23.667 23.212 23.038 22.873 23.182 23.667 23.068 22.347 22.225 21.948 21.657 21.282 20.915 20.44 19.96 19.185 18.513 17.587 16.55 15.54 14.042 12.43 12.66 12.033 11.04 10.368 10.312 10.275 10.267 10.25 10.227 10.212 10.22 10.217 10.185 10.005 9.878 9.773 9.722 9.727 9.745 9.773 9.682 9.493 9.913 10.225 10.267 10.21 10.185 10.153 10.105 10.052 10.05 10.23 10.275 10.083 9.663 9.4 9.39 9.432 9.613 9.578 9.642 9.48 9.368 9.347 9.368 9.39 9.417 9.438 9.465 9.56 9.57 9.507 9.513 9.493 9.475 9.472 9.477 9.49 9.497 9.525 9.538 9.54 9.545 9.655 9.762 9.702 9.815 9.58 9.55 9.565 9.605 9.663 9.707 9.783 9.8 9.81 9.87 9.922 9.935 10.007 10.07 10.302 10.285 10.54 10.725 11.1 11.663 12.1 12.512 12.365 12.04 11.868 11.785 11.555 11.253 10.898 10.628 10.37 10.392 10.497 10.585 10.475 10.465 10.653 10.78 10.958 11.262 11.385 11.58 11.842 12.363 12.958 13.517 13.645 13.712 13.785 13.802 13.55 13.578 13.278 12.96 12.94 12.88 12.773 12.76 12.743 12.722 12.755 12.757 12.395 11.693 11.227 11.273 11.337 11.298 11.205 10.997 10.955 11.087 11.16 11.202 11.47 11.943 12.26 12.392 12.408 12.323 11.892 11.153 11.142 11.42 11.663 11.61 11.37 11.9 12.31 12.735 12.85 12.323 12.273 12.358 12.408 12.392 12.21 12.135 12.137 12.257 12.665 13.078 12.68 12.418 12.142 11.8 11.483 11.095 10.935 10.913 10.885 11.045 11.11 11.1 11.132 11.257 11.587 11.935 12.038 11.835 11.477 11.153 10.878 10.757 10.717 10.698 10.682 10.66 10.622 10.685 10.738 10.73 10.78 10.87 10.925 11.06 11.24 11.455 11.7 11.983 12.285 12.75 13.195 13.795 14.288 14.662 14.888 14.917 14.735 14.29 14.057 14.08 14.217 14.26 14.198 14.215 14.565 14.327 14.097 13.977 13.89 13.837 14.08 14.08 14.135 14.023 13.655 13.595 13.41 13.585 13.812 13.983 14.04 14.215 14.722 15.05 14.927 14.81 14.385 14.288 14.267 14.35 14.812
16.177 15.882 15.712 15.77 15.61 15.523 15.142 14.375 14.233 13.88 13.653 13.528 13.667 13.94 14.542 14.788 14.288 14.182 13.958 13.655 13.618 13.193 12.608 12.135 12.102 12.168 12.712 13.455 13.498 12.915 12.825 12.975 13.247 13.075 12.852 12.935 13.097 13.05 13 12.885 12.625 12.233 11.833 11.958 12.125 11.89 12.02 12.285 13.05 13.583 13.83 14.05 14.273 14.58 14.767 14.408 14.648 14.52 14.278 13.753 13.505 13.148 13.15 13.695 13.557 13.34 12.462 11.525 10.597 9.703 8.997 8.212 7.983 8.32 7.865 8.417 7.733 7.378 7.338 7.463 7.383 7.327 7.528 7.56 8.212 7.702 7.548 7.33 7.368 7.512 7.733 7.762 7.842 7.883 8.08 8.335 9.208 9.33 8.805 8.61 8.243 8.26 8.467 8.825 9.425 10.01 10.757 11.337 11.677 11.07 10.948 11.12 11.613 12.167 12.847 13.363 13.16 12.35 11.833 11.423 11.275 11.25 10.905 11.052 11.545 11.98 12.438 13.495 15.097 15.907 16.388 16.658 16.307 16.253 16.04 15.78 15.5 15.738 16.688 17.583 17.943 18.272 18.693 18.833 19.245 19.66 20.09 20.335 20.593 20.25 19.642 19.312 19.568 18.557 18.382 17.39 17.05 17.217 17.71 17.823 18.255 18.81 19.475 20.217 20.682 21.267 21.98 22.91 23.632 24.555 25.472 25.583 24.847 24.728 25.19 25.06 24.667 23.897 23.372 23.31 23.112 23.003 22.845 22.68 22.302 22.028 21.827 21.62 21.862 21.205 20.4 19.82 19.025 17.913 16.93 16.025 14.997 13.247 12.255 12.507 11.462 10.435 10.295 10.29 10.285 10.275 10.267 10.247 10.243 10.243 10.227 10.165 9.927 9.83 9.74 9.67 9.63 9.648 9.71 9.653 9.625 9.672 9.345 9.95 10.163 10.132 10.085 10.042 9.983 9.975 10.18 10.285 10.13 9.693 9.405 9.4 9.43 9.613 9.653 9.637 9.46 9.382 9.345 9.358 9.405 9.432 9.452 9.497 9.568 9.547 9.51 9.51 9.47 9.483 9.472 9.477 9.48 9.503 9.53 9.538 9.535 9.505 9.568 9.845 9.917 9.64 9.51 9.505 9.525 9.583 9.62 9.648 9.74 9.81 9.785 9.935 9.855 9.913 9.935 10.062 10.33 10.417 10.802 11.137 11.422 11.792 12.145 12.118 11.64 11.608 11.595 11.398 11.122 10.805 10.6 10.44 10.17 10.337 10.403 10.445 10.372 10.73 11.09 11.257 11.24 11.278 11.3 11.09 11.413 11.99 12.523 12.993 13.145 13.03 12.9 13.028 12.83 13.015 13.217 13.01 12.932 12.92 12.818 12.75 12.727 12.703 12.773 12.327 11.702 11.212 10.965 11.115 11.438 11.34 11.182 11.097 11.093 11.283 11.42 11.628 11.958 12.293 12.398 12.403 12.415 12.39 12.292 11.842 11.658 11.792 12.118 12.122 11.35 11.06 11.63 12.177 12.045 11.513 11.298 11.337 11.38 11.53 11.323 11.342 11.498 11.733 12.265 12.562 12.275 11.983 11.755 11.44 11.132 10.993 10.995 10.958 10.91 11.14 11.18 11.153 11.26 11.477 11.745 11.908 11.773 11.555 11.302 11.11 10.967 10.892 10.835 10.78 10.695 10.625 10.6 10.635 10.715 10.8 10.852 10.935 11.007 11.137 11.355 11.587 11.8 12.085 12.645 13.045 13.41 13.815 14.222 14.535 14.635 14.577 14.238 13.667 13.323 13.382 13.38 13.398 13.818 14.105 13.88 13.62 13.587 13.705 13.515 13.483 13.515 13.443 13.54 13.448 13.222 13.113 13.028 13.365 13.505 13.6 13.722 14.038 14.443 14.625 14.812 14.863 14.695 14.432 14.288 14.465 15.007
15.918 15.38 14.997 14.91 14.95 14.602 14.05 13.585 12.82 12.585 12.51 12.43 12.788 12.975 13.337 13.658 13.908 14.405 13.983 13.667 13.47 13.087 12.613 12.475 12.34 12.51 12.745 13.18 13.042 12.722 12.57 12.733 13.13 12.812 12.66 12.843 12.985 13.25 13.61 13.24 12.462 11.985 11.693 11.597 11.542 11.542 11.802 12.175 12.858 13.395 13.587 13.725 13.925 14.257 14.635 14.69 14.595 14.847 14.085 14.243 13.835 13.952 14.055 14.137 14.227 14.087 13.262 12.395 11.74 11.068 9.82 8.955 8.667 7.713 7.44 7.345 7.415 7.4 7.653 7.455 7.485 7.597 8.012 9 8.082 7.633 7.785 7.408 7.345 7.342 7.635 7.61 7.855 7.918 7.84 8.105 8.333 8.395 8.967 8.403 8.628 8.325 8.425 8.672 9.233 9.882 10.743 11.497 11.977 11.38 11.102 11.167 11.6 12.365 13 13.582 13.56 12.568 11.988 11.767 11.565 11.438 11.227 11.005 11.585 12.208 12.958 14.165 15.422 16.12 16.557 16.233 16.01 15.983 15.56 15.24 14.977 15.342 16.782 17.545 17.785 18.177 18.497 18.62 18.825 19.355 20.188 20.737 21.045 20.98 20.485 19.475 19.865 19.112 18.435 18.915 18.653 18.517 18.555 18.845 19.135 19.448 20.028 20.263 20.535 20.745 21.153 22.115 22.935 23.86 24.987 25.062 24.285 24.265 24.837 24.772 24.425 24.075 23.603 23.817 23.193 23.04 22.658 22.43 22.228 22.14 21.823 21.638 21.725 20.965 20.327 19.38 18.682 17.592 16.675 15.802 14.5 12.573 12.205 12.145 11.015 10.245 10.26 10.295 10.292 10.29 10.28 10.27 10.26 10.257 10.235 10.105 9.85 9.757 9.672 9.595 9.545 9.548 9.59 9.63 9.588 9.545 9.278 9.773 10.115 10.095 10.04 9.985 9.938 9.925 10.07 10.07 9.82 9.5 9.39 9.405 9.438 9.605 9.657 9.65 9.452 9.375 9.36 9.368 9.408 9.443 9.465 9.53 9.548 9.52 9.54 9.53 9.487 9.465 9.46 9.487 9.5 9.52 9.535 9.538 9.555 9.502 9.568 9.77 9.792 9.517 9.477 9.465 9.488 9.545 9.602 9.655 9.695 9.755 9.775 9.905 9.903 9.94 10.028 10.142 10.257 10.465 10.962 11.392 11.515 11.625 11.475 11.345 11.14 11.19 11.15 10.807 10.602 10.335 10.13 10.062 10.068 10.26 10.483 10.395 10.4 10.837 11.34 11.67 11.515 11.512 11.41 10.747 10.797 11.538 11.765 12.035 12.182 12.125 11.925 11.872 11.935 12.127 12.547 12.96 12.923 12.917 12.885 12.78 12.733 12.773 12.595 12.073 11.345 10.773 10.7 10.988 11.227 11.385 11.167 11.062 11.05 11.205 11.517 11.865 12.248 12.405 12.407 12.403 12.375 12.413 12.395 12.325 12.262 12.238 12.28 11.967 11.425 10.91 11.142 11.948 11.595 11.033 10.835 10.805 10.887 10.847 10.922 10.997 11.17 11.425 12.105 12.628 12.185 11.587 11.257 11.257 11.04 11.02 11.017 10.955 10.9 11.135 11.167 11.17 11.3 11.46 11.705 11.76 11.545 11.312 11.26 11.195 11.163 11.142 10.983 10.825 10.727 10.605 10.59 10.62 10.735 10.823 10.905 10.977 11.057 11.222 11.398 11.655 11.907 12.153 12.78 13.295 13.753 14.12 14.247 14.2 14.173 13.955 13.53 12.967 12.745 12.667 13.03 13.475 13.51 13.48 13.445 13.193 13.137 13.158 13.14 13.235 13.215 13.065 12.945 12.96 12.818 12.83 12.945 13.075 13.2 13.305 13.575 13.8 14.222 14.628 15.047 15.2 15.113 14.852 14.74 14.917 15.118
15.365 15.153 14.705 14.587 14.275 13.608 13.295 12.882 12.222 12.04 12.257 12.21 12.278 12.32 12.523 13.035 13.735 14.1 14.085 13.583 13.725 13.283 12.962 12.695 12.677 12.562 12.658 12.557 12.625 12.535 12.24 12.593 12.983 12.642 12.538 12.73 13.01 13.33 13.76 13.372 12.67 12.087 12.003 12.097 12.015 12.012 12.158 12.302 12.74 13.312 13.597 13.593 13.61 13.927 14.415 14.77 15.132 15.582 15.085 14.32 14.255 14.205 14.325 14.27 14.705 15.08 14.52 13.667 12.705 11.453 10.56 9.735 10.052 8.395 7.76 7.465 7.405 7.378 7.485 7.557 8.235 8.202 9.023 8.985 8.568 7.802 7.608 7.43 7.463 7.36 7.525 7.595 8.017 8.142 8.382 7.9 7.953 8.592 8.493 8.8 9.122 8.68 8.562 8.832 9.352 9.958 10.748 11.538 12.347 11.578 11.243 11.195 11.413 11.995 12.658 13.337 13.238 12.613 12.275 12.327 11.805 11.23 11.278 11.43 11.99 12.66 13.438 14.757 15.615 15.995 15.823 15.535 15.227 15.18 15.19 15.155 15.012 14.86 16.092 17.307 18.035 18.17 18.478 18.638 18.888 19.382 20.048 20.663 21.028 21.425 21.15 20.61 20.802 19.897 19.555 19.42 19.037 18.74 18.79 19.337 19.688 20.02 20.468 20.49 20.695 21.085 21.487 21.915 22.807 23.833 24.505 24.212 23.825 23.872 24.007 24.265 23.86 23.715 23.78 23.485 23.087 23.015 22.913 22.663 22.827 22.743 22.192 21.618 21.188 20.82 19.955 18.835 18.013 17.272 16.32 15.405 13.863 12.068 12.21 11.568 10.64 10.198 10.29 10.307 10.31 10.305 10.302 10.288 10.288 10.28 10.247 10.007 9.747 9.685 9.637 9.555 9.513 9.51 9.523 9.54 9.535 9.528 9.597 9.842 10.068 10.057 10 9.948 9.9 9.842 9.825 9.715 9.5 9.395 9.41 9.435 9.455 9.613 9.65 9.618 9.47 9.392 9.387 9.39 9.415 9.472 9.493 9.552 9.54 9.513 9.548 9.535 9.475 9.465 9.458 9.47 9.493 9.517 9.535 9.555 9.532 9.153 9.297 9.743 9.65 9.472 9.475 9.467 9.48 9.528 9.575 9.625 9.665 9.688 9.712 9.79 9.94 9.995 10.003 10.12 10.157 10.368 11.062 11.503 11.368 11.297 10.998 10.952 10.9 10.875 10.575 10.267 10.073 10.028 9.887 9.847 9.962 10.2 10.293 10.372 10.455 10.757 11.325 11.718 11.812 11.935 11.613 10.935 10.562 10.972 11.35 11.425 11.575 11.45 11.148 11.045 11.042 11.378 11.865 12.825 12.962 12.91 12.913 13.052 12.943 12.708 12.305 11.875 11.247 10.722 10.82 11.08 11.24 11.17 10.875 10.865 11 11.085 11.5 11.882 12.3 12.39 12.372 12.368 12.36 12.37 12.395 12.385 12.342 12.318 12.337 12.285 11.625 11.432 11.355 11.927 11.307 10.845 10.733 10.747 10.843 10.86 10.863 10.98 11.16 11.503 12.057 12.538 12.37 11.648 11.21 11.15 11.028 10.98 11.01 10.927 10.858 11.105 11.193 11.188 11.28 11.4 11.49 11.535 11.358 11.22 11.387 11.547 11.53 11.377 11.15 10.94 10.733 10.618 10.613 10.677 10.795 10.86 10.932 11.035 11.073 11.21 11.448 11.725 11.993 12.25 12.815 13.4 13.952 14.455 14.698 14.698 14.368 13.715 12.955 12.275 12.16 12.477 12.95 12.96 12.905 12.882 12.823 12.783 12.71 12.515 12.443 12.785 12.845 12.677 12.628 12.533 12.517 12.632 12.877 12.845 12.842 12.97 13.243 13.547 13.995 14.507 14.96 15.267 15.355 15.423 15.365 15.693 15.682
14.738 13.95 13.903 13.858 13.525 12.83 12.432 12.125 11.967 12.01 11.845 12.195 11.968 11.847 11.905 12.3 12.517 12.752 13.01 13.427 13.925 14.177 13.577 13.122 13.052 12.615 11.833 11.618 11.528 11.613 11.483 11.507 12.003 12.315 12.19 12.155 12.515 12.75 13.07 13.523 12.882 12.573 12.573 12.905 12.905 12.74 12.628 12.54 12.975 13.67 13.717 13.423 13.462 13.773 14.27 14.712 15.14 15.495 15.167 15 15.585 14.435 14.14 14.57 15.358 15.605 15.097 14.23 13.093 12.2 11.212 10.43 9.73 9.295 9.208 7.798 7.8 7.878 7.69 8.04 7.903 9.375 8.735 8.155 8.035 7.59 7.702 7.39 7.443 7.392 7.427 7.93 8.137 8.075 8.257 8.207 7.975 8.055 8.483 9.267 9.597 9.423 8.882 9.012 9.785 10.132 10.727 11.733 12.09 12.042 11.795 11.325 11.415 11.71 12.32 13.075 13.403 12.86 12.47 12.352 12.1 11.932 12.045 12.14 12.66 13.328 13.958 15.002 15.352 15.408 15.025 14.79 14.67 14.665 15.295 15.472 15.09 14.825 15.372 16.423 17.958 18.708 19.118 19.432 19.432 19.57 20.087 20.59 21.24 21.993 22.263 22.06 21.722 20.802 19.885 19.77 19.662 20.085 19.56 19.76 20.44 20.76 21.25 21.243 20.98 21.3 21.615 22.255 23.312 23.83 23.97 23.778 24.097 23.673 23.597 23.722 23.443 23.42 23.403 23.115 23.033 23.02 22.91 22.805 22.792 22.505 21.76 21.243 20.892 20.51 19.625 18.628 17.667 16.708 15.677 14.788 13.048 11.842 12.093 10.948 10.34 10.175 10.305 10.323 10.327 10.318 10.312 10.302 10.305 10.295 10.217 9.89 9.708 9.68 9.677 9.555 9.523 9.538 9.55 9.515 9.503 9.498 9.58 9.695 9.892 9.965 9.935 9.855 9.753 9.655 9.552 9.44 9.42 9.425 9.453 9.483 9.507 9.622 9.615 9.658 9.503 9.427 9.427 9.45 9.452 9.477 9.52 9.545 9.515 9.513 9.52 9.503 9.468 9.458 9.435 9.435 9.458 9.475 9.505 9.525 9.588 9.365 9.467 9.735 9.515 9.422 9.42 9.438 9.467 9.48 9.535 9.565 9.6 9.673 9.775 9.82 9.735 9.828 10.068 10.055 10.195 10.358 10.975 11.307 11.12 10.99 10.625 10.62 10.51 10.3 10.102 10.033 9.995 9.923 9.9 9.892 9.977 10.182 10.365 10.475 10.562 10.75 11.365 11.815 12.262 12.455 11.99 11.505 11.278 11.195 11.18 11.22 11.145 10.773 10.443 10.6 10.682 11.385 11.92 12.66 13.182 13.073 12.602 12.783 12.762 12.528 12.305 12.055 11.595 11.165 11.305 11.43 11.205 10.892 10.592 10.762 10.852 11.038 11.195 11.665 12.028 12.27 12.315 12.318 12.333 12.375 12.372 12.352 12.347 12.33 12.3 12.318 12.173 11.655 11.382 11.58 11.155 10.81 10.825 10.818 10.825 10.875 10.943 11.002 11.198 11.688 12.338 12.502 12.193 11.565 11.188 11.148 11.003 10.968 10.997 10.905 10.825 11.05 11.195 11.205 11.273 11.465 11.593 11.615 11.278 11.182 11.398 11.61 11.672 11.533 11.315 11.07 10.812 10.655 10.663 10.715 10.815 10.915 10.993 11.04 11.113 11.247 11.368 11.757 12.325 12.658 12.84 13.36 13.847 14.44 14.807 14.818 14.432 13.57 12.613 11.795 11.87 12.193 12.233 12.215 12.12 12.17 12.19 12.2 12.203 12.102 11.993 12.165 12.622 12.328 12.352 12.3 12.523 12.42 12.663 12.618 12.485 12.64 12.88 13.335 13.9 14.358 14.712 14.948 15.075 15.278 15.422 15.632 15.965
13.6 13.045 13.115 13.54 13.252 12.622 11.858 11.47 11.815 11.962 11.517 11.278 11.252 11.363 11.392 11.413 11.39 11.802 12.25 12.738 12.852 13.23 13.515 13.023 12.95 12.673 11.922 10.807 10.665 10.65 10.585 10.465 10.778 11.1 11.38 11.55 11.783 12.075 12.568 13.227 13.347 13.398 13.355 13.243 13.095 12.887 12.628 12.762 13.273 13.667 13.523 13.462 13.583 13.622 14.023 14.708 15.292 15.49 15.337 14.955 15.265 14.76 14.538 14.318 14.555 14.94 14.968 15.188 14.043 12.92 12.203 11.257 10.312 9.207 8.488 7.96 8.168 8.46 7.42 7.707 7.963 8.677 8.445 8.09 8.177 7.78 7.492 7.633 8.873 8.372 7.477 7.57 7.648 7.838 8.078 7.965 7.82 7.943 8.093 8.545 9.44 9.475 8.91 8.938 9.865 9.955 10.747 11.547 12.062 12.062 12.11 11.542 11.45 11.552 11.935 13.243 13.863 13.185 12.825 12.638 12.543 12.645 12.765 12.892 13.245 13.792 14.575 14.98 15.14 14.925 14.72 14.462 14.333 14.538 15.118 15.222 14.977 14.61 14.835 15.595 16.49 17.927 19.208 19.472 19.545 19.568 20.005 20.645 21.548 21.923 21.837 22.097 22.298 22.13 21.467 20.997 20.89 20.987 20.892 21.042 21.423 21.818 22.157 22.26 21.72 21.79 22.158 22.843 23.397 23.83 23.835 23.965 24.16 23.498 23.057 22.995 22.983 22.945 22.79 22.833 22.84 23.007 23.182 22.683 22.517 22.237 21.483 20.943 20.308 19.735 19.06 18.108 17.058 16.18 14.988 14.095 12.28 11.753 11.8 10.705 10.257 10.165 10.278 10.315 10.33 10.318 10.325 10.32 10.318 10.298 10.175 9.84 9.74 9.747 9.707 9.573 9.52 9.517 9.543 9.523 9.483 9.477 9.53 9.497 9.58 9.695 9.718 9.655 9.57 9.488 9.435 9.425 9.423 9.438 9.465 9.503 9.533 9.628 9.575 9.663 9.535 9.472 9.445 9.46 9.475 9.48 9.528 9.528 9.505 9.517 9.507 9.497 9.493 9.455 9.408 9.398 9.42 9.448 9.452 9.438 9.595 9.795 9.75 9.597 9.435 9.413 9.43 9.443 9.483 9.54 9.545 9.565 9.648 9.658 9.778 9.907 9.733 9.76 9.993 10.085 10.123 10.3 10.925 11.275 11.062 10.783 10.535 10.548 10.382 10.32 10.135 10.04 9.948 9.882 9.847 9.94 10.208 10.345 10.58 10.682 10.932 11.038 11.472 11.913 12.525 12.892 12.562 12.237 11.955 11.677 11.503 11.432 10.887 10.427 10.22 10.415 10.785 11.3 11.85 12.325 12.945 13.073 12.565 12.655 12.67 12.698 12.6 12.222 11.858 11.94 12.025 11.875 11.307 10.855 10.71 10.685 10.8 11.325 11.142 11.22 11.703 11.96 12.193 12.27 12.315 12.312 12.338 12.347 12.325 12.295 12.295 12.27 12.13 11.592 11.158 11.003 10.923 10.852 10.812 10.795 10.81 10.898 10.962 11.017 11.21 11.858 12.405 12.625 12.087 11.333 11.167 11.233 11.17 11.012 10.995 10.87 10.812 11.055 11.18 11.233 11.497 11.755 11.875 11.935 11.488 11.145 11.347 11.583 11.645 11.555 11.39 11.122 10.85 10.71 10.682 10.773 10.872 10.92 10.962 11.028 11.108 11.035 11.212 11.953 12.77 13.198 13.195 13.835 13.94 14.108 14.465 14.493 14.123 13.392 12.145 11.533 11.548 11.533 11.41 11.405 11.415 11.443 11.45 11.515 11.625 11.632 11.645 11.745 11.972 11.952 11.727 11.917 12.078 12.173 12.267 12.158 12.115 12.31 12.668 13.177 13.653 14.097 14.455 14.495 14.552 14.68 14.865 15.045 15.283
12.195 12.148 12.163 12.235 11.948 11.568 11.115 10.833 11.06 11.173 11.245 10.733 10.718 10.805 10.565 10.503 10.693 11.135 11.288 11.4 11.695 12.075 12.422 12.503 12.705 12.023 11.04 10.3 9.965 9.765 9.77 9.798 9.932 10.273 10.608 10.967 11.262 11.545 12.047 12.685 13.145 13.51 13.722 13.63 13.39 12.75 12.552 12.79 13.323 13.385 12.94 12.975 13.247 13.41 13.67 14.99 15.615 15.595 15.25 14.988 14.83 14.535 14.323 14.302 14.22 14.573 15.132 15.833 15.062 13.373 12.608 11.85 10.74 9.592 8.722 8.39 8.495 8.705 7.477 7.592 7.762 7.987 8.32 8.025 8.023 7.573 7.675 8.637 10.26 12.225 9.868 7.725 7.633 9.738 9.105 8.08 7.945 7.838 8.017 8.805 9.56 9.36 9.025 8.717 9.38 9.46 9.63 10.762 11.045 11.438 12.02 11.655 11.41 11.625 11.828 12.273 13.097 13.327 13.215 12.98 12.795 12.773 12.99 13.193 13.663 14.302 15.055 15.507 15.9 15.797 15.318 14.925 14.62 14.69 14.972 14.908 14.775 14.43 14.45 14.773 15.733 16.755 17.76 18.248 18.2 18.423 19.045 19.628 20.26 20.677 20.892 21.193 22.228 22.905 22.882 22.773 22.737 22.74 22.408 22.288 22.267 22.847 23.443 23.278 23.03 22.99 22.655 22.868 23.093 23.312 23.542 23.767 23.888 23.24 22.41 22.36 22.608 22.615 22.347 22.44 22.502 22.522 22.862 22.403 22.22 21.983 21.585 20.468 19.56 19.11 18.642 17.235 16.138 15.182 14.305 13.382 11.903 11.682 11.417 10.71 10.255 10.175 10.122 10.145 10.18 10.215 10.247 10.273 10.288 10.28 10.06 9.81 9.765 9.753 9.672 9.59 9.535 9.513 9.5 9.48 9.467 9.472 9.46 9.413 9.413 9.455 9.493 9.48 9.455 9.465 9.465 9.46 9.458 9.455 9.485 9.503 9.52 9.625 9.61 9.7 9.585 9.507 9.497 9.49 9.485 9.5 9.542 9.515 9.495 9.505 9.505 9.497 9.493 9.458 9.405 9.39 9.4 9.415 9.417 9.415 9.483 9.578 9.505 9.445 9.398 9.395 9.413 9.438 9.455 9.507 9.575 9.62 9.653 9.705 10.05 9.79 9.717 9.74 9.935 10 10.113 10.26 10.81 11.09 10.852 10.605 10.54 10.53 10.475 10.387 10.257 10.085 9.952 9.967 10.042 10.255 10.468 10.618 10.903 11.075 11.172 11.427 11.702 12.128 12.583 13.193 13.075 12.923 12.7 12.122 11.62 11.467 10.943 10.552 10.562 10.78 10.922 11.507 11.885 12.452 12.925 12.835 12.605 12.637 12.637 12.738 12.757 12.688 12.568 12.395 12.305 12.245 11.51 10.913 10.788 10.8 10.903 11.358 11.55 11.105 11.267 11.74 12.07 12.19 12.262 12.29 12.312 12.295 12.295 12.283 12.25 12.255 12.247 11.77 11.11 10.783 10.835 10.818 10.74 10.783 10.81 10.85 10.907 11.043 11.217 11.805 12.472 12.62 11.985 11.302 11.222 11.37 11.337 11.102 10.993 10.882 10.812 11.055 11.188 11.333 11.628 11.863 11.948 11.8 11.408 11.097 11.25 11.477 11.515 11.475 11.34 11.042 10.85 10.778 10.8 10.845 10.887 10.948 10.993 11.012 10.875 10.255 10.863 12.185 12.985 13.343 13.358 13.74 14 13.903 14.08 14.137 13.88 13.198 12.023 11.323 11.305 11.262 11.295 11.305 11.298 11.302 11.3 11.31 11.31 11.318 11.37 11.208 11.253 11.238 11.238 11.358 11.443 11.573 11.708 11.738 11.653 11.908 12.435 12.98 13.485 13.855 14.12 14.08 14.042 14.082 14.247 14.4 14.583
10.72 10.98 11.195 11.163 10.667 10.315 10.113 10.085 9.997 10.405 9.967 9.555 9.722 9.807 9.613 9.658 9.79 10.312 10.495 10.583 10.557 10.82 11.137 11.6 11.948 11.445 10.608 9.91 9.585 9.495 9.247 9.315 9.368 9.62 9.965 10.358 10.75 11.132 11.752 12.21 12.403 12.863 13.255 13.398 12.96 12.505 12.645 12.908 13.392 13.413 12.905 13.055 13.405 13.26 13.538 14.64 15.663 15.255 15.71 15.757 15.408 14.523 14.21 14.368 14.45 14.688 15.423 15.975 15.278 14.68 13.438 12.438 11.443 10.565 9.532 8.785 8.073 8.415 7.577 7.918 7.883 8.252 8.512 8.017 7.823 8.315 8.188 9.265 10.958 14.552 8.108 7.523 7.57 8.06 9.19 8.35 7.945 7.812 7.983 8.472 9.198 9.507 8.875 8.405 9.297 9.075 8.638 9.188 9.57 10.438 10.87 11.077 11.455 11.802 11.882 12.24 12.775 13.015 13.485 13.745 13.467 13.385 13.408 13.605 14.24 14.993 15.423 15.855 16.13 16.24 16.175 15.86 15.37 15.017 14.693 14.672 14.815 14.868 14.717 14.755 15.335 15.97 16.855 17.09 17.073 17.395 18.278 18.538 18.92 19.698 20.177 20.86 22.095 22.927 23.58 23.618 23.59 23.767 24.077 23.747 23.255 23.298 23.37 23.17 23.167 22.425 21.772 21.75 22.085 22.448 22.935 23.52 23.688 22.93 22.29 22.275 22.413 22.263 22.09 22.177 22.153 22.26 22.483 22.033 21.99 21.835 21.688 20.185 19.182 18.663 17.583 16.228 15.27 14.24 13.375 12.62 11.69 11.452 11.15 10.693 10.378 10.163 10.095 10.1 10.083 10.05 10.035 10.052 10.07 10.065 9.905 9.792 9.735 9.725 9.682 9.622 9.573 9.545 9.535 9.515 9.497 9.465 9.427 9.448 9.44 9.465 9.452 9.44 9.448 9.462 9.495 9.5 9.51 9.493 9.493 9.48 9.5 9.63 9.688 9.725 9.608 9.528 9.488 9.487 9.475 9.538 9.552 9.5 9.493 9.475 9.475 9.47 9.483 9.452 9.417 9.403 9.4 9.392 9.398 9.405 9.413 9.443 9.442 9.427 9.387 9.392 9.413 9.452 9.467 9.54 9.552 9.56 9.64 9.743 10.225 10.27 9.95 9.87 9.932 10.02 10.148 10.375 10.79 10.86 10.548 10.475 10.502 10.582 10.71 10.797 10.535 10.25 10.167 10.158 10.2 10.422 10.735 10.975 11.2 11.35 11.525 11.823 12.135 12.472 12.712 12.873 13.05 13.03 12.983 12.487 11.96 11.785 11.355 10.927 10.785 10.952 11.31 11.885 12.29 12.645 12.802 12.56 12.403 12.5 12.525 12.827 12.98 13.193 12.99 12.74 12.515 12.382 11.538 10.988 10.905 10.913 11.153 11.688 11.585 11.21 11.165 11.278 11.71 12.078 12.21 12.267 12.288 12.308 12.265 12.253 12.235 12.28 12.472 11.613 11.075 10.855 10.753 10.778 10.76 10.79 10.812 10.858 10.945 11.03 11.257 11.89 12.498 12.493 11.855 11.392 11.358 11.413 11.382 11.238 11.028 10.912 10.88 11.097 11.148 11.377 11.653 11.845 11.807 11.48 11.165 10.993 11.137 11.265 11.177 11.182 11.097 10.9 10.903 10.878 10.85 10.87 10.92 10.94 10.99 10.998 10.632 9.98 11.005 12.193 12.983 13.298 13.215 13.688 13.93 13.995 13.852 13.833 13.583 13.057 12.188 11.257 11.185 11.262 11.312 11.31 11.308 11.292 11.305 11.312 11.292 11.27 11.243 10.91 10.913 11.007 11.015 11.02 11.028 11.073 11.132 11.177 11.337 11.725 12.305 12.788 13.21 13.32 13.45 13.408 13.555 13.745 13.913 14.015 14.182
9.762 10.113 10.53 10.355 9.953 9.757 9.4 9.26 9.017 8.938 8.672 8.557 8.602 8.627 8.795 9.132 9.222 9.645 9.785 9.658 9.545 9.812 10.238 10.613 10.703 10.505 10.025 9.51 9.205 9.108 8.952 8.878 8.79 8.87 9.39 9.8 10.275 10.825 11.415 11.86 12.095 12.292 12.807 13.11 12.875 12.622 12.682 13.208 13.86 13.952 13.693 13.767 13.898 13.932 13.913 15.245 15.903 15.78 16.452 16.432 15.488 15 14.645 14.735 14.78 15.042 15.385 15.872 15.735 15.182 13.782 12.972 12.305 11.733 10.52 10.08 8.87 8.307 7.93 8.443 8.472 8.448 8.56 7.885 7.668 8.07 8.16 9.265 9.995 8.988 7.713 7.488 7.557 8.403 8.387 8.363 8.16 7.92 7.885 8.185 9.43 9.795 8.305 8.283 8.278 8.488 8.495 8.555 9.663 9.795 10.08 10.503 11.212 11.855 12.087 12.275 12.68 13.017 13.43 14.07 14.175 14.145 14.247 14.458 15.095 15.77 16.237 16.62 16.907 16.667 16.55 16.31 15.89 15.595 15.04 14.695 14.605 15.212 15.293 15.033 15.038 15.413 16.09 16.673 16.417 16.59 16.94 17.24 17.978 18.757 19.507 20.443 21.51 22.658 23.75 24.105 23.995 24.29 24.285 23.743 23.202 22.888 22.97 22.7 22.772 21.805 21.382 21.597 21.888 22.115 22.632 23.237 23.595 22.995 22.385 22.372 22.362 22.18 22.087 22.032 22.057 22.073 21.84 21.663 21.733 21.618 21.528 20.038 18.753 18.042 16.495 15.435 14.415 13.542 12.805 12.22 11.562 11.275 11.087 10.837 10.34 10.175 10.12 10.07 10.038 9.997 9.988 9.938 9.882 9.855 9.798 9.76 9.688 9.65 9.63 9.587 9.58 9.595 9.56 9.565 9.54 9.477 9.438 9.445 9.475 9.493 9.51 9.462 9.417 9.432 9.48 9.485 9.503 9.538 9.477 9.442 9.46 9.625 9.72 9.76 9.612 9.5 9.472 9.475 9.472 9.54 9.53 9.465 9.483 9.46 9.483 9.475 9.477 9.438 9.43 9.42 9.398 9.375 9.38 9.4 9.415 9.42 9.422 9.42 9.398 9.39 9.41 9.425 9.427 9.502 9.543 9.605 9.618 9.738 9.882 9.977 10.085 9.943 10.042 10.113 10.118 10.318 10.665 10.702 10.483 10.608 10.73 10.892 11.105 11.285 11.235 10.998 10.672 10.587 10.653 10.882 11.188 11.355 11.515 11.7 11.863 12.325 12.882 12.91 12.962 12.765 12.823 12.8 12.868 12.642 12.438 12.135 11.688 11.332 11.358 11.578 11.948 12.61 12.882 12.665 12.502 12.323 12.148 12.375 12.597 12.82 13.31 13.528 13.59 13.337 12.903 12.59 11.935 11.4 11.337 11.38 11.632 11.767 11.658 11.328 10.93 11.102 11.327 11.712 12.075 12.23 12.247 12.257 12.255 12.238 12.233 12.613 12.585 11.408 10.953 10.935 10.778 10.667 10.757 10.785 10.9 10.925 10.945 11.05 11.455 12.155 12.747 12.337 11.792 11.385 11.378 11.358 11.273 11.2 11.062 10.948 10.967 11.142 11.185 11.435 11.627 11.693 11.562 11.27 10.967 10.892 11.015 11.062 10.962 10.892 10.858 10.87 10.835 10.828 10.847 10.87 10.9 10.952 11.03 10.953 10.408 10.007 11.238 12.118 12.672 12.903 12.953 13.255 13.495 13.903 13.985 13.823 13.458 13.017 12.298 11.417 11.15 11.27 11.318 11.3 11.295 11.3 11.302 11.312 11.302 11.292 11.26 10.88 10.78 10.875 10.86 10.837 10.863 10.882 10.91 10.957 11.113 11.443 12.012 12.562 12.81 12.932 13.035 13.145 13.34 13.472 13.695 13.802 13.812
9.36 9.81 10.203 9.68 9.142 8.667 8.663 8.465 8.24 7.8 7.602 7.595 7.617 7.715 8.128 8.362 8.802 9.153 9.302 9.163 9.085 9.285 9.368 9.495 9.477 9.27 9.1 9.015 8.863 8.597 8.495 8.432 8.227 8.217 8.783 9.328 9.97 10.608 11.302 11.655 11.79 12.017 12.35 12.752 13.038 12.733 12.885 13.655 14.132 14.92 15.47 15.158 15.118 15.315 14.995 15.51 15.868 16.062 16.59 16.865 16.58 15.615 15.315 15.1 14.993 14.788 14.98 15.347 15.382 15.493 14.545 13.698 12.55 11.865 11.737 10.745 9.775 9.243 8.535 8.573 8.63 8.417 8.195 7.843 8.255 7.675 8.552 8.74 7.53 7.463 7.415 7.51 7.512 7.78 8.75 8.745 8.528 8.06 7.918 7.995 8.488 9.427 8.512 8.613 8.485 8.347 8.315 8.533 8.738 9.21 9.69 10.233 11.208 11.675 12.012 12.475 12.62 13.387 13.773 14.17 14.43 14.705 15.222 15.782 16.142 16.365 16.892 17.528 18.177 18.163 17.153 16.823 16.54 16.43 16.048 15.622 15.055 15.07 15.4 15.53 15.547 15.73 16.038 16.358 16.283 16.23 16.483 16.92 17.61 18.372 19.09 20.15 21.147 22.188 23.41 23.97 24.337 24.465 23.943 23.24 22.76 21.807 21.925 22.368 22.33 21.698 21.525 21.767 21.56 21.7 22.325 22.965 23.35 22.7 22.29 22.32 22.358 22.18 22.057 22.033 22.185 22.335 21.997 21.708 21.445 21.112 20.57 19.363 18.1 17.198 15.945 14.935 14.195 13.387 12.505 11.95 11.477 11.24 11.002 10.693 10.335 10.193 10.128 10.055 10.02 9.967 9.91 9.89 9.87 9.807 9.753 9.693 9.648 9.613 9.62 9.608 9.585 9.6 9.618 9.615 9.562 9.515 9.46 9.438 9.458 9.503 9.517 9.48 9.443 9.448 9.47 9.477 9.493 9.475 9.435 9.432 9.452 9.605 9.745 9.773 9.615 9.495 9.465 9.42 9.372 9.435 9.43 9.455 9.467 9.472 9.48 9.47 9.455 9.452 9.458 9.448 9.425 9.392 9.365 9.38 9.398 9.415 9.43 9.43 9.415 9.405 9.422 9.448 9.452 9.512 9.557 9.64 9.637 9.71 9.985 9.965 10.038 9.993 10.077 10.173 10.167 10.273 10.59 10.627 10.592 10.79 11.015 11.148 11.307 11.51 11.72 11.672 11.495 11.483 11.618 11.512 11.632 11.653 11.755 11.95 12.25 12.84 13.302 13.225 13.185 12.99 12.613 12.682 12.765 12.785 12.827 12.632 12.137 12.04 12.055 12.28 12.562 12.862 12.618 12.39 12.167 12.158 12.193 12.342 12.507 12.5 13.12 13.105 13.495 13.773 13.398 13.092 12.422 11.892 11.8 11.965 11.775 11.585 11.305 11.017 10.715 10.96 11.295 11.475 11.875 12.105 12.193 12.247 12.23 12.305 12.41 12.622 12.655 11.61 11.043 10.952 10.82 10.722 10.745 10.815 10.907 10.917 11.023 11.288 11.765 12.51 12.99 12.435 11.648 11.273 11.302 11.28 11.2 11.097 11 10.965 11.017 11.132 11.24 11.462 11.565 11.493 11.302 11.07 10.82 10.788 10.828 10.812 10.833 10.775 10.763 10.76 10.78 10.798 10.818 10.863 10.895 10.955 11.003 10.762 10.175 10.16 11.233 11.868 12.297 12.493 12.66 12.917 13.068 13.465 13.773 13.962 13.375 12.778 12.273 11.54 11.163 11.257 11.302 11.292 11.292 11.298 11.305 11.308 11.3 11.288 11.295 11.1 10.72 10.74 10.795 10.83 10.858 10.855 10.83 10.877 10.965 11.153 11.585 12.235 12.54 12.682 12.852 12.913 13.135 13.253 13.413 13.485 13.458
9.305 9.352 9.655 8.995 8.335 7.99 7.915 7.685 7.358 6.977 7.073 6.993 6.95 7.115 7.447 7.953 8.64 8.995 9.29 8.935 8.635 8.483 8.552 8.46 8.065 7.98 8.07 8.087 8.167 8.15 8.097 8.01 7.83 7.887 8.312 9.068 10.4 10.757 11.4 11.54 11.773 11.95 12.435 12.788 12.78 12.927 13.32 13.735 14.845 15.958 16.97 16.442 16.132 15.82 15.685 15.27 16.02 16.365 16.728 16.835 16.997 16.415 15.703 15.225 14.785 14.72 14.828 15.108 15.035 15.757 14.3 13.35 12.802 12.37 12.542 11.485 10.285 9.515 8.925 9.115 8.632 8.8 8.698 8.275 8.227 8.375 7.96 7.72 7.47 7.463 7.812 7.758 7.688 8.543 9.92 8.74 8.582 8.15 8.083 8.648 9.892 8.967 8.95 9.137 8.705 8.552 8.638 8.805 8.705 9.085 9.667 10.285 11.435 11.858 12.15 12.665 13.03 13.453 14.108 14.26 14.618 14.905 15.347 16.062 16.42 16.667 17.23 18.062 18.91 19 17.665 17.42 17.718 17.653 17.228 16.612 16.388 16.29 15.955 15.887 16.025 16.145 16.528 16.73 16.717 16.575 16.573 16.9 17.345 18.025 18.688 19.612 20.51 21.673 22.805 23.767 24.077 24.54 23.903 23.192 22.59 22.017 22.19 22.817 22.892 22.485 22.625 22.338 21.442 21.612 22.028 22.542 22.72 22.115 21.885 22.302 22.403 22.077 21.87 21.972 22.448 22.325 21.91 21.325 21.07 20.927 19.985 18.972 17.905 16.647 15.552 14.413 13.725 13 12.243 11.775 11.347 11.055 10.98 10.59 10.33 10.215 10.118 10.052 10.017 9.938 9.865 9.847 9.863 9.805 9.743 9.667 9.628 9.618 9.613 9.618 9.6 9.575 9.583 9.585 9.573 9.548 9.505 9.48 9.47 9.493 9.462 9.467 9.462 9.475 9.48 9.5 9.457 9.417 9.423 9.435 9.458 9.622 9.73 9.765 9.568 9.285 9.3 9.34 9.533 9.592 9.5 9.472 9.458 9.458 9.462 9.455 9.455 9.46 9.472 9.475 9.44 9.398 9.385 9.38 9.39 9.407 9.395 9.403 9.392 9.405 9.417 9.452 9.47 9.52 9.557 9.65 9.72 9.815 9.938 9.955 9.972 9.965 10.025 10.078 10.358 10.465 10.528 10.61 10.87 11.028 11.145 11.233 11.34 11.495 11.745 11.9 12.05 12.135 12.108 12.01 11.958 11.965 12.05 12.257 12.695 13.135 13.163 13.278 13.193 13.003 12.55 12.605 12.773 12.82 12.872 12.94 12.802 12.727 12.68 12.648 12.622 12.823 12.465 12.153 12.078 12.17 12.425 12.52 12.703 12.57 12.892 13.017 13.453 13.762 13.405 13.24 12.53 12.095 12.257 11.962 11.475 11.12 10.93 10.842 10.54 10.653 10.957 11.065 11.305 11.77 12.102 12.195 12.352 12.452 12.455 12.6 12.49 11.217 10.995 10.932 10.837 10.815 10.765 10.807 10.977 11.025 11.235 11.655 12.405 12.872 12.913 12.08 11.505 11.155 11.315 11.315 11.173 11.017 10.985 10.95 11.068 11.235 11.333 11.417 11.443 11.352 11.118 10.925 10.773 10.722 10.743 10.767 10.788 10.717 10.695 10.718 10.735 10.743 10.745 10.837 10.925 10.97 10.972 10.602 10 10.3 11.15 11.413 11.733 11.88 12.19 12.47 12.752 12.945 13.358 13.513 13.158 12.605 12.04 11.547 11.14 11.27 11.305 11.292 11.295 11.305 11.308 11.308 11.31 11.288 11.3 11.225 10.677 10.693 10.785 10.805 10.82 10.818 10.815 10.835 10.895 11.01 11.267 11.69 12.052 12.278 12.535 12.702 12.792 12.892 12.955 13.065 13.12
