ncols 500
nrows 31
xllcorner    246000
yllcorner    134102
cellsize     2
NODATA_value -9999
10.275 10.195 9.972 9.945 10.003 10.167 10.087 9.917 9.877 9.91 9.875 10.02 9.997 9.988 10.285 11.148 11.38 11.673 12.007 11.87 11.372 10.7 10.262 10.247 10.378 10.595 10.52 11.355 11.57 11.398 11.673 12.215 11.837 11.42 12.235 11.887 11.805 12.193 12.422 11.793 11.455 11.682 11.905 12.122 11.755 11.425 11.635 11.74 11.73 11.738 11.5 11.72 11.908 11.515 11.125 10.945 10.57 12.453 11.47 10.597 11.542 11.815 11.795 11.945 12.07 11.67 11.963 11.275 11.125 10.292 10.29 10.628 10.14 9.798 9.635 9.543 9.513 9.562 9.495 9.483 9.495 9.498 9.515 9.545 9.577 9.573 9.592 9.58 9.595 9.64 9.625 9.667 9.77 9.86 9.868 9.927 10.195 10.547 10.868 11.145 11.597 11.887 11.882 11.793 11.47 11.337 11.297 11.267 10.915 10.665 10.432 10.503 10.677 11.087 11.432 11.493 11.805 11.597 11.74 12.125 12.568 12.593 12.562 12.29 13.19 13.948 14.255 13.56 13.007 12.453 12.465 11.38 10.785 11.19 12.19 12.66 12.318 12.055 11.868 11.593 11.562 11.378 11.41 11.765 12.04 12.07 11.967 11.757 11.525 11.283 10.95 10.345 9.938 9.668 9.347 9.22 9.307 9.52 9.64 10.175 10.55 11.208 11.773 11.983 12.573 12.885 12.708 12.148 12.057 12.07 12.012 11.833 11.385 11.253 11.337 11.278 11.04 11.052 11.085 11.162 11.193 11.155 11.097 10.845 10.485 10.158 9.962 9.865 9.9 9.977 9.97 10.137 10.233 10.032 9.667 9.56 9.568 9.54 9.61 9.493 9.7 9.605 9.842 10.025 9.96 9.918 10.047 10.012 9.977 9.932 9.948 10.203 10.592 10.993 11.305 11.507 11.455 11.352 11.285 11.227 11.11 10.948 10.605 10.403 10.477 10.515 10.54 10.61 9.548 9.533 9.257 8.94 9.26 9.533 8.71 8.9 9.805 9.825 8.993 8.7 8.887 9.273 9.957 10.14 10.565 9.938 9.873 9.4 9.245 9.347 9.608 9.967 10.682 11.302 12.655 11.635 11.637 10.568 9.595 9.205 9.042 8.913 8.833 8.785 8.69 8.432 8.203 8.1 8.033 8.025 8.017 8.025 8.028 8.028 7.983 7.938 7.908 7.95 7.99 7.955 7.91 7.97 8.04 8.14 8.163 8.1 8.015 7.955 7.92 7.885 7.802 7.753 7.7 7.658 7.595 7.53 7.477 7.435 7.405 7.378 7.36 7.332 7.258 7.202 7.2 7.325 7.573 7.46 7.27 7.137 7.11 7.095 7.092 7.088 7.105 7.097 7.115 7.068 7.04 6.97 6.9 6.825 6.778 6.727 6.668 6.577 6.525 6.465 6.418 6.363 6.325 6.295 6.265 6.225 6.148 6.108 6.077 6.065 6.005 5.992 5.97 5.925 5.89 5.878 5.845 5.82 5.9 6.305 6.76 6.5 6.113 6.438 7.62 6.75 5.637 5.01 5.345 5.432 5.438 5.427 5.42 5.32 5.213 5.165 5.11 5.062 4.995 4.98 4.962 4.938 4.88 4.898 4.88 4.843 4.805 4.795 4.753 4.745 4.76 4.68 4.16 3.777 4.327 4.873 5.305 5.11 4.385 4.39 4.382 4.363 4.363 4.347 4.332 4.283 4.25 4.22 4.188 4.168 4.148 4.122 4.108 4.08 4.043 4.035 4.035 4.033 3.99 3.985 3.985 3.957 3.94 3.96 3.945 3.93 3.9 3.878 3.87 3.855 3.835 3.82 3.8 3.797 3.807 3.777 3.755 3.745 3.74 3.737 3.725 3.72 3.725 3.727 3.71 3.707 3.697 3.658 3.64 3.688 3.673 3.678 3.663 3.65 3.655 3.665 3.62 3.612 3.61 3.635 3.625 3.635 3.59 3.59 3.567 3.587 3.612 3.625 3.56 3.562 3.612 3.59 3.543 3.617 3.648 3.625 3.64 3.65 3.582 3.453 3.588 3.645 3.65 3.622 3.625 3.592 3.602 3.653 3.633 3.438 3.503 3.575 3.645 3.665 3.555 3.475 3.585 3.638 3.645 3.54 3.465 3.615 3.695 3.7 3.68 3.658 3.63 3.655 3.653 3.602 3.443 3.523
10.132 10.12 10.052 10.142 10.222 10.205 10.087 10 10.038 10.012 9.988 9.877 9.9 9.913 9.858 10.315 10.507 11.243 11.583 11.695 11.085 11.035 10.562 10.435 11.288 11.885 11.417 11.895 11.875 11.905 11.163 11.177 11.26 12.23 11.985 12.04 12.015 11.63 11.762 11.932 11.568 11.738 11.122 11.892 10.908 11.062 11.28 11.273 11.512 12.012 11.717 12.22 11.812 11.927 12.398 11.75 11.67 11.403 10.462 10.637 11.635 11.938 11.193 11.202 11.407 10.62 10.625 10.757 10.943 10.503 10.898 10.868 10.757 10.125 9.852 9.717 9.602 9.6 9.545 9.552 9.548 9.49 9.46 9.467 9.48 9.523 9.528 9.557 9.525 9.535 9.528 9.547 9.613 9.667 9.802 9.82 10.007 10.148 10.52 10.932 11.295 11.52 11.693 11.477 11.062 10.895 10.958 11.007 10.56 10.352 10.32 10.505 10.92 11.392 11.337 11.573 11.54 11.335 11.565 11.64 11.72 11.525 11.472 11.835 12.715 13.63 13.685 13.515 13.23 12.82 12.528 11.985 11.052 10.908 11.015 11.467 10.965 10.677 10.858 10.712 10.467 10.34 10.483 10.592 10.698 10.95 10.75 10.658 10.505 10.305 9.935 9.33 9.3 9.163 9.13 9.045 9.145 9.347 9.855 10.135 10.278 10.917 11.137 11.605 12.29 12.523 12.275 12.01 12.23 12.3 12.167 11.637 11.37 11.413 11.368 11.302 11.163 11.333 11.115 11.122 11.172 11.125 10.995 10.7 10.392 10.052 10 9.952 9.91 9.87 9.87 9.938 9.935 9.645 9.515 9.535 9.505 9.53 9.63 9.54 9.66 9.337 9.335 9.528 9.685 9.828 9.92 9.852 9.887 9.94 9.927 10.205 10.658 10.95 11.295 11.645 11.802 11.727 11.74 11.76 11.408 11.113 10.667 10.302 10.523 10.517 10.597 10.418 9.6 9.705 9.368 9.06 9.307 9.493 8.913 9.318 9.923 9.785 9.7 8.615 8.555 8.727 9.462 10.012 10.132 11.257 11.577 10.102 10.493 10.078 10.675 9.823 9.788 10.955 11.327 11.705 11.167 10.988 10.48 9.387 9.195 9 8.935 8.837 8.708 8.517 8.35 8.208 8.097 8.057 8.045 8.033 7.993 7.997 7.997 7.95 7.927 7.94 7.98 7.915 7.82 7.912 8.005 8.113 8.165 8.092 7.993 7.935 7.885 7.847 7.783 7.665 7.688 7.618 7.573 7.503 7.452 7.432 7.408 7.378 7.338 7.298 7.217 7.177 7.193 7.352 7.565 7.47 7.28 7.273 7.388 7.105 7.108 7.108 7.115 7.12 7.12 7.113 7.1 7.01 6.895 6.83 6.788 6.75 6.653 6.573 6.505 6.467 6.42 6.358 6.315 6.278 6.27 6.22 6.155 6.105 6.06 6.045 5.983 5.98 5.95 5.92 5.9 5.898 5.867 5.83 5.908 6.628 6.75 6.625 6.202 6.135 7.645 6.39 5.415 4.868 5.363 5.427 5.445 5.42 5.405 5.352 5.212 5.168 5.11 5.05 5.012 4.99 4.97 4.938 4.88 4.887 4.858 4.84 4.793 4.785 4.738 4.742 4.745 4.695 4.26 3.915 4.378 4.927 5.548 5.517 4.387 4.365 4.367 4.358 4.358 4.352 4.338 4.278 4.247 4.212 4.18 4.155 4.148 4.115 4.12 4.105 4.062 4.045 4.035 4.025 4.008 3.995 3.965 3.965 3.953 3.96 3.938 3.92 3.913 3.883 3.875 3.87 3.855 3.825 3.82 3.817 3.795 3.777 3.775 3.77 3.755 3.73 3.715 3.72 3.71 3.685 3.69 3.665 3.673 3.655 3.642 3.625 3.66 3.66 3.678 3.65 3.638 3.648 3.658 3.645 3.608 3.597 3.608 3.635 3.605 3.587 3.577 3.56 3.587 3.575 3.567 3.545 3.612 3.628 3.555 3.565 3.615 3.645 3.63 3.645 3.523 3.473 3.585 3.62 3.633 3.62 3.605 3.615 3.597 3.628 3.55 3.395 3.505 3.592 3.697 3.713 3.557 3.53 3.645 3.643 3.638 3.485 3.5 3.61 3.66 3.655 3.635 3.595 3.595 3.6 3.59 3.543 3.453 3.582
10.033 10.068 10.158 10.37 10.372 10.177 10.09 9.967 9.955 10.038 9.985 9.84 9.825 9.865 9.833 9.833 9.983 9.943 10.102 10.137 10.528 11.11 11.41 11.25 11.612 11.922 11.658 11.725 10.927 10.9 11.257 11.243 11 10.765 11.62 11.427 11.248 10.878 10.93 11.097 11.18 11.142 10.325 10.507 9.958 9.9 9.915 9.938 10.653 11.238 11.267 10.985 12.245 11.205 12.083 11.767 11.47 11.403 10.658 10.16 10.8 11.597 11.42 11.078 11.055 10.968 10.32 10.562 10.935 10.623 10.865 11.347 11.092 10.895 10.455 10.177 9.805 9.665 9.658 9.632 9.577 9.495 9.46 9.445 9.49 9.475 9.475 9.475 9.495 9.517 9.523 9.475 9.517 9.583 9.63 9.675 9.86 10.015 10.432 10.75 10.887 11.235 11.51 11.26 10.84 10.773 10.855 10.878 10.615 10.41 10.43 10.602 11.02 11.465 11.688 11.595 11.555 11.528 11.693 11.488 11.34 11.295 11.233 11.658 12.167 12.52 12.912 13.927 13.642 12.997 12.52 12.15 11.985 11.753 11.255 11.185 10.653 10.385 10.233 10.2 9.997 9.785 9.578 9.557 9.422 9.432 9.475 9.49 9.38 9.188 9.095 9.045 9.077 9.102 9.128 9.233 9.203 9.41 9.75 9.938 10.153 10.597 11.045 11.253 11.807 12.132 12.095 12.097 12.245 12.475 12.525 11.865 11.465 11.28 11.3 11.345 11.25 11.395 11.057 11.005 11.057 10.962 10.77 10.615 10.415 9.985 9.872 9.872 9.833 9.76 9.712 9.792 9.773 9.707 10.135 9.615 9.477 9.562 9.64 9.538 9.67 9.278 9.167 9.165 9.337 9.57 9.823 9.85 9.975 10.108 10.083 10.327 10.75 11.052 11.267 11.68 11.797 11.875 11.91 11.89 11.665 11.132 10.427 10.298 10.665 10.73 10.533 10.27 9.722 9.872 9.425 9.245 9.337 9.253 9.188 9.75 10.113 9.35 10.325 10.805 8.977 8.583 11 9.825 9.052 9.932 9.798 10.568 11.35 10.55 10.465 10.113 9.523 10.04 9.4 10.925 11.16 10.36 10.648 10.422 10.108 9.875 9.27 9.002 8.755 8.602 8.55 8.435 8.32 8.102 8.042 8.028 8.003 7.993 7.962 7.923 7.903 7.887 7.945 7.87 7.843 7.957 8.068 8.163 8.155 8.075 7.98 7.89 7.825 7.765 7.715 7.662 7.632 7.562 7.55 7.477 7.45 7.432 7.403 7.382 7.36 7.318 7.21 7.153 7.188 7.43 7.562 7.44 7.253 7.26 7.16 7.097 7.108 7.11 7.122 7.142 7.162 7.115 7.102 7.06 6.947 6.898 6.78 6.77 6.67 6.57 6.517 6.465 6.435 6.352 6.275 6.265 6.258 6.22 6.133 6.095 6.065 6.04 5.97 5.957 5.93 5.903 5.905 5.887 5.852 5.832 6.36 6.887 6.855 6.278 5.99 9.1 11.42 6.582 5.682 4.842 5.363 5.435 5.443 5.427 5.425 5.345 5.215 5.16 5.108 5.053 5.017 4.985 4.972 4.943 4.882 4.875 4.847 4.825 4.79 4.787 4.722 4.73 4.735 4.707 4.278 4.41 4.483 4.905 4.87 5.412 4.422 4.382 4.365 4.355 4.352 4.358 4.34 4.3 4.24 4.2 4.177 4.148 4.148 4.14 4.117 4.095 4.082 4.057 4.04 4.025 4.01 3.997 3.97 3.953 3.943 3.935 3.935 3.925 3.92 3.898 3.882 3.867 3.847 3.83 3.84 3.827 3.793 3.79 3.78 3.775 3.763 3.74 3.745 3.727 3.695 3.683 3.695 3.678 3.648 3.643 3.66 3.64 3.628 3.655 3.668 3.655 3.655 3.63 3.633 3.645 3.64 3.608 3.592 3.582 3.6 3.587 3.58 3.557 3.58 3.582 3.565 3.52 3.565 3.617 3.612 3.592 3.597 3.617 3.618 3.588 3.455 3.495 3.61 3.612 3.612 3.6 3.597 3.635 3.63 3.562 3.453 3.388 3.517 3.577 3.65 3.685 3.572 3.54 3.638 3.638 3.602 3.46 3.582 3.622 3.642 3.648 3.645 3.64 3.635 3.65 3.608 3.473 3.455 3.582
9.952 10.017 10.038 10.16 10.163 10.145 10.132 9.98 9.943 9.97 10.01 9.887 9.835 9.81 9.795 9.722 9.863 9.855 9.873 9.823 10.042 10.29 10.767 11.227 11.667 11.515 11.44 11.185 11.6 11.205 10.833 10.738 10.898 10.712 10.483 10.158 9.905 9.895 9.845 9.887 9.97 9.935 9.78 9.95 9.743 9.807 10.017 9.762 9.8 9.977 9.872 10.238 10.605 10.793 10.905 10.618 10.755 11.145 10.823 10.182 10.207 10.788 11.07 11.31 11.605 11.74 10.703 10.075 10.075 10.255 10.483 10.985 11.362 11.592 11.43 11.407 10.962 10.092 9.847 9.83 9.712 9.578 9.512 9.452 9.445 9.458 9.475 9.495 9.493 9.523 9.557 9.495 9.46 9.495 9.595 9.757 9.84 10.035 10.238 10.312 10.5 10.92 11.46 11.548 10.985 10.835 10.722 10.938 11.13 10.725 10.775 10.998 11.05 10.995 11.235 11.578 11.328 11.22 11.392 11.54 11.378 11.212 11.137 11.467 11.882 12.333 13.14 14.32 14.007 13.318 12.837 12.355 12.16 12.08 11.93 11.9 11.4 10.925 10.66 10.03 9.767 9.762 9.37 9.235 9.175 9.16 9.095 9.04 9.02 9.003 8.985 9.012 9.113 9.145 9.193 9.257 9.33 9.493 9.69 9.903 10.19 10.455 10.84 11.068 11.382 11.71 11.84 12.052 12.32 12.542 12.512 11.812 11.318 11.14 11.31 11.202 11.208 10.887 10.78 10.932 10.98 10.833 10.555 10.325 10.255 9.805 9.765 9.82 9.767 9.665 9.64 9.627 9.658 9.602 10.167 9.495 9.452 9.568 9.645 9.512 9.642 9.392 9.137 9.025 9.035 9.25 9.542 9.788 10.01 10.137 10.243 10.445 10.847 11.31 11.413 11.58 11.47 11.585 11.733 11.67 11.615 10.712 10.13 10.292 10.645 10.707 10.615 10.222 9.812 9.98 9.708 9.573 9.547 9.423 9.425 10.115 10.21 9.45 9.173 11.408 9.735 8.573 8.995 8.99 8.685 8.788 10.658 11.377 9.905 10.122 10.48 11.005 10.472 9.54 10.307 12.078 9.99 10.555 10.495 10.525 11.212 11.04 10.568 9.573 9.083 8.785 8.63 9.88 9.528 8.253 8.073 8.012 7.992 8 7.977 7.948 7.89 7.872 7.9 7.85 7.878 7.988 8.052 8.145 8.122 8.06 7.932 7.858 7.783 7.722 7.662 7.63 7.592 7.57 7.553 7.488 7.418 7.418 7.38 7.345 7.36 7.312 7.235 7.168 7.205 7.46 7.517 7.38 7.222 7.117 7.108 7.12 7.128 7.12 7.14 7.18 7.2 7.118 7.03 6.997 6.983 6.88 6.805 6.758 6.653 6.577 6.492 6.432 6.403 6.335 6.27 6.247 6.275 6.225 6.14 6.082 6.05 6.025 5.967 5.957 5.912 5.892 5.908 5.89 5.843 5.878 5.988 6.51 6.37 5.995 5.852 5.943 5.85 6.235 5.847 4.725 5.347 5.42 5.43 5.42 5.403 5.35 5.235 5.177 5.117 5.07 5.012 4.967 4.97 4.935 4.887 4.887 4.835 4.82 4.778 4.762 4.717 4.722 4.74 4.69 4.355 7.068 5.975 4.85 4.823 5.17 4.438 4.387 4.342 4.338 4.338 4.355 4.332 4.295 4.222 4.202 4.18 4.165 4.162 4.12 4.095 4.09 4.068 4.06 4.038 4.023 4.015 4.005 3.975 3.957 3.953 3.947 3.918 3.928 3.91 3.903 3.885 3.878 3.86 3.822 3.837 3.82 3.805 3.797 3.783 3.777 3.767 3.753 3.753 3.723 3.717 3.713 3.69 3.693 3.663 3.655 3.66 3.67 3.63 3.63 3.648 3.638 3.658 3.64 3.628 3.643 3.645 3.645 3.633 3.62 3.585 3.612 3.612 3.575 3.555 3.602 3.62 3.547 3.543 3.592 3.632 3.63 3.612 3.6 3.622 3.543 3.435 3.553 3.638 3.643 3.632 3.582 3.557 3.575 3.585 3.51 3.388 3.412 3.52 3.59 3.625 3.617 3.585 3.507 3.615 3.617 3.543 3.453 3.592 3.615 3.607 3.635 3.645 3.645 3.658 3.64 3.602 3.465 3.505 3.557
9.958 9.967 9.97 9.932 9.997 10.025 10.163 10.2 9.925 9.925 9.907 9.863 9.885 9.872 9.807 9.705 9.677 9.77 9.875 9.855 9.807 9.812 10.012 10.455 10.685 10.465 10.642 11 11.375 10.78 10.125 9.94 9.887 9.965 9.908 9.915 9.89 9.842 9.82 9.778 10.062 9.797 9.805 9.735 9.693 9.722 9.788 9.778 9.887 9.932 9.975 10.007 10.118 10.007 9.972 10.345 12.53 12.76 11.347 10.49 10.222 10.517 11.2 11.705 11.972 11.885 10.783 10.36 10.255 10.33 10.443 10.892 11.427 11.65 11.57 11.653 11.903 10.917 9.98 9.845 9.823 9.658 9.552 9.52 9.485 9.467 9.465 9.485 9.512 9.548 9.53 9.467 9.477 9.557 9.615 9.637 9.785 9.938 10.03 10.12 10.185 10.477 10.895 11.115 11.102 10.722 11.138 11.575 11.783 11.175 11.108 11.363 11.655 11.472 11.275 11.347 11.215 11.148 11.285 11.938 11.805 11.365 11.275 11.52 11.903 12.6 13.51 14.495 14.415 13.615 13.145 12.672 12.267 11.863 11.658 11.395 11.185 10.962 10.01 9.698 9.455 9.453 9.358 9.267 9.16 9.105 9.065 8.983 8.985 8.97 8.935 9.015 9.062 9.185 9.265 9.342 9.493 9.637 9.805 9.925 10.257 10.41 10.725 10.91 11.4 11.587 11.767 12.105 12.44 12.698 12.67 11.868 11.297 11.025 11.108 11.108 10.86 10.778 10.812 10.887 10.885 10.78 10.542 10.25 10.058 9.792 9.733 9.733 9.67 9.602 9.592 9.555 9.57 9.587 10.275 9.5 9.475 9.585 9.653 9.523 9.665 9.48 9.203 9.06 8.967 9.155 9.455 9.965 10.868 10.42 10.387 10.583 10.998 11.167 10.932 10.993 11.042 11.245 11.472 11.118 10.535 10.202 10.002 10.185 10.247 10.182 10.27 10.135 9.96 10.113 9.938 9.81 9.812 9.583 9.615 10.343 10.337 9.698 9.573 9.655 8.885 8.57 8.55 8.55 8.525 8.55 9.625 9.267 9.165 9.445 10.14 10.188 10.3 10.132 11.72 13.85 12.382 9.472 9.523 10.335 10.355 10.702 10.87 10.903 9.743 9.2 8.948 8.932 8.613 8.372 8.148 8.043 8.047 8.012 7.993 8 7.96 7.943 7.9 7.84 7.855 7.955 8.048 8.14 8.087 8.038 7.918 7.845 7.773 7.682 7.625 7.575 7.53 7.54 7.51 7.46 7.427 7.395 7.387 7.355 7.372 7.327 7.255 7.195 7.242 7.467 7.497 7.345 7.193 7.15 7.165 7.142 7.162 7.142 7.155 7.19 7.198 7.105 7.073 7.025 6.96 6.88 6.82 6.727 6.605 6.53 6.472 6.44 6.418 6.355 6.265 6.253 6.262 6.238 6.155 6.088 6.057 6.03 5.988 5.972 5.907 5.89 5.9 5.882 5.85 5.887 5.927 5.915 5.89 5.795 5.88 6.162 6.092 7.31 6.337 4.64 5.34 5.432 5.443 5.422 5.395 5.363 5.247 5.16 5.108 5.07 5.02 4.967 4.975 4.945 4.883 4.868 4.83 4.807 4.783 4.765 4.727 4.733 4.75 4.673 4.227 5.967 5.908 7.645 4.79 4.707 4.46 4.39 4.375 4.35 4.323 4.315 4.315 4.285 4.243 4.207 4.175 4.165 4.137 4.11 4.108 4.08 4.075 4.055 4.028 4.015 4.023 3.985 3.97 3.953 3.96 3.953 3.933 3.913 3.915 3.91 3.88 3.858 3.842 3.825 3.827 3.817 3.803 3.793 3.785 3.775 3.747 3.74 3.747 3.747 3.73 3.715 3.703 3.705 3.695 3.678 3.66 3.665 3.658 3.63 3.635 3.643 3.622 3.64 3.633 3.633 3.638 3.638 3.628 3.63 3.605 3.607 3.622 3.625 3.577 3.597 3.625 3.59 3.517 3.582 3.6 3.612 3.638 3.602 3.628 3.523 3.445 3.58 3.635 3.63 3.628 3.608 3.572 3.567 3.597 3.503 3.365 3.5 3.605 3.653 3.673 3.648 3.565 3.465 3.527 3.585 3.487 3.463 3.628 3.653 3.615 3.587 3.608 3.617 3.638 3.62 3.533 3.443 3.557 3.567
9.938 9.962 9.975 9.97 9.967 9.98 10.132 10.225 9.9 9.802 9.745 9.757 9.872 9.877 9.782 9.593 9.595 9.642 9.75 9.827 9.802 9.762 9.78 9.778 10.003 10.075 10.087 10.22 10.048 9.972 9.878 9.908 9.887 10.18 9.88 9.932 9.923 9.852 9.983 9.913 9.835 9.757 9.837 9.91 10.358 9.815 9.888 9.923 9.852 9.9 9.993 9.99 9.967 10.02 10.195 10.92 11.65 11.855 11.158 10.403 10.288 10.562 11.102 11.645 12.085 12.102 11.798 11.193 11.047 11.045 11.135 11.755 11.403 11.26 11.382 11.497 10.927 10.438 10.195 10.023 9.855 9.743 9.658 9.595 9.507 9.495 9.517 9.51 9.52 9.545 9.483 9.485 9.505 9.54 9.665 9.715 9.81 9.835 9.865 9.795 10.033 10.122 10.293 10.552 10.698 10.943 11.493 11.96 11.717 11.292 11.07 11.23 11.3 11.382 11.512 11.613 11.88 12.297 11.642 11.69 11.69 11.717 11.79 11.905 12.295 12.752 13.528 14.073 14.14 13.735 13.108 12.8 12.41 11.605 11.39 11.005 10.59 10.305 9.555 9.373 9.32 9.222 9.24 9.193 9.188 9.108 9.05 9 8.955 9.007 9.035 9.125 9.095 9.158 9.32 9.6 9.535 9.815 9.9 9.988 10.165 10.46 10.613 11.005 11.398 11.615 11.783 12.238 12.735 12.79 12.655 11.852 11.51 11.17 10.987 10.903 10.85 10.96 11.177 10.962 10.922 10.825 10.658 10.568 10.175 9.972 9.847 9.797 9.785 9.747 9.78 10.01 10.418 10.667 10.507 9.762 9.495 9.58 9.68 9.58 9.61 9.528 9.25 9.155 9.04 9.262 9.648 10.288 11.328 10.915 10.41 10.602 10.75 10.81 10.635 10.585 10.698 10.89 10.962 10.55 10.068 9.855 9.917 10.135 10.055 9.932 10.15 10.075 10.017 10.22 10.007 9.903 9.84 9.618 9.94 10.667 10.585 9.903 9.94 9.985 8.847 8.562 8.53 8.54 8.523 8.525 8.587 8.648 8.757 9.538 9.302 10.315 10.105 10.07 10.113 9.665 9.443 9.542 9.05 10.015 10.45 9.007 9.63 9.938 10.017 9.618 8.927 8.76 8.585 8.587 8.377 8.185 8.108 8.097 7.993 7.99 8.005 8.038 8.042 7.895 7.843 7.927 7.992 8.125 8.083 7.988 7.912 7.835 7.742 7.67 7.617 7.58 7.573 7.55 7.505 7.462 7.46 7.425 7.408 7.395 7.405 7.36 7.267 7.237 7.312 7.49 7.495 7.328 7.188 7.137 7.145 7.15 7.16 7.162 7.14 7.2 7.17 7.118 7.108 7.045 6.903 6.843 6.8 6.698 6.597 6.515 6.475 6.438 6.42 6.35 6.262 6.247 6.24 6.217 6.135 6.077 6.048 6.02 5.96 5.952 5.918 5.887 5.875 5.86 5.835 5.828 5.92 6.105 5.805 5.8 5.872 5.993 6.375 8.29 6.31 4.573 5.33 5.427 5.455 5.44 5.4 5.36 5.24 5.142 5.102 5.06 5.013 4.955 4.965 4.935 4.898 4.86 4.85 4.802 4.783 4.765 4.74 4.725 4.753 4.677 4.323 5.315 7.045 8.245 6.168 4.707 4.45 4.387 4.382 4.355 4.332 4.312 4.305 4.273 4.245 4.215 4.18 4.158 4.13 4.128 4.097 4.073 4.068 4.057 4.053 4.02 4.008 4 3.983 3.96 3.95 3.953 3.95 3.92 3.91 3.885 3.878 3.845 3.832 3.842 3.84 3.822 3.81 3.787 3.767 3.76 3.763 3.767 3.76 3.737 3.747 3.733 3.717 3.697 3.693 3.683 3.658 3.673 3.66 3.65 3.62 3.648 3.633 3.648 3.64 3.62 3.617 3.63 3.617 3.638 3.62 3.62 3.628 3.615 3.567 3.62 3.625 3.567 3.52 3.62 3.595 3.62 3.633 3.587 3.595 3.475 3.477 3.59 3.648 3.61 3.628 3.658 3.625 3.562 3.57 3.463 3.38 3.537 3.663 3.643 3.65 3.66 3.61 3.51 3.48 3.463 3.41 3.525 3.658 3.66 3.633 3.605 3.595 3.59 3.622 3.625 3.503 3.435 3.547 3.587
9.922 9.955 10.017 10.038 10.003 9.98 9.993 9.965 9.903 9.847 9.815 9.73 9.82 9.798 9.827 9.708 9.727 9.757 9.667 9.675 9.69 9.705 9.805 9.77 9.887 9.875 9.852 9.89 10.068 9.925 9.812 9.922 9.913 10.095 9.91 9.885 9.908 9.9 9.83 9.905 9.915 9.913 9.892 10 9.943 9.972 9.997 9.988 9.953 10.14 10.538 10.42 10.25 10.342 10.622 11.217 11.625 11.462 10.645 10.335 10.26 10.688 11.525 11.895 12.113 12.29 11.645 11.632 11.22 11.185 11.017 10.827 10.56 10.903 11.255 10.955 10.425 10.205 10.253 10.493 10.137 10.023 9.7 9.663 9.538 9.495 9.555 9.59 9.53 9.475 9.46 9.49 9.595 9.837 10.215 9.828 10.118 10.495 9.873 9.925 9.895 9.99 10.195 10.413 10.998 11.298 11.488 11.843 11.613 11.003 10.84 10.825 10.965 11.423 11.618 11.997 12.555 13.142 13.137 12.548 12.238 12.278 12.355 12.745 13.055 13.927 14.62 14.717 14.498 13.462 12.523 12.065 11.665 11.403 11.29 11.04 10.752 9.87 9.525 9.307 9.347 9.257 9.217 9.195 9.235 9.188 9.132 9.148 9.163 9.108 9.04 8.988 9.028 9.17 9.417 9.597 9.688 9.945 10.108 10.18 10.59 10.74 10.74 10.968 11.288 11.645 11.872 11.975 12.392 12.642 12.665 12.347 11.7 11.398 11.13 11.017 11.03 11.08 11.075 11.007 10.995 10.863 10.61 10.745 10.273 10.16 10.125 10.132 10.135 10.195 10.21 10.85 11.403 11.932 11.462 9.618 9.495 9.615 9.712 9.608 9.585 9.552 9.302 9.34 9.21 9.315 9.715 10.305 10.778 10.898 10.68 10.4 10.253 10.328 10.375 10.477 10.573 10.632 10.59 10.302 10.01 9.975 10.005 10.085 10.062 9.915 9.92 9.977 10.028 10.315 10.077 9.905 9.802 9.712 10.315 10.938 10.66 10.148 9.757 9.292 8.695 8.66 8.557 8.507 8.503 8.49 8.515 8.53 8.557 9.038 9.105 9.175 9.938 9.565 9.79 9.96 10.375 9.283 8.995 9.11 12.17 10.45 8.667 8.765 11.31 10.012 8.785 8.755 9.343 9.155 8.507 8.335 8.25 8.15 8.048 7.947 8.012 8.087 8.078 7.923 7.775 7.81 7.948 8.07 8.04 7.94 7.885 7.83 7.775 7.693 7.65 7.642 7.605 7.557 7.517 7.483 7.455 7.448 7.43 7.405 7.392 7.345 7.265 7.255 7.387 7.533 7.488 7.315 7.19 7.16 7.155 7.165 7.172 7.14 7.128 7.145 7.13 7.13 7.082 7.012 6.925 6.843 6.803 6.707 6.593 6.493 6.462 6.438 6.415 6.335 6.257 6.225 6.227 6.213 6.137 6.09 6.043 5.988 5.938 5.915 5.9 5.865 5.868 5.858 5.812 5.807 5.925 6.025 6.383 5.798 5.858 5.887 5.99 6.69 6.89 4.825 5.345 5.435 5.475 5.432 5.392 5.363 5.238 5.135 5.102 5.06 5.017 4.965 4.96 4.927 4.895 4.847 4.858 4.795 4.78 4.762 4.758 4.725 4.75 4.707 4.452 5.803 4.44 5.75 5.245 4.845 4.44 4.378 4.363 4.34 4.312 4.303 4.305 4.265 4.237 4.193 4.175 4.158 4.137 4.12 4.113 4.082 4.065 4.045 4.048 4.003 4 3.995 3.983 3.973 3.95 3.933 3.935 3.928 3.898 3.913 3.885 3.855 3.852 3.865 3.842 3.827 3.805 3.777 3.785 3.797 3.755 3.745 3.743 3.753 3.767 3.737 3.72 3.713 3.7 3.688 3.678 3.66 3.66 3.67 3.635 3.645 3.635 3.625 3.628 3.633 3.638 3.607 3.612 3.64 3.625 3.61 3.608 3.6 3.58 3.617 3.622 3.585 3.515 3.605 3.57 3.595 3.59 3.567 3.565 3.44 3.5 3.62 3.633 3.628 3.638 3.665 3.63 3.577 3.567 3.43 3.447 3.557 3.66 3.66 3.625 3.645 3.64 3.605 3.605 3.503 3.408 3.577 3.65 3.633 3.622 3.615 3.617 3.608 3.58 3.595 3.47 3.457 3.53 3.562
9.932 9.985 10.235 10.08 10.113 10.167 10.06 9.965 9.89 9.903 9.892 9.76 9.738 9.815 9.823 9.818 9.887 9.872 9.773 9.667 9.64 9.648 9.702 9.645 9.655 9.67 9.727 9.802 9.833 9.858 9.955 9.917 9.955 9.975 9.91 9.91 10.062 10.17 9.993 9.998 9.95 9.943 10.04 10.07 9.938 9.93 10.03 10.227 10.413 11.11 11.382 10.842 10.778 10.92 11.202 11.375 11.115 10.637 10.135 9.968 9.948 10.208 11.108 11.805 11.82 11.63 11.597 11.552 10.965 11.033 10.462 10.083 10.182 10.493 10.673 10.352 10.03 9.908 9.988 10.005 9.898 9.823 9.743 9.69 9.605 9.488 9.538 9.585 9.56 9.477 9.493 9.568 9.785 10.14 10.525 9.967 9.76 9.84 10.115 10.045 10.26 10.403 10.592 10.755 11.2 11.453 11.628 11.905 11.387 10.775 10.688 10.865 11.318 11.593 11.892 12.525 13.002 13.312 12.708 13.658 13.512 13.91 13.953 13.985 14.288 14.792 15.075 15.188 13.448 12.32 11.87 11.477 11.23 11.205 11.18 11.262 11.083 10.243 9.655 9.5 9.432 9.377 9.243 9.225 9.257 9.283 9.29 9.23 9.235 9.212 9.208 9.337 9.445 9.43 9.568 9.805 9.898 9.98 10.185 10.387 10.655 10.895 10.82 10.895 11.25 11.613 11.903 11.983 12.137 12.245 12.517 12.775 11.81 11.445 11.215 11.12 11.145 11.093 10.965 10.903 10.76 10.587 10.425 10.375 10.365 10.432 10.42 10.398 10.475 10.733 10.943 11.365 11.925 12.257 11.885 9.653 9.573 9.615 9.733 9.597 9.583 9.6 9.44 9.49 9.465 9.505 9.807 10.342 10.767 11.058 11.08 10.882 10.4 10.285 10.29 10.39 10.403 10.273 10.275 10.26 10.253 10.235 10.155 10.015 9.9 9.79 9.767 9.882 10.007 10.328 10.193 9.997 9.868 9.852 10.57 10.955 10.753 10.24 9.792 9.198 8.792 9.073 8.58 8.515 8.495 8.497 8.5 8.465 8.483 8.505 8.545 8.85 9.052 9.15 9.17 9.497 9.365 10.167 9.477 9.55 9.08 8.95 8.792 9.358 10.055 9.23 8.782 9.523 10.337 11.182 10.985 8.745 8.328 8.243 8.137 8.06 8.005 8.03 8.045 7.935 7.78 7.722 7.86 7.977 8.038 7.95 7.84 7.8 7.758 7.717 7.68 7.658 7.635 7.588 7.523 8.4 7.438 7.427 7.423 7.43 7.42 7.323 7.24 7.222 7.352 7.543 7.46 7.283 7.13 7.168 7.158 7.15 7.165 7.135 7.115 7.125 7.135 7.132 7.06 6.985 6.887 6.805 6.783 6.665 6.58 6.5 6.46 6.445 6.425 6.343 6.257 6.222 6.22 6.2 6.13 6.085 6.053 5.99 5.943 5.92 5.892 5.852 5.86 5.832 5.81 5.78 5.867 5.818 5.76 5.787 5.818 5.855 5.953 7.588 6.497 4.503 5.33 5.43 5.47 5.423 5.412 5.365 5.25 5.135 5.108 5.053 5.015 4.962 4.955 4.918 4.912 4.85 4.845 4.79 4.79 4.767 4.763 4.712 4.738 4.712 4.517 3.918 5.665 5.858 5.892 5.468 4.46 4.355 4.35 4.328 4.312 4.298 4.293 4.275 4.242 4.205 4.193 4.157 4.132 4.135 4.108 4.065 4.052 4.033 4.043 4.003 3.98 3.985 3.983 3.975 3.95 3.945 3.945 3.923 3.915 3.9 3.868 3.878 3.86 3.847 3.822 3.805 3.822 3.807 3.79 3.783 3.77 3.743 3.743 3.763 3.747 3.723 3.715 3.707 3.693 3.69 3.673 3.663 3.643 3.65 3.625 3.632 3.633 3.648 3.628 3.622 3.625 3.61 3.612 3.592 3.595 3.567 3.56 3.572 3.557 3.577 3.612 3.58 3.505 3.505 3.513 3.543 3.58 3.572 3.497 3.44 3.523 3.602 3.622 3.668 3.665 3.685 3.638 3.615 3.565 3.408 3.513 3.622 3.605 3.648 3.61 3.61 3.642 3.64 3.648 3.523 3.41 3.545 3.648 3.638 3.605 3.605 3.633 3.64 3.592 3.533 3.435 3.5 3.562 3.537
10.023 9.917 9.935 9.97 10.048 10.305 10.102 9.932 9.935 9.885 9.79 9.765 9.727 9.892 9.932 10.01 10.09 10.085 9.965 9.805 9.698 9.645 9.632 9.62 9.658 9.648 9.68 9.693 9.757 9.802 9.855 9.903 9.917 9.945 10.122 10.087 10.375 10.275 10.03 10.025 9.922 9.885 9.967 10.012 10.083 10.267 10.44 10.68 10.845 10.967 11.08 11.068 11.205 11.113 10.793 10.35 10.245 10.01 9.802 9.765 9.785 9.815 10.182 10.788 11.042 10.97 10.825 10.632 10.37 10.62 10.175 9.927 9.82 9.815 10.005 9.745 9.708 9.83 9.818 9.705 9.658 9.63 9.645 9.618 9.613 9.507 9.565 9.6 9.568 9.477 9.498 9.585 9.835 10.052 10.693 10.432 9.91 9.835 10.015 10.153 10.09 10.27 10.562 10.885 11.085 11.262 11.62 11.962 11.065 10.618 10.795 11.025 11.333 11.605 12.3 12.882 12.925 13.485 13.11 13.375 13.977 14.1 14.398 14.908 15.182 14.438 13.898 13.233 12.432 11.735 11.263 10.887 10.78 10.788 10.965 11.273 11.443 10.752 10.262 10.005 9.895 9.917 9.635 9.302 9.273 9.295 9.395 9.36 9.37 9.43 9.585 9.833 9.908 9.892 9.905 9.862 10.02 10.227 10.597 10.583 10.812 10.955 11.007 11.035 11.267 11.56 11.913 12.195 12.465 12.507 12.38 12.493 11.96 11.585 11.27 11.177 11.12 11.043 10.862 10.745 10.622 10.48 10.435 10.452 10.507 10.548 10.523 10.515 10.695 11.062 11.512 11.602 12.198 12.273 11.812 9.818 9.568 9.635 9.755 9.642 9.593 9.637 9.47 9.493 9.597 9.77 10.057 10.512 10.96 11.142 11.382 11.415 10.975 10.592 10.48 10.427 10.275 10.19 10.205 10.207 10.262 10.185 10.05 9.92 9.863 9.82 9.917 9.95 10.06 10.312 10.2 10.097 10.005 10.083 10.515 10.908 10.895 10.203 9.517 9.163 8.833 8.695 8.56 8.523 8.49 8.507 8.505 8.462 8.422 8.448 8.417 8.465 8.548 8.73 8.778 8.903 9.04 9.153 9.852 9.677 9.688 9.977 9.65 10.095 9.135 8.802 9.165 9.685 9.593 10.6 10.95 11.085 9.495 8.583 8.288 8.225 8.115 8.025 8.023 7.963 7.875 7.742 7.755 7.925 7.99 7.932 7.852 7.8 7.745 7.71 7.66 7.653 7.64 7.57 7.477 7.515 7.447 7.418 7.403 7.392 7.368 7.325 7.258 7.205 7.372 7.552 7.445 7.255 7.113 7.128 7.135 7.142 7.16 7.17 7.115 7.09 7.113 7.097 7.025 6.95 6.85 6.815 6.77 6.645 6.552 6.485 6.447 6.438 6.43 6.343 6.247 6.217 6.21 6.188 6.118 6.082 6.048 5.997 5.943 5.905 5.892 5.852 5.86 5.838 5.787 5.775 5.92 5.825 5.773 5.783 5.868 5.928 6.077 6.793 6.455 4.585 5.31 5.43 5.465 5.44 5.403 5.352 5.247 5.142 5.102 5.048 5.015 4.965 4.95 4.91 4.895 4.863 4.845 4.79 4.785 4.773 4.763 4.707 4.727 4.693 4.503 3.84 4.62 5.75 5.655 4.957 4.52 4.352 4.332 4.347 4.33 4.325 4.325 4.285 4.23 4.2 4.17 4.148 4.12 4.133 4.108 4.073 4.055 4.043 4.05 4.015 3.993 3.983 3.973 3.965 3.943 3.935 3.933 3.91 3.91 3.89 3.9 3.895 3.865 3.845 3.837 3.815 3.822 3.807 3.797 3.793 3.777 3.757 3.737 3.743 3.743 3.737 3.727 3.715 3.693 3.695 3.685 3.67 3.658 3.65 3.65 3.643 3.633 3.64 3.645 3.643 3.628 3.63 3.617 3.592 3.58 3.565 3.547 3.545 3.553 3.58 3.577 3.577 3.515 3.505 3.61 3.622 3.63 3.628 3.49 3.475 3.553 3.58 3.605 3.63 3.66 3.68 3.655 3.592 3.517 3.408 3.56 3.67 3.602 3.57 3.543 3.553 3.585 3.602 3.6 3.465 3.455 3.543 3.59 3.65 3.62 3.608 3.61 3.617 3.635 3.537 3.443 3.575 3.61 3.58
9.865 9.78 9.767 9.827 9.915 10.13 9.995 9.983 9.83 9.792 9.783 9.74 9.8 10.003 10.08 10.188 10.198 10.16 10.195 10.02 9.828 9.68 9.632 9.685 9.842 9.835 9.948 9.833 9.845 9.815 9.842 9.858 9.852 10 10.085 10.148 10.345 10.135 9.913 9.802 9.843 9.913 9.94 10 10.235 10.523 10.488 10.47 10.578 10.865 10.988 10.917 10.905 10.693 10.467 10.565 10.868 11.1 10.445 10.1 9.885 9.882 9.85 9.875 10.055 10.038 9.875 9.88 9.878 9.943 9.88 9.658 9.622 9.602 9.648 9.653 9.65 9.67 9.635 9.587 9.573 9.545 9.53 9.525 9.565 9.535 9.568 9.562 9.525 9.485 9.507 9.705 9.85 10.057 9.95 10.195 10.16 9.938 9.938 9.998 10.193 10.648 10.96 10.865 10.998 11.27 11.525 11.523 10.74 10.458 10.555 10.78 11.153 11.597 12.298 12.875 13.118 13.483 14.045 14.5 13.86 13.837 14.355 14.75 14.592 13.788 12.96 12.267 11.757 11.095 10.585 10.34 10.275 10.34 10.755 11.275 11.702 11.62 11.06 10.812 10.613 10.443 9.99 9.525 9.312 9.3 9.36 9.34 9.315 9.448 9.65 10.113 10.373 10.398 10.2 10.212 10.327 10.538 10.727 10.84 10.927 11.102 11.222 11.405 11.547 11.702 11.82 12.137 12.485 12.685 12.365 12.403 12.132 11.842 11.523 11.34 11.227 11.065 10.868 10.698 10.625 10.583 10.555 10.585 10.557 10.538 10.49 10.547 10.762 10.945 11.283 11.708 11.97 12.257 12.19 10.685 9.49 9.658 9.775 9.698 9.615 9.653 9.438 9.395 9.578 9.84 10.203 10.668 11.068 11.24 11.385 11.498 11.435 11.22 10.833 10.677 10.595 10.475 10.347 10.318 10.208 10.07 9.975 9.835 9.792 9.74 10.035 10.033 10.177 10.275 10.137 10.105 10.017 10.212 10.552 10.908 10.783 10.285 9.69 9.125 8.82 8.667 8.602 8.578 8.515 8.5 8.5 8.45 8.39 8.378 8.36 8.365 8.378 8.5 8.505 8.585 8.735 8.827 9.108 9.273 11.077 10.445 10.67 9.38 8.785 8.85 9.767 9.125 8.915 9.545 11.19 10.59 9.855 10.165 9.253 8.69 8.25 8.215 8.118 8.012 7.957 7.845 7.742 7.762 7.855 7.87 7.84 7.785 7.73 7.66 7.65 7.637 7.592 7.528 7.418 7.438 7.452 7.43 7.403 7.365 7.32 7.29 7.24 7.207 7.392 7.56 7.38 7.222 7.117 7.068 7.095 7.122 7.142 7.158 7.13 7.093 7.093 7.04 6.992 6.9 6.832 6.798 6.755 6.64 6.548 6.485 6.477 6.483 6.427 6.355 6.247 6.197 6.175 6.182 6.135 6.075 6.035 5.985 5.945 5.9 5.91 5.867 5.87 5.84 5.803 5.795 5.997 5.778 5.8 5.885 6.06 6.233 5.918 6.515 6.418 4.865 5.267 5.405 5.47 5.46 5.418 5.352 5.255 5.142 5.085 5.045 5 4.955 4.948 4.918 4.895 4.845 4.832 4.783 4.773 4.778 4.747 4.695 4.697 4.668 4.552 3.867 4.22 5.03 5.1 5.077 5.285 4.363 4.335 4.328 4.342 4.355 4.323 4.29 4.247 4.21 4.177 4.15 4.122 4.113 4.1 4.073 4.052 4.037 4.04 4.017 3.99 3.98 3.983 3.977 3.94 3.935 3.933 3.933 3.918 3.903 3.888 3.872 3.867 3.872 3.837 3.817 3.793 3.797 3.8 3.79 3.76 3.75 3.773 3.765 3.765 3.753 3.735 3.717 3.71 3.707 3.713 3.69 3.69 3.678 3.66 3.64 3.65 3.633 3.648 3.63 3.638 3.625 3.62 3.612 3.582 3.612 3.592 3.557 3.54 3.567 3.582 3.59 3.58 3.523 3.58 3.642 3.638 3.587 3.463 3.523 3.633 3.635 3.622 3.615 3.64 3.668 3.665 3.59 3.473 3.43 3.612 3.653 3.64 3.595 3.575 3.557 3.612 3.638 3.557 3.42 3.485 3.592 3.57 3.57 3.615 3.643 3.622 3.59 3.615 3.52 3.46 3.567 3.59 3.58
9.935 9.87 9.68 9.702 9.873 9.967 9.823 9.79 9.71 9.685 9.757 9.702 9.767 9.985 10.122 10.188 10.225 10.132 10.273 10.1 9.738 9.613 9.688 9.782 9.88 9.805 9.753 10.017 9.993 9.948 9.89 9.887 9.802 9.802 9.863 9.87 9.895 9.762 9.66 9.725 9.84 9.943 10.13 10.142 10.245 10.475 10.203 10.227 10.628 11.415 11.36 11.275 11.24 11.073 11.062 11.17 11.235 11.517 11.358 11.038 10.285 9.922 9.762 9.717 9.682 9.672 9.693 9.618 9.608 9.597 9.613 9.618 9.56 9.587 9.615 9.618 9.583 9.57 9.568 9.57 9.568 9.55 9.52 9.552 9.54 9.535 9.525 9.52 9.485 9.51 9.575 9.805 10.012 9.925 9.91 9.918 10.26 10.285 10.747 10.042 10.445 11.355 12.097 11.592 11.025 10.88 10.92 10.738 10.517 10.328 10.528 10.72 11.052 11.583 11.977 12.403 12.823 13.65 13.923 13.733 13.503 14.05 14.523 14.265 13.743 12.948 12.182 11.642 11.155 10.613 10.182 10.078 9.908 9.958 10.273 10.775 11.27 11.82 12.243 11.823 11.14 10.44 9.965 9.622 9.453 9.35 9.343 9.33 9.38 9.462 9.722 10.12 10.432 10.498 10.535 10.497 10.642 10.825 10.93 11.03 11.127 11.2 11.325 11.443 11.578 11.712 11.757 11.833 11.873 11.967 12.005 12.03 12.005 11.858 11.637 11.438 11.2 11.052 10.898 10.847 10.775 10.73 10.65 10.583 10.592 10.58 10.538 10.583 10.823 10.905 11.015 11.11 11.36 11.892 12.065 11.07 9.592 9.682 9.81 9.735 9.642 9.68 9.45 9.375 9.483 9.778 10.155 10.528 10.97 11.175 11.36 11.438 11.493 11.512 11.337 10.945 10.778 10.79 10.645 10.493 10.382 10.262 10.11 9.882 9.735 9.82 10.097 10.07 10.182 10.18 10.105 10.05 9.993 10.182 10.637 11.012 11.068 11.39 10.625 9.44 8.86 8.702 8.635 8.595 8.55 8.485 8.507 8.455 8.422 8.35 8.305 8.3 8.265 8.278 8.335 8.385 8.472 8.568 8.892 8.92 9.215 9.675 10.352 8.887 8.802 9.648 10.337 9.785 9.057 8.75 8.727 8.878 9.37 9.53 10.035 9.785 9.335 8.615 8.225 8.15 8.068 7.952 7.847 7.733 7.72 7.795 7.858 7.85 7.758 7.685 7.653 7.62 7.588 7.525 7.438 7.427 7.443 7.445 7.42 7.32 7.295 7.23 7.193 7.172 7.438 7.578 7.382 7.173 7.08 7.02 7.073 7.108 7.113 7.115 7.117 7.115 7.097 7.057 6.983 6.93 6.827 6.77 6.747 6.653 6.548 6.457 6.435 6.44 6.427 6.355 6.247 6.195 6.165 6.175 6.137 6.08 6.043 5.985 5.943 5.898 5.9 5.865 5.872 5.825 5.825 5.968 6.53 6.405 5.812 5.943 5.812 8.827 6.733 7.605 6.35 5.253 5.188 5.4 5.47 5.455 5.41 5.365 5.258 5.135 5.075 5.035 4.995 4.955 4.932 4.912 4.895 4.858 4.852 4.798 4.783 4.767 4.73 4.682 4.677 4.653 4.54 3.895 4.278 5.217 5.148 5.665 5.62 4.338 4.33 4.332 4.345 4.335 4.318 4.293 4.247 4.21 4.185 4.16 4.125 4.108 4.1 4.075 4.065 4.043 4.033 4.008 4.005 3.985 3.98 3.977 3.953 3.935 3.93 3.94 3.92 3.89 3.895 3.893 3.872 3.85 3.837 3.835 3.797 3.8 3.78 3.767 3.76 3.763 3.753 3.747 3.743 3.745 3.735 3.723 3.717 3.707 3.705 3.703 3.68 3.688 3.658 3.643 3.638 3.628 3.633 3.638 3.638 3.617 3.625 3.6 3.612 3.605 3.587 3.577 3.59 3.59 3.585 3.565 3.577 3.565 3.533 3.592 3.63 3.547 3.435 3.54 3.612 3.64 3.633 3.653 3.643 3.628 3.655 3.62 3.455 3.487 3.635 3.635 3.66 3.638 3.62 3.585 3.612 3.63 3.555 3.425 3.485 3.57 3.617 3.577 3.543 3.618 3.633 3.59 3.56 3.46 3.51 3.595 3.57 3.54
9.995 9.84 9.705 9.635 9.675 9.708 9.68 9.628 9.535 9.565 9.642 9.62 9.667 9.842 9.823 9.887 9.995 10.06 9.98 9.755 9.52 9.695 9.76 9.773 9.84 9.88 9.807 9.94 10.055 9.945 9.945 9.935 9.88 9.783 9.717 9.705 9.635 9.6 9.615 9.662 9.7 9.818 9.88 9.922 10.163 10.247 10.09 10.172 10.688 11.56 10.538 10.085 10.488 10.342 10.398 10.238 10.485 10.73 11.03 11.573 11.355 10.278 10.087 9.792 9.682 9.675 9.648 9.592 9.648 9.613 9.57 9.578 9.602 9.605 9.56 9.533 9.533 9.528 9.55 9.515 9.523 9.535 9.515 9.523 9.54 9.523 9.497 9.472 9.47 9.488 9.517 9.682 9.785 10.278 10.52 10.378 9.91 10.573 11.498 10.325 10.445 11.302 11.552 11.475 10.863 10.485 10.488 10.417 10.305 10.292 10.523 10.752 11.432 11.488 11.835 12.042 12.615 13.003 13.583 13.783 13.3 13.275 13.92 13.575 13.16 12.637 11.92 11.235 10.702 10.253 10.028 9.747 9.735 9.78 10.1 10.467 10.828 11.375 12.198 12.352 11.395 10.448 9.858 9.62 9.493 9.515 9.483 9.438 9.435 9.542 9.698 9.98 10.318 10.417 10.568 10.648 10.812 11.005 11.157 11.188 11.233 11.173 11.363 11.93 12.102 11.93 12.132 12.345 12.448 12.115 11.997 11.983 11.925 11.83 11.705 11.497 11.292 11.193 11.16 11.145 10.955 10.83 10.688 10.622 10.578 10.557 10.528 10.585 10.75 10.863 10.955 11.08 11.23 11.52 12.135 10.993 9.635 9.71 9.833 9.783 9.667 9.712 9.495 9.387 9.443 9.717 10.13 10.525 10.827 10.95 11.222 11.363 11.363 11.477 11.493 11.405 11.005 10.903 10.778 10.59 10.488 10.358 10.145 9.908 9.773 9.792 10.015 9.94 10.185 10.182 10.025 9.97 9.948 10.19 10.708 11.1 11.405 10.887 10.417 9.248 8.873 8.72 8.645 8.605 8.565 8.485 8.493 8.435 8.375 8.32 8.29 8.283 8.23 8.17 8.188 8.23 8.307 8.392 8.47 8.583 8.712 8.832 8.847 8.833 9.195 9.855 9.903 9.595 9.605 9.307 8.807 8.83 8.722 9.488 10.597 9.695 9.583 9.945 9.528 8.495 8.215 8.132 7.983 7.845 7.753 7.72 7.785 7.858 7.83 7.77 7.725 7.655 7.56 7.512 7.46 7.452 7.438 7.395 7.34 7.325 7.285 7.207 7.165 7.145 7.472 7.557 7.307 7.105 7.065 7.068 7.07 7.108 7.097 7.097 7.097 7.11 7.108 7.075 6.987 6.9 6.785 6.755 6.69 6.6 6.548 6.47 6.438 6.443 6.41 6.34 6.255 6.198 6.188 6.168 6.14 6.065 6.043 5.99 5.925 5.885 5.885 5.88 5.865 5.84 5.835 5.908 6.887 7.283 5.868 6.67 6.073 6.073 6.385 5.957 6.222 5.273 4.99 5.378 5.477 5.46 5.41 5.363 5.28 5.153 5.08 5.03 4.997 4.957 4.923 4.918 4.898 4.835 4.83 4.798 4.767 4.758 4.717 4.677 4.672 4.617 4.51 3.965 4.685 5.753 5.12 6.65 6.302 4.32 4.328 4.345 4.352 4.332 4.295 4.28 4.247 4.21 4.202 4.16 4.128 4.122 4.11 4.088 4.082 4.048 4.043 4.038 3.997 3.983 3.97 3.975 3.955 3.943 3.923 3.933 3.928 3.895 3.903 3.875 3.845 3.842 3.84 3.822 3.797 3.783 3.8 3.775 3.775 3.747 3.745 3.737 3.725 3.72 3.735 3.725 3.715 3.715 3.703 3.695 3.688 3.683 3.663 3.658 3.648 3.648 3.643 3.65 3.638 3.625 3.615 3.607 3.63 3.6 3.58 3.575 3.577 3.597 3.6 3.592 3.58 3.57 3.553 3.567 3.597 3.495 3.453 3.565 3.605 3.605 3.615 3.655 3.663 3.625 3.635 3.592 3.443 3.505 3.632 3.655 3.653 3.645 3.648 3.62 3.585 3.577 3.5 3.465 3.59 3.57 3.545 3.505 3.507 3.562 3.6 3.605 3.547 3.413 3.505 3.577 3.567 3.54
9.765 9.823 9.717 9.545 9.523 9.548 9.523 9.47 9.49 9.555 9.67 9.635 9.667 9.68 9.685 9.695 9.72 9.828 9.725 9.655 9.655 9.762 9.757 9.675 9.733 9.9 9.952 9.955 9.97 9.935 9.96 9.977 9.87 9.74 9.632 9.573 9.512 9.505 9.573 9.602 9.597 9.63 9.722 9.71 9.792 9.983 10.035 10.18 10.693 10.7 10.465 9.538 9.682 9.762 9.493 9.648 10.07 10.333 10.392 10.733 10.81 11.08 11.288 10.18 9.805 9.767 9.74 9.632 9.675 9.712 9.672 9.622 9.592 9.585 9.543 9.517 9.5 9.483 9.47 9.462 9.505 9.523 9.523 9.5 9.528 9.512 9.475 9.468 9.462 9.477 9.483 9.583 9.685 10.67 11.102 10.585 9.86 9.957 10.93 11.172 10.13 10.373 10.555 10.25 10.227 10.12 10.158 10.102 10.017 10.175 10.382 10.767 11.385 11.78 11.908 11.725 12.023 12.762 13.595 14.122 14.458 13.83 13.727 13.875 14.02 13.297 12.057 11.395 10.4 10.038 9.727 9.578 9.613 9.788 9.915 10.285 10.79 11.265 11.775 12.105 11.557 10.41 9.795 9.58 9.56 9.55 9.557 9.477 9.467 9.562 9.705 9.81 10.157 10.305 10.438 10.608 10.82 11.05 11.172 11.185 11.205 11.377 11.885 12.325 12.542 12.132 12.52 13.145 13.21 12.66 12.257 12 12.005 12.01 11.833 11.645 11.488 11.512 11.47 11.413 11.15 10.972 10.795 10.708 10.67 10.552 10.513 10.55 10.615 10.735 10.875 11.033 11.273 11.663 12.09 11.222 9.623 9.733 9.858 9.812 9.675 9.747 9.568 9.438 9.425 9.802 10.07 10.318 10.512 10.675 10.885 11.182 11.18 11.208 11.363 11.467 11.233 10.983 10.792 10.538 10.398 10.278 10.15 10.055 9.863 9.802 9.887 9.818 10.108 10.11 9.915 9.852 9.92 10.245 10.782 11.182 11.297 10.917 10.422 9.288 8.9 8.72 8.645 8.608 8.6 8.562 8.523 8.41 8.362 8.333 8.35 8.26 8.188 8.153 8.142 8.17 8.22 8.247 8.305 8.42 8.515 8.61 8.65 8.887 9.292 9.47 10.765 10.597 9.712 9.44 9.528 9.54 9.517 9.427 9.255 8.885 9.227 9.307 9.815 9.955 9.908 8.62 8.16 8.065 7.94 7.793 7.775 7.832 7.86 7.835 7.773 7.695 7.595 7.538 7.525 7.49 7.443 7.372 7.318 7.262 7.227 7.165 7.142 7.188 7.48 7.497 7.347 7.15 7.06 7.065 7.062 7.11 7.1 7.095 7.102 7.11 7.13 7.105 7.01 6.852 6.775 6.743 6.655 6.58 6.53 6.457 6.435 6.427 6.412 6.355 6.26 6.197 6.173 6.165 6.137 6.088 6.03 5.972 5.93 5.878 5.88 5.878 5.852 5.818 5.812 5.927 6.273 6.085 6.275 6.028 6.055 6.31 6.398 7.297 7.028 5.56 4.858 5.378 5.467 5.455 5.405 5.367 5.283 5.168 5.088 5.035 5.003 4.955 4.91 4.92 4.88 4.843 4.825 4.795 4.765 4.76 4.725 4.67 4.682 4.613 4.483 3.977 4.69 5.593 5.43 7.71 6.97 4.358 4.332 4.347 4.36 4.33 4.293 4.29 4.255 4.21 4.182 4.155 4.128 4.12 4.097 4.068 4.07 4.062 4.055 4.04 4.017 4.005 3.977 3.967 3.95 3.928 3.92 3.93 3.908 3.888 3.885 3.872 3.847 3.85 3.835 3.81 3.82 3.807 3.803 3.775 3.753 3.74 3.737 3.735 3.74 3.715 3.72 3.745 3.715 3.705 3.71 3.685 3.688 3.673 3.658 3.673 3.665 3.658 3.65 3.633 3.645 3.635 3.63 3.61 3.6 3.592 3.59 3.575 3.572 3.565 3.595 3.605 3.592 3.592 3.562 3.57 3.572 3.457 3.485 3.582 3.625 3.625 3.605 3.635 3.658 3.622 3.587 3.54 3.443 3.545 3.653 3.663 3.68 3.653 3.648 3.638 3.587 3.575 3.443 3.535 3.633 3.61 3.545 3.513 3.53 3.537 3.51 3.523 3.477 3.418 3.507 3.513 3.55 3.527
9.547 9.575 9.605 9.488 9.455 9.52 9.495 9.448 9.475 9.622 9.635 9.672 9.68 9.69 9.648 9.622 9.7 9.8 9.68 9.668 9.823 9.863 9.998 9.935 9.885 9.967 10.033 10.045 10.068 9.995 9.903 9.755 9.705 9.663 9.58 9.52 9.483 9.455 9.485 9.49 9.457 9.435 9.418 9.43 9.51 9.73 9.895 10.03 10.372 10.233 9.995 9.685 9.528 9.477 9.458 9.465 9.77 10.1 10.685 10.76 11.12 11.385 11.67 10.818 9.89 9.778 9.825 9.667 9.727 9.682 9.72 9.608 9.573 9.55 9.52 9.517 9.485 9.47 9.47 9.443 9.46 9.488 9.497 9.49 9.507 9.5 9.483 9.517 9.485 9.46 9.46 9.47 9.5 10.153 10.663 10.358 10.015 9.825 10.863 12.017 10.613 10.175 11.438 10.215 9.83 9.91 10.385 9.995 9.885 9.932 10.155 10.565 11.217 11.927 12.057 11.747 12.135 12.63 13.273 14.172 14.827 14.9 14.315 14.535 14.288 13.035 11.895 11.012 10.387 10.13 9.65 9.53 9.575 9.752 9.885 10.17 10.852 11.078 11.375 11.307 10.667 10.087 9.608 9.528 9.477 9.408 9.493 9.408 9.363 9.498 9.698 9.868 10.055 10.253 10.365 10.595 10.83 10.948 11.1 11.327 11.427 11.543 11.807 12.165 12.33 12.315 12.837 13.477 13.783 13.023 12.637 12.278 12.005 11.98 11.892 11.805 11.677 11.78 11.66 11.55 11.302 11.045 10.852 10.727 10.653 10.59 10.52 10.525 10.575 10.583 10.715 10.855 10.988 11.297 11.798 11.453 9.672 9.735 9.872 9.833 9.67 9.748 9.625 9.465 9.455 9.823 10.09 10.15 10.243 10.445 10.655 10.898 10.99 10.938 11.06 11.28 11.265 11.012 10.795 10.61 10.38 10.212 10.108 10.865 9.74 9.725 9.78 9.77 9.993 9.988 9.868 9.847 10.007 10.375 10.837 11.145 11.525 11.238 10.59 9.297 8.932 8.755 8.655 8.618 8.625 8.557 8.49 8.403 8.352 8.283 8.267 8.227 8.155 8.13 8.125 8.135 8.153 8.182 8.25 8.27 8.363 8.432 8.56 8.905 9.812 8.565 9.132 9.438 10.013 9.467 10.142 9.47 9.618 8.903 9.34 9.35 9.017 8.905 9.375 9.997 10.028 10.135 9.215 8.398 8.128 7.957 7.84 7.83 7.852 7.868 7.83 7.767 7.698 7.64 7.6 7.523 7.465 7.418 7.328 7.247 7.215 7.172 7.148 7.22 7.503 7.51 7.34 7.145 7.045 7.043 7.043 7.073 7.077 7.088 7.102 7.11 7.12 7.092 6.983 6.918 6.81 6.758 6.642 6.59 6.548 6.47 6.418 6.412 6.398 6.332 6.25 6.185 6.175 6.155 6.155 6.095 6.028 5.977 5.912 5.86 5.865 5.858 5.832 5.82 5.81 5.965 5.875 6.273 6.637 6.62 6.762 6.945 7.212 6.057 8.84 5.842 4.693 5.363 5.438 5.463 5.408 5.375 5.303 5.17 5.09 5.035 5 4.96 4.915 4.918 4.887 4.852 4.815 4.785 4.765 4.758 4.713 4.685 4.695 4.635 4.517 4.102 4.91 5.097 5.18 6.052 4.87 4.363 4.342 4.332 4.338 4.33 4.305 4.3 4.25 4.195 4.185 4.17 4.145 4.118 4.093 4.07 4.06 4.035 4.02 4.025 4.023 3.99 3.97 3.977 3.953 3.943 3.918 3.923 3.903 3.888 3.88 3.875 3.852 3.86 3.858 3.84 3.832 3.807 3.815 3.78 3.773 3.773 3.747 3.743 3.74 3.727 3.71 3.725 3.717 3.7 3.715 3.693 3.693 3.693 3.675 3.673 3.65 3.643 3.633 3.64 3.628 3.643 3.635 3.615 3.602 3.595 3.585 3.572 3.565 3.56 3.575 3.595 3.602 3.587 3.57 3.572 3.535 3.44 3.535 3.595 3.62 3.62 3.602 3.597 3.612 3.61 3.592 3.485 3.45 3.575 3.633 3.64 3.663 3.65 3.65 3.63 3.592 3.553 3.423 3.572 3.615 3.592 3.56 3.565 3.585 3.6 3.513 3.453 3.42 3.48 3.572 3.523 3.53 3.555
9.445 9.38 9.425 9.415 9.425 9.468 9.458 9.46 9.55 9.632 9.625 9.76 9.847 9.82 9.828 9.745 9.77 9.898 9.818 9.895 9.872 9.932 10.087 10.24 10.243 10.172 10.238 10.288 10.255 10.087 9.99 9.757 9.642 9.592 9.443 9.467 9.517 9.467 9.465 9.47 9.438 9.35 9.31 9.295 9.302 9.34 9.405 9.573 9.837 9.868 9.708 9.62 9.425 9.293 9.377 9.483 9.52 9.608 9.785 9.97 10.613 11.305 11.722 11.065 10.123 9.81 9.783 9.733 9.7 9.667 9.675 9.608 9.55 9.523 9.5 9.49 9.46 9.445 9.465 9.44 9.47 9.485 9.49 9.477 9.495 9.517 9.535 9.507 9.475 9.452 9.427 9.41 9.407 9.443 9.57 9.812 9.807 9.752 9.975 10.765 10.375 10.045 10.155 9.872 9.812 9.797 10.225 9.995 9.833 9.845 10 10.403 11.012 11.842 12.455 12.64 12.995 13.493 13.952 14.565 14.943 14.863 14.847 14.497 13.665 12.475 11.6 10.767 10.35 10.113 9.523 9.385 9.488 9.673 9.773 9.762 10.055 10.298 10.278 10.128 9.855 9.827 9.57 9.44 9.385 9.365 9.35 9.337 9.34 9.56 9.725 9.92 10.03 10.035 10.267 10.562 10.74 10.972 11.257 11.613 11.635 11.472 11.545 11.795 12.155 12.43 12.75 13.245 13.667 13.905 12.917 12.523 12.113 11.98 12.033 11.972 11.797 11.71 11.595 11.495 11.432 11.18 10.948 10.872 10.845 10.74 10.755 10.648 10.727 10.67 10.63 10.855 11.208 11.182 12.177 11.265 9.667 9.725 9.885 9.847 9.665 9.7 9.59 9.43 9.533 9.872 10.115 10.102 10.17 10.395 10.667 10.805 10.812 10.763 10.82 10.967 11.08 10.898 10.753 10.548 10.253 10.11 10.045 9.89 9.517 9.545 9.672 9.708 9.885 9.913 9.913 9.95 10.182 10.67 11.12 11.337 11.445 11.347 10.953 9.573 8.917 8.773 8.677 8.635 8.562 8.488 8.41 8.36 8.302 8.275 8.238 8.19 8.14 8.145 8.148 8.135 8.148 8.157 8.163 8.163 8.278 8.363 8.715 9.105 9.275 8.12 8.025 7.998 8.162 9.235 9.823 9.31 9.783 8.99 9.49 9.74 8.845 9.025 8.957 9.485 10.225 9.82 9.895 9.918 9.38 8.672 8.275 7.875 7.875 7.88 7.875 7.843 7.818 7.722 7.685 7.588 7.472 7.4 7.33 7.26 7.24 7.182 7.173 7.338 7.545 7.497 7.298 7.115 7.05 7.048 7.04 7.082 7.062 7.065 7.113 7.113 7.097 7.015 6.992 6.948 6.81 6.722 6.65 6.588 6.543 6.49 6.43 6.412 6.398 6.343 6.255 6.19 6.162 6.142 6.148 6.09 6.078 6.365 6.403 5.86 5.845 5.852 5.83 5.807 5.79 6.025 5.825 6.122 6.432 6.615 6.967 6.32 5.912 5.988 7.637 6.215 4.54 5.318 5.43 5.457 5.4 5.36 5.318 5.205 5.088 5.05 5 4.957 4.918 4.918 4.89 4.863 4.807 4.793 4.765 4.753 4.72 4.685 4.688 4.618 4.562 4 4.475 4.682 5.155 5.13 4.875 4.34 4.34 4.332 4.345 4.338 4.305 4.293 4.242 4.217 4.188 4.16 4.133 4.115 4.105 4.09 4.073 4.065 4.038 4.017 4 3.973 3.975 3.985 3.957 3.943 3.908 3.923 3.938 3.908 3.882 3.86 3.842 3.842 3.85 3.825 3.82 3.8 3.777 3.773 3.77 3.78 3.75 3.763 3.767 3.735 3.725 3.72 3.723 3.707 3.71 3.695 3.68 3.678 3.675 3.673 3.66 3.653 3.648 3.653 3.635 3.635 3.64 3.628 3.602 3.6 3.597 3.58 3.577 3.557 3.56 3.575 3.575 3.553 3.547 3.537 3.49 3.445 3.567 3.59 3.595 3.62 3.63 3.63 3.625 3.602 3.575 3.44 3.49 3.572 3.638 3.587 3.612 3.61 3.607 3.602 3.575 3.51 3.435 3.595 3.58 3.61 3.585 3.585 3.612 3.645 3.595 3.5 3.405 3.52 3.6 3.562 3.547 3.547
9.47 9.372 9.38 9.363 9.443 9.46 9.395 9.458 9.642 9.72 9.747 9.712 9.78 9.812 9.835 9.84 9.878 9.97 9.952 9.9 9.84 10.012 10.198 10.448 10.592 10.42 10.49 10.55 10.512 10.34 10.297 10.04 9.83 9.722 9.613 9.583 9.57 9.538 9.605 9.43 9.385 9.3 9.278 9.235 9.215 9.257 9.225 9.333 9.515 9.583 9.465 9.415 9.38 9.36 9.493 9.498 9.52 9.488 9.597 9.87 10.44 11 11.203 11.125 10.472 9.993 9.775 9.75 9.785 9.695 9.66 9.578 9.545 9.533 9.507 9.507 9.5 9.445 9.485 9.425 9.455 9.468 9.47 9.477 9.493 9.517 9.515 9.475 9.462 9.45 9.448 9.415 9.347 9.347 9.37 9.54 9.738 9.882 9.837 9.847 9.828 9.69 9.693 9.642 9.677 9.73 9.945 9.67 9.797 9.818 9.927 10.278 10.632 11.462 12.547 13.212 13.815 14.342 14.677 14.783 14.04 13.91 14.333 13.71 12.855 11.96 11.15 10.385 10.205 9.802 9.423 9.285 9.438 9.545 9.515 9.468 9.578 9.67 9.548 9.472 9.398 9.432 9.37 9.387 9.352 9.387 9.368 9.288 9.355 9.455 9.613 9.773 9.865 9.997 10.247 10.555 10.833 11.142 11.542 12.327 12.142 11.667 11.443 11.488 11.667 11.958 12.448 12.878 13.375 13.863 12.778 12.39 12.23 11.983 11.837 11.797 11.872 11.765 11.632 11.595 11.575 11.32 11.078 10.997 11.05 11.023 10.958 10.815 10.815 10.878 10.83 11.062 11.455 11.253 11.903 11.333 9.548 9.76 9.892 9.875 9.68 9.735 9.672 9.552 9.613 9.792 9.975 10.02 10.163 10.425 10.685 10.708 10.628 10.637 10.71 10.805 10.778 10.635 10.523 10.307 10.12 9.935 9.84 9.593 9.342 9.413 9.585 9.675 9.825 9.892 9.91 10.08 10.427 10.9 11.26 11.432 11.007 10.59 10.295 9.448 8.91 8.757 8.672 8.597 8.528 8.45 8.4 8.33 8.292 8.245 8.222 8.193 8.175 8.148 8.145 8.148 8.145 8.145 8.128 8.167 8.642 8.405 9.707 11.3 8.33 8.028 7.925 7.91 7.927 7.745 8.528 8.983 9.307 9.358 9.49 8.847 9.273 9.132 8.533 9.205 9.305 9.6 9.66 10.15 10.34 9.84 9.547 8.767 8.04 7.93 7.95 7.922 7.86 7.815 7.793 7.717 7.55 7.423 7.332 7.293 7.24 7.22 7.227 7.392 7.625 7.508 7.278 7.108 7.06 7.062 7.055 7.06 7.055 7.06 7.097 7.075 7.057 6.992 7.025 6.932 6.785 6.702 6.625 6.585 6.55 6.49 6.447 6.405 6.412 6.343 6.278 6.207 6.153 6.14 6.135 6.188 6.693 6.273 7.182 6.095 5.852 5.87 5.832 5.818 6.003 5.88 5.883 6.015 5.92 5.945 5.785 6.065 6.903 6.908 6.673 6.05 4.46 5.293 5.385 5.427 5.418 5.375 5.305 5.207 5.105 5.052 4.995 4.97 4.92 4.915 4.883 4.847 4.79 4.778 4.76 4.753 4.722 4.695 4.693 4.625 4.56 5.68 5.12 5.215 4.775 4.943 4.418 4.403 4.375 4.34 4.32 4.312 4.285 4.298 4.26 4.202 4.19 4.168 4.145 4.12 4.082 4.085 4.08 4.057 4.04 4.015 3.993 3.975 3.985 3.96 3.93 3.935 3.918 3.903 3.915 3.885 3.872 3.857 3.862 3.855 3.827 3.812 3.812 3.815 3.767 3.783 3.765 3.77 3.757 3.755 3.727 3.723 3.727 3.73 3.697 3.705 3.705 3.697 3.685 3.68 3.673 3.675 3.675 3.653 3.64 3.655 3.643 3.638 3.633 3.612 3.607 3.6 3.6 3.582 3.575 3.59 3.555 3.55 3.553 3.555 3.575 3.567 3.47 3.455 3.565 3.565 3.575 3.6 3.61 3.617 3.622 3.592 3.517 3.44 3.547 3.572 3.602 3.587 3.602 3.625 3.63 3.567 3.562 3.46 3.455 3.557 3.585 3.62 3.61 3.585 3.618 3.643 3.638 3.527 3.41 3.48 3.525 3.555 3.592 3.57
9.425 9.422 9.388 9.403 9.512 9.51 9.385 9.45 9.587 9.69 9.722 9.715 9.755 9.8 9.79 9.833 9.85 9.97 9.88 9.877 9.845 10.07 10.438 10.59 10.66 10.632 10.665 10.693 10.688 10.618 10.477 10.4 10.09 9.997 9.788 9.68 9.663 9.612 9.568 9.452 9.36 9.333 9.312 9.307 9.292 9.3 9.29 9.295 9.385 9.39 9.345 9.37 9.405 9.38 9.538 9.613 9.555 9.565 9.552 9.815 10.14 10.78 11.292 11.112 10.403 10.455 10.11 9.85 9.763 9.695 9.68 9.622 9.573 9.538 9.477 9.477 9.455 9.44 9.438 9.44 9.445 9.477 9.477 9.477 9.497 9.5 9.487 9.472 9.45 9.423 9.403 9.36 9.372 9.3 9.328 9.398 9.5 9.688 9.845 9.97 9.9 9.765 9.565 9.597 9.602 9.645 9.63 9.61 9.702 9.722 9.773 10.007 10.142 10.91 12.23 13.137 14.033 14.56 14.497 14.05 13.195 13.312 13.655 12.843 11.85 11.045 10.288 9.94 9.81 9.597 9.4 9.307 9.355 9.288 9.247 9.3 9.243 9.193 9.148 9.102 9.085 9.09 9.1 9.165 9.247 9.278 9.273 9.27 9.378 9.513 9.547 9.705 9.82 10.02 10.305 10.613 11.253 11.615 12.052 12.635 12.273 11.915 11.818 11.747 11.837 11.98 12.375 12.885 13.278 13.222 12.392 12.2 12.102 11.825 11.712 11.823 12.087 12.083 11.86 11.743 11.672 11.475 11.257 11.185 11.32 11.21 11.215 11.083 10.878 11.248 11.22 11.267 11.245 11.005 11.453 11.403 9.495 9.815 9.892 9.898 9.708 9.745 9.708 9.685 9.738 9.877 9.913 10.023 10.292 10.525 10.597 10.575 10.608 10.578 10.593 10.585 10.52 10.507 10.285 10.05 9.882 9.738 9.623 9.373 9.267 9.403 9.578 9.63 9.812 9.903 9.91 10.218 10.585 11.02 11.375 11.023 10.335 9.785 10.41 9.382 8.935 8.767 8.635 8.535 8.495 8.408 8.375 8.307 8.26 8.243 8.24 8.185 8.173 8.155 8.153 8.16 8.155 8.108 8.14 8.167 8.34 8.542 9.767 9.695 8.035 7.96 7.912 7.923 7.94 7.935 7.883 7.678 7.885 8.507 9.22 8.983 8.757 9.64 8.77 8.958 8.658 8.995 9.105 9.642 9.292 9.48 9.595 10.065 9.3 8.395 7.962 7.943 7.943 7.89 7.827 7.745 7.628 7.52 7.415 7.312 7.275 7.253 7.312 7.738 8.725 7.892 7.29 7.132 7.097 7.227 7.145 7.07 7.07 7.075 7.108 7.1 7.045 6.995 6.967 6.885 6.77 6.7 6.615 6.585 6.528 6.455 6.432 6.423 6.41 6.375 6.267 6.207 6.188 6.145 6.148 6.365 6.207 7.867 8.645 6.655 5.852 5.865 5.85 5.875 6.092 6.003 5.925 7.038 5.988 6.495 5.967 6.582 6.163 6.265 6.037 5.895 4.455 5.207 5.358 5.415 5.412 5.37 5.3 5.227 5.11 5.045 4.992 4.975 4.922 4.912 4.887 4.85 4.805 4.775 4.742 4.74 4.705 4.688 4.68 4.625 4.548 5.815 5.37 4.525 4.668 4.712 4.472 4.405 4.367 4.35 4.318 4.3 4.283 4.31 4.27 4.233 4.202 4.17 4.128 4.102 4.097 4.095 4.09 4.075 4.048 4.028 4.003 3.977 3.975 3.955 3.933 3.91 3.892 3.867 3.872 3.88 3.872 3.882 3.86 3.852 3.842 3.82 3.817 3.81 3.775 3.763 3.767 3.78 3.755 3.75 3.75 3.73 3.713 3.725 3.717 3.725 3.703 3.705 3.7 3.688 3.688 3.683 3.665 3.668 3.65 3.658 3.638 3.63 3.622 3.612 3.612 3.61 3.6 3.587 3.572 3.59 3.56 3.577 3.562 3.582 3.565 3.533 3.433 3.477 3.56 3.56 3.57 3.575 3.602 3.605 3.602 3.575 3.473 3.44 3.543 3.585 3.56 3.547 3.58 3.625 3.64 3.597 3.58 3.438 3.503 3.582 3.622 3.625 3.625 3.587 3.592 3.653 3.66 3.52 3.43 3.505 3.52 3.547 3.595 3.597
9.432 9.395 9.37 9.403 9.432 9.472 9.415 9.5 9.583 9.665 9.688 9.72 9.705 9.705 9.788 9.835 9.823 9.76 9.837 9.775 9.993 10.245 10.47 10.65 10.863 10.905 10.837 10.78 10.878 10.837 10.708 10.72 10.505 10.212 9.96 9.75 9.698 9.685 9.618 9.545 9.462 9.41 9.392 9.37 9.355 9.347 9.38 9.373 9.4 9.37 9.395 9.422 9.432 9.477 9.47 9.615 9.595 9.62 9.632 9.625 9.932 10.62 11.34 10.847 10.67 11.432 11.655 10.4 9.858 9.773 9.703 9.665 9.627 9.555 9.475 9.49 9.445 9.435 9.45 9.455 9.445 9.47 9.468 9.495 9.525 9.51 9.51 9.467 9.455 9.432 9.352 9.257 9.24 9.238 9.29 9.445 9.557 9.615 9.68 9.725 9.637 9.54 9.53 9.568 9.585 9.602 9.59 9.715 9.622 9.747 9.655 9.812 9.93 10.435 11.158 11.913 12.775 13.425 13.198 13.517 13.675 13.68 13.202 11.783 10.995 10.32 10.065 9.77 9.562 9.392 9.27 9.175 9.18 9.13 9.11 9.057 8.99 9.007 8.985 8.975 9.013 9.025 9.092 9.153 9.188 9.267 9.26 9.217 9.255 9.41 9.65 9.81 9.95 10.135 10.42 10.917 11.585 12.078 12.432 12.762 12.48 12.05 12.11 12.288 12.25 12.257 12.465 12.913 13.355 12.863 12.122 12.52 12.26 11.887 11.555 11.648 11.858 12.035 11.923 11.892 11.83 11.635 11.47 11.405 11.403 11.337 11.315 11.483 10.938 11.028 10.93 11.092 10.923 10.863 11.188 11.585 9.615 9.847 9.892 9.922 9.73 9.778 9.733 9.727 9.812 10.905 10.405 10.057 10.352 10.597 10.695 10.682 10.625 10.65 10.577 10.46 10.315 10.31 10.21 9.943 9.727 9.635 9.475 9.302 9.29 9.415 9.578 9.625 9.805 9.93 9.955 10.193 10.625 11.09 11.32 11.073 10.645 10.215 10.095 9.385 8.913 8.75 8.627 8.547 8.452 8.413 8.355 8.298 8.265 8.227 8.235 8.217 8.185 8.175 8.16 8.15 8.135 8.118 8.153 8.225 8.578 9.74 9.247 8.078 7.99 7.932 7.93 7.912 7.87 7.878 7.842 7.818 7.747 7.557 7.642 8.595 9.512 9.49 9.1 8.568 8.403 9.927 8.595 9.033 9.497 9.118 9.605 9.245 9.815 9.555 9.222 8.398 7.985 7.95 7.865 7.78 7.67 7.59 7.495 7.378 7.3 7.255 7.293 7.565 7.902 8.023 7.287 7.128 7.202 7.878 9.257 7.085 7.082 7.082 7.125 7.113 7.057 7.003 6.943 6.855 6.76 6.675 6.592 6.56 6.525 6.472 6.423 6.405 6.408 6.355 6.275 6.207 6.177 6.157 6.142 6.392 6.778 7.71 7.858 6.338 5.847 5.855 5.823 6.352 6.405 5.883 5.967 6.003 6.113 7.398 6.3 5.84 8.307 8.925 7.702 6.39 4.963 5.012 5.355 5.4 5.412 5.343 5.328 5.24 5.118 5.048 4.997 4.962 4.927 4.91 4.885 4.855 4.812 4.788 4.735 4.727 4.702 4.69 4.677 4.62 4.475 5.665 5.04 4.957 4.685 4.76 4.49 4.412 4.363 4.363 4.34 4.305 4.273 4.278 4.262 4.22 4.2 4.18 4.142 4.122 4.128 4.102 4.075 4.068 4.035 4.005 3.995 3.97 3.955 3.955 3.93 3.91 3.903 3.903 3.89 3.86 3.842 3.85 3.85 3.842 3.837 3.817 3.807 3.805 3.8 3.777 3.797 3.773 3.753 3.755 3.76 3.75 3.715 3.72 3.723 3.705 3.703 3.703 3.715 3.71 3.705 3.688 3.683 3.673 3.658 3.645 3.645 3.62 3.62 3.612 3.6 3.6 3.587 3.587 3.575 3.585 3.57 3.565 3.572 3.565 3.572 3.487 3.425 3.543 3.592 3.555 3.582 3.55 3.582 3.595 3.605 3.572 3.433 3.463 3.57 3.605 3.547 3.533 3.56 3.612 3.63 3.612 3.527 3.433 3.54 3.587 3.615 3.622 3.6 3.56 3.557 3.628 3.635 3.485 3.503 3.57 3.567 3.59 3.56 3.545
9.535 9.435 9.365 9.365 9.395 9.438 9.503 9.497 9.497 9.542 9.568 9.538 9.538 9.64 9.682 9.762 9.797 9.743 9.79 9.885 10.087 10.325 10.503 10.685 10.807 10.905 10.977 10.972 10.96 11.012 10.958 10.885 10.69 10.503 10.3 10.24 10.275 10.142 9.958 9.715 9.695 9.677 9.64 9.655 9.602 9.557 9.485 9.455 9.44 9.503 9.472 9.517 9.515 9.525 9.5 9.57 9.618 9.708 9.755 9.712 9.948 10.497 11.102 11.507 10.597 11.297 12.375 10.842 10.03 9.805 9.738 9.653 9.665 9.623 9.55 9.51 9.47 9.448 9.46 9.458 9.455 9.477 9.493 9.49 9.495 9.53 9.505 9.498 9.517 9.49 9.43 9.355 9.333 9.278 9.34 9.47 9.642 9.698 9.48 9.415 9.445 9.545 9.545 9.548 9.58 9.655 9.61 9.72 9.753 9.685 9.665 9.745 9.79 9.967 10.307 10.79 11.423 11.842 11.96 12.288 12.465 12.36 11.852 10.94 10.61 10.278 10.137 10.05 9.545 9.34 9.315 9.375 9.323 9.425 9.35 9.29 9.13 9.003 9.003 9.04 9.13 9.182 9.095 9.113 9.17 9.132 9.217 9.255 9.408 9.615 9.93 10.052 10.05 10.37 10.807 11.382 11.735 12.087 12.562 12.927 12.717 12.548 12.425 12.592 12.755 12.905 12.77 12.497 12.823 12.092 11.73 12.025 11.722 11.632 11.523 11.58 11.653 11.783 11.833 11.86 11.842 11.685 11.528 11.54 11.565 11.455 11.422 11.595 11.13 10.882 10.955 10.898 10.87 10.84 11.28 11.727 9.7 9.94 9.892 9.943 9.77 9.785 9.762 9.717 9.885 9.868 9.852 9.995 10.233 10.407 10.55 10.573 10.568 10.602 10.505 10.455 10.275 10.055 9.962 9.86 9.665 9.548 9.445 9.307 9.262 9.36 9.48 9.578 9.75 9.93 9.997 10.243 10.735 11.145 11.352 10.95 10.722 10.273 10.315 9.167 8.845 8.698 8.628 8.5 8.432 8.395 8.352 8.297 8.253 8.25 8.262 8.235 8.2 8.15 8.173 8.153 8.125 8.128 8.255 8.875 9.445 9.545 8.408 7.975 7.927 7.898 7.908 7.84 7.795 7.775 7.757 7.727 7.705 7.67 7.65 7.523 7.637 8.123 8.648 8.54 8.667 10.635 10.93 9.01 8.64 8.938 10.395 9.503 9.575 9.785 9.812 9.278 8.925 8.13 7.89 7.852 7.73 7.622 7.562 7.42 7.28 7.25 7.287 7.715 7.635 7.445 7.262 7.165 8.34 7.372 7.315 7.055 7.048 7.095 7.088 7.108 7.043 6.993 6.925 6.85 6.743 6.668 6.6 6.545 6.51 6.472 6.432 6.438 6.41 6.363 6.278 6.217 6.175 6.15 6.135 6.105 6.12 6.807 6.33 5.878 5.832 5.885 5.835 6.735 6.52 6.137 6.715 5.898 5.863 7.88 8.415 6.09 7.773 8.602 9.142 6.325 5.44 4.72 5.325 5.4 5.39 5.367 5.332 5.24 5.122 5.045 5.007 4.962 4.92 4.898 4.88 4.852 4.81 4.775 4.75 4.735 4.715 4.69 4.675 4.62 4.47 4.905 5.23 5.23 5.58 5.31 4.54 4.398 4.375 4.347 4.328 4.305 4.267 4.253 4.227 4.22 4.175 4.162 4.145 4.12 4.118 4.09 4.073 4.043 4.037 4.028 4.01 3.977 3.967 3.965 3.947 3.918 3.913 3.913 3.883 3.86 3.85 3.852 3.855 3.822 3.817 3.822 3.842 3.835 3.835 3.775 3.785 3.785 3.76 3.765 3.745 3.727 3.717 3.727 3.73 3.717 3.715 3.713 3.715 3.713 3.7 3.69 3.695 3.685 3.663 3.66 3.64 3.6 3.57 3.6 3.612 3.595 3.61 3.59 3.605 3.587 3.582 3.59 3.595 3.572 3.557 3.475 3.425 3.562 3.595 3.555 3.58 3.55 3.597 3.58 3.592 3.527 3.403 3.503 3.59 3.602 3.57 3.59 3.58 3.577 3.605 3.618 3.497 3.453 3.612 3.61 3.58 3.62 3.62 3.57 3.517 3.565 3.567 3.438 3.54 3.607 3.605 3.592 3.555 3.53
9.672 9.408 9.378 9.387 9.36 9.448 9.505 9.495 9.458 9.458 9.525 9.53 9.51 9.605 9.68 9.71 9.71 9.72 9.73 9.92 10.17 10.363 10.548 10.688 10.738 10.905 11.025 11.075 11.163 11.158 11.068 10.958 10.802 10.668 10.488 10.608 10.828 10.84 10.613 10.435 10.108 10.157 10.39 10.417 10.185 10.052 9.882 9.743 9.615 9.61 9.628 9.59 9.613 9.67 9.627 9.637 9.712 9.725 9.765 9.833 10.205 10.352 10.88 11.253 10.472 10.398 11.068 10.658 9.995 9.875 10.09 10.345 9.655 9.68 9.6 9.56 9.503 9.48 9.477 9.477 9.47 9.49 9.493 9.507 9.55 9.592 9.523 9.545 9.7 10.092 9.73 9.568 9.525 9.523 9.452 9.39 9.542 9.645 9.55 9.552 9.5 9.47 9.51 9.49 9.503 9.517 9.677 9.727 9.645 9.53 9.47 9.528 9.642 9.562 9.71 9.935 10.345 10.54 10.59 11.007 11.127 11.017 10.727 10.458 10.395 10.337 9.692 10.052 9.497 9.333 9.267 9.347 9.25 9.352 9.46 9.387 9.352 9.275 9.167 9.233 9.288 9.408 9.11 9.045 9.042 9.095 9.217 9.39 9.565 9.795 10.045 10.095 10.368 10.895 11.395 11.747 12.003 12.243 12.625 13.128 13.265 12.965 13.16 13.18 13.125 13.328 13.212 12.705 12.262 11.998 11.702 11.568 11.432 11.435 11.502 11.597 11.655 11.77 11.785 11.785 11.775 11.735 11.525 11.438 11.48 11.747 11.555 11.485 11.28 10.83 10.747 10.76 10.715 10.71 11.438 11.727 9.568 9.943 9.878 9.967 9.788 9.812 9.818 9.76 9.903 9.873 9.807 9.99 10.262 10.37 10.435 10.493 10.475 10.445 10.358 10.283 10.135 9.965 9.827 9.745 9.61 9.452 9.368 9.295 9.247 9.24 9.315 9.48 9.663 9.935 10.093 10.325 10.752 11.175 11.293 10.932 10.552 10.278 9.658 9.012 8.788 8.635 8.573 8.475 8.432 8.382 8.33 8.295 8.26 8.273 8.25 8.225 8.205 8.16 8.145 8.12 8.13 8.275 8.525 8.27 9.845 9.38 7.965 7.923 7.88 7.887 7.852 7.815 7.778 7.698 7.65 7.648 7.633 7.628 7.605 7.588 7.597 7.515 7.408 8.035 8.693 9.167 9.337 8.645 8.89 9.055 9.488 9.13 8.403 9.34 9.28 9.63 9.55 9.16 8.648 8.185 7.835 7.725 7.588 7.355 7.26 7.255 7.285 7.787 8.113 7.455 7.258 7.115 7.613 7.905 8.257 7.262 7.05 7.08 7.057 7.073 7.038 7.008 6.923 6.835 6.707 6.655 6.565 6.523 6.47 6.472 6.425 6.403 6.385 6.37 6.293 6.207 6.18 6.157 6.153 6.118 6.043 6.003 5.92 5.878 5.847 5.87 5.815 6.5 5.977 6.01 8 5.832 9.385 6.477 6.932 6.148 5.75 9.485 8.2 5.923 6.097 4.585 5.303 5.378 5.372 5.387 5.303 5.242 5.148 5.045 4.99 4.955 4.92 4.887 4.865 4.855 4.815 4.775 4.765 4.733 4.74 4.695 4.665 4.617 4.505 4.283 5.347 4.688 4.725 4.812 4.5 4.38 4.35 4.325 4.31 4.318 4.293 4.253 4.23 4.213 4.177 4.153 4.13 4.108 4.09 4.08 4.057 4.035 4.01 4 3.983 3.977 3.963 3.943 3.938 3.94 3.928 3.915 3.895 3.878 3.872 3.865 3.837 3.822 3.825 3.8 3.797 3.812 3.8 3.763 3.755 3.77 3.765 3.757 3.743 3.73 3.727 3.725 3.727 3.713 3.71 3.693 3.688 3.68 3.665 3.673 3.675 3.678 3.665 3.663 3.65 3.58 3.52 3.553 3.61 3.602 3.587 3.592 3.615 3.59 3.607 3.6 3.587 3.58 3.557 3.463 3.477 3.553 3.582 3.565 3.54 3.553 3.597 3.562 3.55 3.47 3.41 3.537 3.587 3.58 3.572 3.595 3.58 3.555 3.567 3.58 3.475 3.495 3.602 3.607 3.572 3.575 3.587 3.575 3.53 3.507 3.483 3.42 3.545 3.58 3.57 3.547 3.555 3.567
9.852 9.462 9.43 9.4 9.44 9.465 9.485 9.51 9.535 9.502 9.562 9.65 9.665 9.733 9.745 9.745 9.75 9.69 9.708 9.78 10.038 10.165 10.307 10.53 10.685 10.778 10.965 11.14 11.165 11.22 11.07 11.038 10.802 10.645 10.438 10.54 10.735 10.927 11.16 11.148 10.938 10.985 11.102 11.262 10.995 10.892 10.715 10.408 10.212 9.882 9.795 9.688 9.685 9.77 9.762 9.818 9.852 9.95 9.963 10.108 10.273 10.285 10.55 10.615 10.452 10.172 10.51 10.262 9.895 10.122 9.915 9.715 9.693 9.71 9.745 9.613 9.56 9.517 9.507 9.488 9.487 9.497 9.542 9.538 9.557 9.625 9.54 9.587 9.743 10.032 9.89 9.898 9.807 9.65 9.385 9.328 9.398 9.54 9.602 9.73 9.573 9.51 9.523 9.488 9.415 9.392 9.415 9.403 9.395 9.38 9.34 9.323 9.347 9.425 9.523 9.51 9.602 9.53 9.597 9.898 10.18 10.405 10.267 10.273 10.03 9.86 9.455 9.278 9.167 9.29 9.148 9.142 9.22 9.295 9.4 9.385 9.34 9.235 9.265 9.227 9.177 9.115 8.972 8.972 9.04 9.155 9.33 9.5 9.67 9.94 10.142 10.19 10.655 11.265 11.73 12.017 12.417 12.935 13.31 13.77 14.045 13.878 14.14 13.725 13.4 13.267 12.93 12.73 12.33 11.91 11.59 11.472 11.392 11.422 11.505 11.562 11.717 11.745 11.855 11.812 11.695 11.648 11.47 11.318 11.3 11.302 11.39 11.405 11.123 10.858 10.72 10.717 10.66 10.68 11.52 11.823 9.6 9.915 9.872 9.967 9.807 9.843 9.84 9.79 9.843 9.835 9.805 9.925 10.195 10.35 10.423 10.445 10.413 10.34 10.298 10.23 10.113 10.003 9.842 9.685 9.568 9.418 9.337 9.305 9.275 9.238 9.22 9.358 9.528 9.93 10.252 10.545 10.773 11.052 11.052 10.637 10.155 9.602 9.195 8.913 8.727 8.538 8.467 8.467 8.43 8.36 8.297 8.302 8.275 8.288 8.265 8.222 8.182 8.163 8.135 8.113 8.155 8.293 8.438 8.913 9.19 8.157 7.935 7.878 7.843 7.842 7.783 7.73 7.702 7.668 7.62 7.602 7.595 7.61 7.58 7.555 7.543 7.535 7.562 7.47 7.372 7.895 9.085 9.315 9.215 8.43 9.02 8.783 8.267 10.158 8.515 9.498 9.722 9.917 8.977 8.975 8.543 8.085 7.762 7.432 7.283 7.273 7.255 7.395 7.45 7.78 7.255 7.865 10.02 8.663 8.26 7.727 7.738 7.028 7.017 7.005 7.017 6.977 6.892 6.81 6.71 6.605 6.555 6.512 6.465 6.463 6.42 6.398 6.38 6.352 6.285 6.215 6.17 6.168 6.165 6.11 6.048 5.975 5.932 5.878 5.852 5.892 5.845 5.962 5.915 6.432 6.582 6.215 5.76 5.668 6.133 6.235 6.69 6.253 7.12 6.415 7.048 4.543 5.267 5.375 5.39 5.37 5.3 5.243 5.155 5.045 5.003 4.977 4.93 4.895 4.868 4.855 4.805 4.78 4.765 4.747 4.745 4.688 4.677 4.628 4.493 4.867 7.403 5.095 4.697 4.76 4.755 4.39 4.37 4.325 4.318 4.32 4.293 4.26 4.233 4.202 4.188 4.155 4.132 4.102 4.085 4.092 4.065 4.033 4.025 4.012 3.985 3.983 3.97 3.967 3.935 3.913 3.925 3.908 3.888 3.875 3.857 3.845 3.84 3.837 3.83 3.822 3.817 3.812 3.803 3.77 3.747 3.727 3.737 3.747 3.755 3.735 3.725 3.71 3.697 3.7 3.71 3.707 3.688 3.697 3.673 3.66 3.655 3.66 3.655 3.65 3.648 3.605 3.515 3.513 3.577 3.61 3.61 3.61 3.61 3.6 3.605 3.602 3.587 3.555 3.553 3.48 3.517 3.562 3.595 3.592 3.53 3.52 3.533 3.537 3.507 3.413 3.418 3.497 3.565 3.6 3.577 3.575 3.572 3.577 3.587 3.52 3.438 3.53 3.58 3.587 3.602 3.592 3.547 3.57 3.585 3.547 3.433 3.443 3.55 3.602 3.605 3.585 3.57 3.572
10.235 9.733 9.497 9.415 9.375 9.395 9.51 9.575 9.635 9.583 9.787 10.042 9.895 9.858 9.863 9.807 9.762 9.71 9.7 9.747 9.958 10.033 10.087 10.245 10.42 10.61 10.703 10.85 10.91 10.988 10.91 10.837 10.815 10.653 10.528 10.42 10.565 10.743 11.04 11.12 11.182 11.255 11.267 11.23 11.343 11.358 11.32 11.033 10.795 10.398 10.095 9.87 9.903 9.948 9.922 9.977 10.085 10.253 10.385 10.58 10.717 10.653 10.595 10.645 10.903 10.972 10.142 9.96 9.885 9.895 9.913 9.76 9.735 9.743 9.725 9.658 9.58 9.552 9.525 9.51 9.542 9.538 9.62 9.552 9.585 9.59 9.538 9.528 9.642 9.9 9.85 9.84 10.347 10.515 9.387 9.382 9.398 9.5 9.533 9.602 9.632 9.675 9.738 9.585 9.568 9.44 9.517 9.53 9.48 9.542 9.475 9.37 9.422 9.385 9.35 9.387 9.352 9.32 9.278 9.2 9.43 9.74 9.812 9.815 9.725 9.233 9.093 9.02 9.105 9.057 8.955 8.96 8.965 9.035 9.062 9.05 9.055 8.983 8.972 8.935 8.935 8.945 8.97 9.055 9.153 9.273 9.413 9.625 9.888 10.068 10.188 10.342 10.788 11.31 11.725 12.017 12.472 13.042 13.71 14.23 14.595 14.13 14.392 14.04 13.83 13.355 12.595 12.535 12.185 11.703 11.497 11.432 11.398 11.41 11.485 11.6 11.903 11.85 12.045 11.785 11.635 11.48 11.438 11.372 11.155 11.092 11.092 11.158 10.898 10.73 10.64 10.648 10.632 10.618 11.13 11.628 9.63 9.87 9.847 9.955 9.815 9.86 9.812 9.727 9.703 9.743 9.773 9.85 10.042 10.185 10.292 10.342 10.312 10.23 10.292 10.212 10.092 10.108 9.915 9.65 9.505 9.392 9.352 9.257 9.265 9.267 9.212 9.29 9.49 9.922 10.213 10.385 10.523 10.753 10.703 10.403 9.958 9.525 9.13 8.858 8.72 8.523 8.462 8.42 8.372 8.36 8.328 8.31 8.267 8.278 8.26 8.225 8.182 8.15 8.148 8.15 8.297 8.328 9.113 9.677 9.052 7.945 7.91 7.872 7.81 7.753 7.73 7.685 7.625 7.595 7.595 7.582 7.588 7.58 7.575 7.543 7.503 7.493 7.483 7.488 7.495 7.4 7.26 7.86 8.845 8.885 8.445 8.035 8.278 9.275 8.493 9.165 9.405 9.305 8.972 9.142 8.875 8.965 9.235 8.54 7.617 7.307 7.29 7.34 7.383 7.395 7.273 7.182 7.605 7.85 7.448 7.082 7.035 7.033 7.04 7.023 7.033 7.028 6.852 6.832 6.72 6.61 6.565 6.505 6.47 6.447 6.438 6.415 6.392 6.363 6.307 6.225 6.165 6.15 6.135 6.117 6.052 5.992 5.93 5.87 5.863 5.898 5.875 6.023 7.908 10.023 6.427 7.707 6.398 5.757 5.785 8.29 6.903 8.507 6.87 9.778 9.305 4.562 5.22 5.36 5.395 5.383 5.347 5.273 5.173 5.06 5.008 4.963 4.927 4.885 4.86 4.86 4.818 4.78 4.765 4.742 4.745 4.69 4.688 4.61 4.49 3.827 6.495 5.305 4.69 4.695 4.97 4.375 4.352 4.325 4.323 4.327 4.315 4.278 4.233 4.213 4.182 4.145 4.12 4.1 4.1 4.095 4.06 4.033 4.03 4.017 4 3.985 3.965 3.945 3.938 3.938 3.93 3.913 3.88 3.885 3.867 3.852 3.835 3.837 3.837 3.83 3.825 3.81 3.793 3.767 3.757 3.74 3.727 3.715 3.71 3.685 3.717 3.705 3.695 3.685 3.7 3.697 3.688 3.683 3.678 3.663 3.678 3.66 3.66 3.653 3.635 3.653 3.577 3.5 3.555 3.618 3.62 3.605 3.61 3.62 3.597 3.595 3.582 3.567 3.495 3.447 3.525 3.577 3.567 3.592 3.555 3.517 3.485 3.487 3.473 3.4 3.473 3.517 3.507 3.55 3.577 3.562 3.572 3.54 3.557 3.473 3.405 3.517 3.575 3.572 3.575 3.607 3.577 3.553 3.582 3.557 3.42 3.51 3.575 3.59 3.605 3.595 3.56 3.535
10.2 9.88 9.655 9.448 9.41 9.585 9.642 9.665 9.625 9.833 9.955 10.083 10.318 9.9 9.875 9.745 9.743 9.72 9.71 9.757 9.82 9.908 9.818 9.97 10.195 10.225 10.335 10.525 10.667 10.788 10.778 10.642 10.637 10.543 10.43 10.378 10.475 10.555 10.77 10.895 11.057 11.255 11.29 11.247 11.29 11.435 11.528 11.387 11.203 10.998 10.74 10.45 10.257 10.2 10.175 10.217 10.33 10.54 10.713 10.812 11.023 11.185 11.29 11.55 10.935 11.185 11.31 10.292 10.077 9.915 9.868 9.79 9.717 9.765 9.708 9.648 9.613 9.592 9.597 9.587 9.575 9.533 9.593 9.523 9.505 9.535 9.493 9.53 9.597 9.748 9.988 9.87 9.605 9.568 9.485 9.44 9.448 9.505 9.627 9.76 9.953 10.028 9.927 9.795 9.757 9.63 9.608 9.615 9.688 9.747 9.725 9.67 9.548 9.605 9.575 9.438 9.275 9.27 9.25 9.195 9.12 9.123 9.155 9.257 9.382 9.113 9.043 9.038 8.997 8.922 8.898 8.908 8.908 8.962 9 9 8.993 9 8.98 8.975 9 9 9.065 9.175 9.273 9.347 9.458 9.642 9.868 10.08 10.25 10.493 10.815 11.408 11.895 12.238 12.8 13.188 13.87 14.49 14.735 14.363 13.94 14.055 13.8 14.205 12.635 12.208 11.938 11.622 11.387 11.368 11.44 11.5 11.552 11.615 11.847 11.83 11.8 11.66 11.538 11.378 11.278 11.245 11.212 11.14 11.06 10.965 10.702 10.602 10.545 10.573 10.585 10.58 10.783 11.368 9.673 9.785 9.868 9.952 9.825 9.852 9.807 9.672 9.597 9.6 9.68 9.743 9.895 10 10.087 10.265 10.248 10.193 10.155 10.128 10.04 9.997 10.012 9.765 9.505 9.377 9.298 9.23 9.245 9.307 9.235 9.323 9.595 10.028 10.265 10.273 10.427 10.682 10.755 10.735 10.855 9.557 9.035 8.807 8.693 8.575 8.475 8.39 8.358 8.302 8.312 8.298 8.292 8.315 8.267 8.23 8.195 8.14 8.137 8.26 8.628 8.74 9.568 9.863 8.113 7.95 7.892 7.827 7.767 7.672 7.622 7.585 7.577 7.568 7.553 7.56 7.552 7.553 7.548 7.515 7.485 7.46 7.448 7.43 7.427 7.43 7.44 7.405 7.265 7.595 8.69 8.547 8.068 8.898 9.405 9.59 9.312 9.562 9.275 9.385 8.668 8.682 9.325 9.055 8.892 7.295 7.3 7.435 7.615 7.47 7.312 7.395 7.793 7.375 7.65 7.077 8.227 7.933 7.023 7.028 7.04 7.04 6.977 6.87 6.69 6.613 6.553 6.495 6.465 6.443 6.432 6.395 6.383 6.363 6.318 6.235 6.172 6.142 6.125 6.1 6.045 5.993 5.947 5.885 5.865 5.872 5.92 5.927 6.28 7.59 5.83 5.773 5.762 5.75 6.015 5.75 5.988 6.213 5.747 7.852 7.08 4.622 5.108 5.307 5.387 5.35 5.332 5.298 5.197 5.07 5 4.967 4.945 4.882 4.87 4.86 4.82 4.77 4.77 4.745 4.762 4.695 4.685 4.625 4.47 3.998 5.233 4.908 5.37 6.722 5.698 4.87 4.358 4.33 4.338 4.345 4.32 4.287 4.245 4.21 4.185 4.148 4.115 4.105 4.105 4.08 4.07 4.048 4.04 4.01 3.983 3.975 3.947 3.947 3.95 3.93 3.93 3.9 3.898 3.913 3.875 3.852 3.842 3.857 3.825 3.827 3.812 3.807 3.787 3.777 3.767 3.773 3.75 3.733 3.733 3.715 3.693 3.67 3.665 3.66 3.68 3.707 3.683 3.683 3.67 3.685 3.683 3.668 3.643 3.64 3.643 3.643 3.602 3.513 3.52 3.605 3.643 3.617 3.615 3.612 3.595 3.597 3.582 3.562 3.453 3.447 3.545 3.567 3.58 3.587 3.592 3.565 3.515 3.53 3.475 3.405 3.525 3.555 3.557 3.54 3.525 3.523 3.507 3.49 3.5 3.433 3.413 3.515 3.565 3.612 3.597 3.572 3.565 3.55 3.562 3.503 3.398 3.485 3.562 3.587 3.605 3.585 3.582 3.557
10.255 10.235 9.865 9.625 9.665 9.878 9.922 9.94 9.86 9.998 10.045 10.005 10.015 9.845 9.855 9.73 9.725 9.735 9.71 9.743 9.712 9.705 9.705 9.77 9.94 10.1 10.158 10.217 10.465 10.533 10.51 10.318 10.302 10.255 10.335 10.403 10.515 10.578 10.735 10.815 11.038 11.202 11.337 11.215 11.225 11.342 11.528 11.475 11.355 11.238 10.93 10.788 10.653 10.47 10.382 10.42 10.477 10.69 10.875 10.972 11.1 11.325 11.722 11.977 11.608 11.217 11.372 11.315 10.405 9.863 9.845 9.842 9.82 9.738 9.665 9.64 9.615 9.682 9.695 9.69 9.667 9.628 9.54 9.575 9.547 9.495 9.485 9.5 9.533 9.68 10.685 10.03 9.57 9.45 9.453 9.43 9.443 9.483 9.743 10.193 10.257 10.282 10.125 9.95 9.773 9.7 9.767 9.648 9.77 9.753 9.715 9.637 9.628 9.51 9.58 9.548 9.332 9.28 9.142 9.093 9.11 9.08 9.078 9.2 9.12 9.038 8.993 9.048 9.08 9.042 9.015 9 9.042 9.092 9.07 9.033 9.01 9.017 9.017 9.017 9.042 9.095 9.165 9.25 9.358 9.455 9.538 9.67 9.96 10.185 10.435 10.73 11.092 11.58 11.823 12.208 12.903 13.198 13.722 14.292 14.538 14.097 13.948 13.805 13.35 12.905 12.498 12.212 11.915 11.685 11.462 11.375 11.483 11.618 11.583 11.613 11.66 11.695 11.673 11.602 11.503 11.358 11.148 11.08 11.105 11.065 10.812 10.628 10.548 10.512 10.523 10.555 10.573 10.568 10.833 11.113 9.72 9.68 9.862 9.938 9.827 9.805 9.788 9.63 9.495 9.517 9.615 9.703 9.85 10.09 10.173 10.19 10.217 10.12 10.042 10.052 10.167 10.083 9.988 9.72 9.565 9.4 9.285 9.215 9.24 9.352 9.275 9.408 9.74 10.09 10.243 10.245 10.403 10.672 10.773 10.733 10.985 10.318 8.993 8.735 8.63 8.53 8.452 8.35 8.368 8.29 8.26 8.288 8.273 8.29 8.257 8.23 8.175 8.137 8.16 8.34 8.55 9.17 9.91 8.852 7.962 7.903 7.832 7.815 7.725 7.62 7.562 7.523 7.523 7.517 7.523 7.537 7.525 7.512 7.517 7.497 7.475 7.438 7.4 7.408 7.4 7.387 7.387 7.392 7.408 7.36 7.195 7.73 8.635 8.382 8.507 8.435 9.12 9.577 8.693 8.352 8.417 8.818 9.095 9.578 8.525 7.305 7.278 7.512 7.61 7.535 7.372 7.273 7.592 7.537 7.355 7.275 7.685 7.035 7.033 7.105 7.605 7.025 6.957 6.835 7.055 6.845 6.688 6.54 6.5 6.425 6.42 6.398 6.36 6.34 6.32 6.245 6.17 6.142 6.118 6.095 6.025 5.965 5.925 5.84 5.852 5.867 5.92 5.84 5.883 5.992 5.815 5.965 5.755 5.733 6.19 12.417 7.615 5.788 6.99 6.562 6.637 5.205 4.907 5.295 5.37 5.358 5.332 5.293 5.19 5.07 5.01 4.972 4.947 4.88 4.883 4.87 4.83 4.76 4.77 4.747 4.745 4.7 4.688 4.622 4.438 3.955 4.597 4.65 4.88 4.635 5.215 4.39 4.347 4.32 4.312 4.338 4.332 4.29 4.24 4.2 4.182 4.157 4.148 4.133 4.095 4.09 4.082 4.037 4.033 4.023 4.008 3.983 3.965 3.947 3.925 3.93 3.913 3.918 3.903 3.885 3.878 3.867 3.852 3.845 3.832 3.835 3.807 3.807 3.812 3.793 3.777 3.79 3.765 3.763 3.737 3.733 3.723 3.713 3.697 3.683 3.663 3.655 3.663 3.65 3.68 3.68 3.68 3.67 3.653 3.643 3.638 3.633 3.633 3.567 3.515 3.57 3.638 3.628 3.6 3.607 3.602 3.597 3.582 3.537 3.435 3.49 3.57 3.57 3.553 3.565 3.572 3.577 3.527 3.547 3.455 3.423 3.525 3.54 3.582 3.602 3.55 3.507 3.495 3.49 3.467 3.375 3.45 3.57 3.547 3.607 3.602 3.582 3.575 3.575 3.592 3.497 3.405 3.457 3.517 3.572 3.587 3.59 3.565 3.543
10.632 10.94 10.267 10.292 10.18 10.882 10.403 10.257 10.087 10.182 10.273 9.967 10.235 10.137 9.907 9.733 9.767 9.77 9.745 9.717 9.73 9.745 9.74 9.79 9.778 9.85 9.955 9.988 10.155 10.278 10.19 9.977 9.98 10.105 10.205 10.355 10.488 10.7 10.79 10.845 10.955 11.14 11.225 11.155 11.15 11.22 11.318 11.31 11.267 11.267 11.167 10.958 10.72 10.62 10.555 10.557 10.64 10.845 11.065 11.12 11.097 11.225 11.375 11.67 11.573 11.115 10.955 11.26 10.453 9.86 9.818 9.812 9.75 9.642 9.625 9.623 9.608 9.59 9.62 9.677 9.773 9.78 9.712 9.71 9.675 9.613 9.548 9.528 9.525 9.51 9.788 9.642 9.528 9.475 9.495 9.535 9.425 9.43 9.693 10.208 10.257 10.208 10.13 9.985 9.875 9.833 9.783 9.783 9.74 9.74 9.64 9.47 9.495 9.545 9.455 9.455 9.44 9.462 9.502 9.342 9.34 9.372 9.408 9.415 9.378 9.27 9.267 9.19 9.233 9.435 9.517 9.333 9.135 9.132 9.077 9.055 9.03 9.025 9.04 9.085 9.163 9.288 9.347 9.405 9.557 9.61 9.653 9.895 10.105 10.318 10.618 11.19 11.762 11.908 11.935 12.155 12.585 13.165 13.852 14.488 14.462 13.775 13.51 13.48 13.382 13.325 13.275 13.055 12.153 11.85 11.677 11.427 11.54 11.78 11.72 11.695 11.72 11.592 11.548 11.555 11.445 11.292 11.12 10.977 10.795 10.65 10.555 10.495 10.512 10.425 10.455 10.503 10.477 10.438 10.798 11.13 9.673 9.635 9.815 9.927 9.825 9.795 9.79 9.695 9.467 9.488 9.61 9.695 9.833 10.145 10.205 10.208 10.233 10.137 10.125 10.142 10.262 10.385 10.327 9.927 9.55 9.46 9.602 9.2 9.227 9.312 9.34 9.44 9.797 10.128 10.172 10.158 10.385 10.608 10.622 10.523 10.44 9.997 8.915 8.657 8.485 8.425 8.398 8.352 8.337 8.283 8.27 8.283 8.278 8.237 8.235 8.233 8.19 8.16 8.493 8.69 9.092 8.983 8.597 7.997 7.943 7.845 7.81 7.78 7.685 7.6 7.557 7.535 7.512 7.483 7.48 7.477 7.5 7.488 7.47 7.457 7.452 7.42 7.403 7.378 7.365 7.372 7.363 7.355 7.345 7.33 7.33 7.305 7.332 7.717 8.535 8.688 8.653 9.403 9.215 8.62 7.995 8.635 9.142 8.818 7.67 7.247 7.182 8.318 8.438 7.657 7.403 7.33 7.233 7.318 7.828 8.023 7.812 7.812 7.095 7.145 7.233 7.863 7.31 6.82 7.65 7.287 9.628 9.368 10.113 7.153 6.49 6.452 6.372 6.352 6.307 6.23 6.157 6.125 6.105 6.08 6.035 5.97 5.903 5.8 5.828 5.84 6.513 9.29 5.807 5.793 5.79 5.72 5.693 7.812 6.56 7.355 5.735 5.69 5.725 5.793 7 5.773 4.688 5.287 5.363 5.365 5.33 5.3 5.225 5.085 5.01 4.975 4.938 4.883 4.875 4.87 4.83 4.778 4.773 4.747 4.74 4.707 4.688 4.615 4.453 3.838 4.62 4.655 4.725 4.882 4.818 4.385 4.355 4.325 4.312 4.343 4.352 4.287 4.227 4.202 4.195 4.165 4.135 4.115 4.125 4.1 4.095 4.055 4.035 4.015 3.997 3.98 3.967 3.96 3.943 3.938 3.93 3.913 3.9 3.88 3.9 3.87 3.857 3.847 3.83 3.832 3.803 3.795 3.805 3.805 3.777 3.775 3.78 3.765 3.737 3.747 3.733 3.725 3.703 3.697 3.69 3.678 3.668 3.643 3.635 3.658 3.645 3.658 3.665 3.668 3.653 3.65 3.63 3.605 3.527 3.543 3.625 3.635 3.622 3.607 3.592 3.577 3.582 3.517 3.44 3.533 3.572 3.565 3.55 3.57 3.565 3.547 3.553 3.535 3.435 3.45 3.517 3.533 3.592 3.595 3.58 3.515 3.55 3.565 3.477 3.36 3.428 3.503 3.527 3.582 3.59 3.608 3.622 3.638 3.602 3.457 3.44 3.5 3.497 3.56 3.562 3.565 3.572 3.54
10.845 10.733 10.715 10.273 10.818 10.948 10.403 10.375 10.257 10.688 10.377 10.523 10.395 10.23 9.975 9.917 9.847 9.802 9.773 9.795 9.755 9.74 9.805 9.825 9.748 9.77 9.733 9.795 9.858 9.823 9.908 9.887 9.95 10.03 10.097 10.233 10.48 10.655 10.72 10.767 10.943 11.05 11.007 11.025 11.062 11.09 11.083 11.102 11.137 11.137 11.155 11.012 10.835 10.727 10.677 10.608 10.745 10.977 11.205 11.342 11.28 11.267 11.21 10.913 10.533 10.165 10.002 10.005 9.988 9.83 9.782 9.79 9.81 9.748 9.78 9.753 9.743 9.725 9.75 9.858 9.77 9.75 9.78 9.755 9.8 9.727 9.733 9.72 9.677 9.585 9.545 9.517 9.472 9.42 9.417 9.425 9.382 9.365 9.565 9.96 10.195 10.132 10.068 10.03 9.913 9.913 9.91 9.83 9.8 9.717 9.525 9.475 9.46 9.535 9.475 9.525 9.702 9.917 10.012 9.83 9.837 9.98 9.922 10.35 9.767 9.648 9.585 9.493 9.602 9.82 10.113 10.052 9.443 9.19 9.145 9.09 9.077 9.11 9.12 9.227 9.333 9.528 9.523 9.6 9.765 9.875 9.903 10.163 10.278 10.498 10.812 11.413 12.04 12.315 12.423 12.43 12.655 13.163 14 14.38 13.882 13.33 13.295 13.24 13.517 13.48 13.295 13.042 12.665 11.99 11.68 11.5 11.562 11.738 11.785 11.688 11.645 11.517 11.425 11.295 11.28 11.225 11.09 10.875 10.688 10.55 10.493 10.347 10.29 10.32 10.363 10.42 10.417 10.365 10.615 10.95 9.622 9.56 9.798 9.905 9.807 9.83 9.82 9.745 9.45 9.448 9.587 9.825 9.95 10.177 10.142 10.165 10.17 10.13 10.157 10.22 10.32 10.455 10.378 9.96 9.465 10.082 9.73 9.172 9.265 9.312 9.34 9.425 9.88 10.243 10.202 10.078 10.253 10.43 10.425 10.163 10.068 9.44 8.76 8.53 8.405 8.352 8.358 8.323 8.255 8.26 8.253 8.255 8.26 8.222 8.233 8.205 8.17 8.235 8.502 8.36 8.693 8.745 8.092 7.972 7.895 7.842 7.803 7.717 7.635 7.575 7.543 7.545 7.513 7.497 7.47 7.457 7.44 7.445 7.443 7.45 7.425 7.41 7.398 7.385 7.382 7.35 7.328 7.327 7.315 7.285 7.275 7.273 7.3 7.273 7.215 7.973 8.583 8.812 9.025 8.185 8.092 8.21 8.343 7.955 7.307 7.19 7.122 7.787 8.475 8.54 8.04 7.722 7.3 7.235 7.312 7.628 7.61 8.16 7.58 7.177 7.552 8.403 7.588 6.847 8.055 6.59 9.365 9.923 9.9 7.233 6.492 6.457 7.065 6.368 6.345 6.26 6.18 6.11 6.283 6.065 5.98 5.912 5.932 5.847 5.915 5.863 6.42 8.86 6.725 6.165 6.227 5.733 5.688 6.992 11.757 6.27 5.765 5.733 6.727 6.342 6.04 5.615 4.585 5.255 5.363 5.387 5.328 5.28 5.233 5.095 5.028 4.965 4.935 4.89 4.863 4.858 4.832 4.778 4.765 4.747 4.722 4.7 4.675 4.625 4.435 4.168 5.418 4.613 4.838 4.727 4.872 4.372 4.352 4.318 4.307 4.33 4.343 4.303 4.23 4.213 4.188 4.168 4.137 4.12 4.108 4.088 4.062 4.06 4.06 4.025 4.005 3.98 3.953 3.957 3.95 3.93 3.885 3.903 3.875 3.885 3.875 3.865 3.86 3.827 3.832 3.817 3.803 3.807 3.795 3.795 3.805 3.765 3.755 3.757 3.747 3.755 3.735 3.727 3.713 3.703 3.695 3.683 3.688 3.678 3.673 3.67 3.653 3.638 3.618 3.62 3.625 3.642 3.643 3.64 3.57 3.507 3.57 3.622 3.612 3.59 3.58 3.587 3.562 3.475 3.467 3.553 3.59 3.57 3.537 3.553 3.56 3.537 3.557 3.523 3.418 3.483 3.5 3.543 3.562 3.582 3.58 3.495 3.523 3.533 3.43 3.392 3.485 3.443 3.48 3.557 3.59 3.595 3.61 3.64 3.592 3.433 3.497 3.52 3.497 3.565 3.595 3.567 3.535 3.527
10.623 10.547 10.3 10.368 10.675 11.015 10.675 10.63 10.875 10.682 10.31 10.408 10.225 10.198 10.11 10.16 9.977 9.925 9.88 9.887 9.843 9.89 9.877 9.84 9.833 9.802 9.753 9.81 9.82 9.82 9.86 9.852 9.905 9.96 10.065 10.262 10.438 10.53 10.592 10.673 10.8 10.773 10.828 10.792 10.795 10.892 10.882 11.025 10.958 10.965 10.957 11.01 10.923 10.81 10.82 10.755 10.837 10.962 11.167 11.297 11.392 11.35 11.24 10.795 10.333 10.012 9.908 9.847 9.837 9.84 9.88 9.868 9.85 9.858 9.875 9.795 9.81 9.815 9.877 10.023 9.9 9.802 9.828 9.835 9.903 9.823 9.792 9.875 9.783 9.667 9.708 9.65 9.477 9.415 9.413 9.403 9.373 9.36 9.43 9.605 9.81 9.96 10.155 9.927 9.887 9.922 9.915 9.788 9.637 9.625 9.548 9.562 9.495 9.613 9.72 9.773 10.01 10.28 10.715 10.895 11 10.725 10.5 10.328 10.068 10.065 9.882 9.865 10.007 10.688 11.293 11.307 10.265 9.66 9.408 9.292 9.24 9.312 9.427 9.54 9.555 9.735 9.72 9.8 9.895 9.993 10.128 10.365 10.597 10.79 11.062 11.548 12.195 12.635 12.907 12.89 13.085 13.627 14.265 14.175 13.637 13.337 13.137 13.267 13.638 13.688 13.52 13.085 12.833 12.233 11.725 11.573 11.515 11.583 11.677 11.632 11.682 11.497 11.27 11.153 11.105 11.07 10.958 10.755 10.597 10.5 10.493 10.37 10.25 10.26 10.285 10.368 10.413 10.377 10.533 10.895 9.698 9.66 9.788 9.88 9.798 9.82 9.83 9.755 9.485 9.497 9.73 10.07 10.09 10.115 10.06 10.095 10.08 10.083 10.17 10.318 10.362 10.462 10.352 9.932 9.523 9.417 9.295 9.17 9.253 9.25 9.335 9.535 9.99 10.257 10.145 10.007 10.13 10.295 10.3 10.165 9.6 8.85 8.573 8.425 8.403 8.35 8.338 8.305 8.222 8.235 8.237 8.235 8.245 8.245 8.212 8.193 8.217 8.465 8.968 9.188 9.03 9.188 7.977 7.938 7.845 7.825 7.785 7.702 7.613 7.548 7.523 7.515 7.495 7.477 7.463 7.443 7.435 7.403 7.412 7.403 7.405 7.4 7.385 7.378 7.367 7.35 7.335 7.307 7.262 7.258 7.25 7.238 7.24 7.25 7.275 7.222 7.128 7.695 8.403 8.63 8.22 7.618 7.743 8.087 7.275 7.168 7.085 7.267 8.452 8.57 8.597 8.975 8.2 7.578 7.27 7.27 7.273 7.278 7.842 8.122 8.05 7.51 7.238 7.043 6.803 8.042 6.585 8.118 7.355 7.065 6.852 8.122 7.89 8.497 7.85 6.302 6.465 6.145 6.72 6.08 5.98 5.922 5.91 6.005 6.055 5.957 7.438 8.458 7.09 8.453 7.418 5.758 5.747 5.68 5.75 6.435 5.727 5.91 6.5 9.057 7.615 7.212 4.523 5.242 5.35 5.392 5.323 5.273 5.233 5.097 5.017 4.97 4.935 4.895 4.855 4.85 4.838 4.778 4.765 4.745 4.707 4.69 4.682 4.617 4.432 4.22 5.778 4.713 7.615 5.76 4.432 4.37 4.345 4.33 4.293 4.3 4.31 4.285 4.238 4.2 4.207 4.175 4.155 4.13 4.11 4.095 4.07 4.043 4.033 4.025 4.003 3.983 3.967 3.977 3.93 3.928 3.905 3.903 3.88 3.87 3.857 3.852 3.842 3.847 3.832 3.812 3.807 3.825 3.8 3.785 3.8 3.793 3.783 3.743 3.745 3.755 3.763 3.737 3.727 3.705 3.715 3.683 3.68 3.67 3.675 3.668 3.67 3.668 3.658 3.645 3.62 3.59 3.58 3.602 3.585 3.477 3.503 3.57 3.567 3.58 3.595 3.597 3.567 3.447 3.52 3.562 3.56 3.562 3.55 3.557 3.562 3.53 3.537 3.485 3.433 3.525 3.515 3.525 3.55 3.545 3.54 3.505 3.533 3.503 3.41 3.44 3.533 3.467 3.435 3.457 3.555 3.555 3.553 3.553 3.513 3.423 3.553 3.572 3.497 3.54 3.585 3.55 3.493 3.523
10.243 10.273 10.138 10.083 10.215 10.358 10.495 10.395 10.28 10.24 10.245 10.215 10.155 10.13 10.132 10.182 10.135 10.108 10.052 10 9.952 9.983 10.005 9.96 9.887 9.807 9.785 9.86 9.913 9.877 9.82 9.858 9.917 9.967 10.012 10.23 10.288 10.32 10.34 10.435 10.582 10.552 10.52 10.57 10.608 10.69 10.585 10.67 10.807 10.795 10.818 10.89 10.86 10.887 10.865 10.818 10.845 10.968 11.128 11.14 11.188 11.298 11.273 11.002 10.497 10.203 10.055 10.025 10.087 10.125 10.125 10.14 10.167 10.227 10.188 10.108 10.128 10.125 10.222 10.26 10.305 10.327 10.755 10.955 10.307 10.185 10.137 10.24 10.233 9.7 9.745 9.825 9.665 9.565 9.485 9.462 9.55 9.475 9.465 9.557 9.69 9.835 9.833 9.783 9.698 9.845 9.793 9.812 9.682 9.767 9.705 9.735 9.873 10.085 10.267 10.44 10.452 10.667 10.983 11.403 11.663 11.05 10.655 10.488 10.488 10.495 10.43 10.323 10.773 12.27 12.983 12.73 11.472 10.378 10.09 10.003 9.798 9.705 9.79 9.81 9.715 9.765 9.892 9.995 10.042 10.135 10.427 10.783 11.128 11.29 11.6 11.86 12.388 12.805 13.023 13.205 13.423 13.632 14.055 13.917 13.523 13.35 13.55 13.495 13.835 14.05 13.307 12.765 12.275 11.885 11.542 11.507 11.462 11.533 11.655 11.638 11.608 11.415 11.205 11.132 11.095 10.995 10.818 10.675 10.552 10.493 10.515 10.538 10.342 10.295 10.285 10.37 10.38 10.39 10.432 10.495 9.69 9.658 9.762 9.87 9.78 9.747 9.785 9.72 9.538 9.65 9.92 10.073 10.123 10.135 10.095 10.092 10.045 10.457 10.192 10.245 10.307 10.405 10.195 9.955 9.565 9.392 9.33 9.163 9.193 9.217 9.352 9.635 10.047 10.167 10.028 9.958 10.113 10.205 10.142 9.935 9.057 8.642 8.507 8.385 8.4 8.34 8.345 8.273 8.225 8.202 8.22 8.212 8.22 8.233 8.188 8.27 8.755 9.725 8.358 9.538 9.132 8.038 7.952 7.87 7.832 7.805 7.76 7.698 7.61 7.548 7.53 7.512 7.48 7.47 7.457 7.445 7.42 7.4 7.385 7.37 7.365 7.355 7.367 7.365 7.347 7.325 7.315 7.273 7.242 7.227 7.212 7.213 7.21 7.225 7.23 7.227 7.267 7.19 7.085 7.648 8.505 8.538 8.438 8.17 7.307 7.177 7.08 7.01 7.548 8.462 8.14 8.265 9.227 8.7 8.413 7.677 7.35 7.315 7.347 7.523 8.113 7.642 8.243 7.793 7.66 6.977 7.452 6.945 6.815 6.903 7.86 7.457 8.137 6.668 6.38 6.352 6.802 6.113 6.068 6.015 5.977 6.125 8.805 8.375 7.48 8.24 6.782 8.132 6.395 6.657 5.753 5.717 5.74 5.698 5.725 9.12 8.865 8.5 6.745 7.015 6.955 6.135 4.575 5.21 5.323 5.358 5.35 5.275 5.225 5.113 5.023 4.97 4.943 4.898 4.86 4.85 4.823 4.78 4.762 4.74 4.715 4.688 4.662 4.622 4.427 4.938 5.323 5.365 5.005 4.765 4.57 4.378 4.347 4.323 4.3 4.305 4.307 4.29 4.25 4.225 4.205 4.19 4.157 4.12 4.105 4.073 4.07 4.055 4.03 4.015 4.015 3.99 3.965 3.957 3.93 3.923 3.923 3.913 3.883 3.875 3.888 3.87 3.842 3.817 3.83 3.822 3.817 3.812 3.793 3.797 3.795 3.795 3.76 3.74 3.737 3.74 3.745 3.743 3.73 3.725 3.71 3.678 3.678 3.683 3.683 3.665 3.648 3.638 3.653 3.635 3.63 3.617 3.6 3.59 3.515 3.443 3.418 3.425 3.455 3.503 3.537 3.565 3.523 3.433 3.57 3.59 3.57 3.567 3.585 3.553 3.553 3.57 3.595 3.485 3.453 3.547 3.517 3.53 3.503 3.497 3.493 3.513 3.567 3.513 3.413 3.515 3.537 3.513 3.497 3.433 3.457 3.527 3.52 3.537 3.447 3.415 3.57 3.585 3.54 3.5 3.523 3.513 3.485 3.507
10.227 10.185 10.122 10.132 10.167 10.328 10.52 10.45 10.318 10.295 10.273 10.255 10.177 10.188 10.182 10.19 10.17 10.13 10.14 10.095 10.028 10.028 10.05 10.077 9.965 9.892 9.855 9.84 9.847 9.847 9.967 9.875 9.905 9.932 9.975 10.007 10.083 10.12 10.198 10.297 10.325 10.315 10.33 10.343 10.323 10.325 10.405 10.46 10.54 10.525 10.5 10.663 10.722 10.797 10.975 10.885 10.898 10.988 11.03 11.038 11.113 11.167 11.163 11.085 10.833 10.648 10.882 11.083 10.95 11.03 11.158 11.328 11.585 11.958 11.698 11.11 10.708 10.78 10.79 10.77 10.805 10.837 11.59 12.538 12.455 11.025 10.288 10.278 10.078 9.722 9.775 9.913 9.725 9.69 9.64 9.585 9.577 9.58 9.595 9.503 9.613 9.785 9.802 9.915 9.605 9.76 9.74 9.727 9.738 9.917 9.882 10 10.243 10.515 10.688 10.788 11.062 11.352 11.608 11.727 11.913 11.755 11.922 12.2 12.562 12.265 12.108 11.632 11.52 12.845 13.142 12.91 12.205 11.698 11.16 11.163 10.868 10.398 10.368 10.148 9.932 9.938 10.198 10.26 10.307 10.475 10.8 11.23 11.645 11.828 12.167 12.3 12.705 13.085 13.352 14.087 13.655 13.852 13.88 13.847 13.52 13.807 14.2 13.767 13.427 13.205 12.305 12.02 11.698 11.467 11.503 11.635 11.665 11.637 11.7 11.875 12.062 12.068 11.208 11.173 11.188 11.095 10.9 10.682 10.61 10.613 10.568 10.618 10.483 10.47 10.398 10.39 10.422 10.408 10.335 10.595 9.682 9.677 9.725 9.852 9.77 9.71 9.735 9.637 9.552 9.72 10.003 10.045 10.043 10.108 10.1 10.07 10.07 10.583 11.525 10.12 10.32 10.37 10.163 10 9.625 9.395 9.282 9.16 9.122 9.17 9.35 9.608 9.938 10.078 9.95 9.922 10.075 10.057 9.828 9.233 9 8.613 8.5 8.438 8.39 8.315 8.323 8.22 8.198 8.21 8.19 8.182 8.21 8.19 8.16 8.68 8.587 9 10.253 11.465 8.39 7.972 7.903 7.832 7.823 7.78 7.725 7.66 7.592 7.55 7.517 7.5 7.508 7.47 7.455 7.43 7.42 7.408 7.383 7.36 7.342 7.32 7.31 7.307 7.312 7.315 7.27 7.245 7.23 7.213 7.195 7.177 7.19 7.193 7.205 7.205 7.217 7.247 7.168 6.798 6.815 7.932 8.645 8.347 8.105 7.327 7.113 7.012 6.965 7.175 8.115 8.113 8.453 8.733 9.05 8.892 8.392 7.995 7.455 7.418 7.515 7.898 8.307 8.203 7.605 6.753 7.257 7.485 8.828 8.517 9.323 6.525 6.427 6.383 6.335 6.318 6.225 6.133 6.825 6.403 5.997 5.938 8.413 8.727 5.977 6.1 5.915 6.137 7.755 6.055 6.895 7.47 5.887 5.79 7.923 7.54 9.918 9.775 5.645 5.7 6.443 5.825 4.427 5.15 5.302 5.338 5.332 5.267 5.217 5.115 5.03 4.962 4.938 4.9 4.86 4.83 4.82 4.77 4.738 4.725 4.697 4.672 4.658 4.622 4.425 5.117 5.535 4.923 6.102 6.265 4.47 4.39 4.358 4.34 4.31 4.3 4.32 4.307 4.247 4.217 4.2 4.18 4.148 4.115 4.108 4.085 4.07 4.062 4.038 4.003 4.02 3.987 3.977 3.95 3.928 3.923 3.915 3.9 3.9 3.878 3.86 3.878 3.867 3.822 3.832 3.817 3.807 3.8 3.785 3.785 3.767 3.775 3.763 3.747 3.743 3.727 3.725 3.737 3.723 3.703 3.703 3.68 3.68 3.673 3.67 3.663 3.65 3.628 3.633 3.633 3.64 3.625 3.592 3.537 3.47 3.43 3.44 3.418 3.38 3.355 3.382 3.4 3.39 3.39 3.525 3.58 3.577 3.545 3.582 3.59 3.592 3.597 3.587 3.463 3.47 3.57 3.535 3.547 3.557 3.505 3.52 3.517 3.55 3.475 3.4 3.535 3.54 3.515 3.505 3.5 3.44 3.42 3.475 3.54 3.398 3.445 3.567 3.577 3.565 3.545 3.513 3.475 3.463 3.52
10.19 10.118 10.095 10.092 10.163 10.288 10.257 10.27 10.278 10.278 10.257 10.252 10.172 10.21 10.157 10.16 10.225 10.2 10.18 10.135 10.08 10.08 10.102 10.113 10.087 10.115 9.995 9.94 9.835 9.872 9.882 9.86 9.9 9.927 9.983 9.962 10.012 10.062 10.185 10.24 10.28 10.363 10.312 10.205 10.182 10.257 10.29 10.337 10.4 10.38 10.37 10.335 10.453 10.5 10.608 10.71 10.795 10.818 10.86 10.938 10.975 10.935 10.923 10.995 10.988 10.972 11.065 11.45 11.395 11.602 11.73 12.238 12.477 12.427 12.745 12.19 11.555 11.31 11.13 11.3 11.36 11.175 11.62 12.448 12.03 10.882 10.382 10.102 10.032 9.73 9.743 9.932 9.825 9.745 9.62 9.628 9.59 9.648 9.7 9.58 9.597 9.765 9.77 9.815 9.785 9.812 9.84 9.885 9.882 9.935 10.118 10.285 10.443 10.725 11.028 11.077 11.278 11.565 11.89 12.15 12.318 12.31 12.528 13.02 13.923 14.427 13.368 12.68 12.205 12.555 12.885 12.972 13.09 13 12.42 12.075 11.55 11.18 11.048 10.783 10.41 10.363 10.488 10.573 10.577 10.86 11.23 11.67 12.14 12.295 12.188 12.347 12.74 12.952 13.302 13.47 13.542 13.685 13.875 14.02 13.998 14.23 13.815 13.005 12.75 12.245 11.852 11.653 11.625 11.602 11.718 11.935 12.18 12.545 12.275 12.35 12.975 12.755 11.79 11.248 11.243 11.038 10.875 10.695 10.675 10.675 10.61 10.578 10.552 10.548 10.505 10.46 10.63 10.512 10.323 10.682 9.823 9.528 9.738 9.845 9.763 9.703 9.722 9.557 9.505 9.587 9.87 10.185 10.142 10.135 10.118 10.04 10.01 10.012 10.142 10.01 10.25 10.305 10.142 9.97 9.733 9.458 9.227 9.148 9.08 9.185 9.382 9.542 9.755 9.9 9.88 9.953 10.03 9.975 9.93 9.292 8.92 8.615 8.495 8.455 8.398 8.358 8.312 8.185 8.158 8.188 8.195 8.198 8.19 8.145 8.365 9.18 8.87 8.762 8.993 9.135 8.03 7.94 7.86 7.818 7.787 7.73 7.673 7.608 7.582 7.55 7.528 7.497 7.477 7.467 7.443 7.41 7.395 7.387 7.365 7.36 7.345 7.32 7.305 7.275 7.262 7.25 7.23 7.22 7.195 7.19 7.188 7.168 7.19 7.18 7.19 7.18 7.19 7.215 7.22 7.19 7.075 6.66 6.9 7.818 8.38 8.307 7.588 7.105 6.98 6.985 6.94 7.182 7.69 8.325 8.965 8.307 8.118 8.15 8.123 7.757 7.302 7.235 7.44 8.198 8.14 7.025 7.382 8.108 8.335 8.788 8.568 6.685 7.012 9.097 6.602 6.245 6.387 8.998 9.413 7.577 6.057 5.965 5.885 5.952 5.915 5.895 6.555 9.575 6.898 5.885 5.775 5.717 6.07 8.688 8.105 6.84 7.58 8.435 6.635 5.707 5.885 5.97 4.635 5.1 5.285 5.318 5.312 5.262 5.24 5.14 5.025 4.967 4.938 4.895 4.852 4.84 4.805 4.78 4.735 4.717 4.705 4.682 4.66 4.628 4.387 3.852 5.733 4.637 6.132 4.787 4.415 4.372 4.352 4.347 4.332 4.315 4.31 4.295 4.247 4.21 4.188 4.155 4.133 4.115 4.113 4.095 4.077 4.052 4.025 4.015 4.015 4.003 3.977 3.963 3.96 3.935 3.93 3.903 3.883 3.87 3.883 3.86 3.855 3.837 3.832 3.825 3.825 3.797 3.787 3.785 3.763 3.76 3.755 3.747 3.76 3.743 3.725 3.717 3.723 3.7 3.693 3.688 3.69 3.675 3.655 3.643 3.65 3.615 3.607 3.597 3.585 3.567 3.495 3.463 3.497 3.565 3.55 3.56 3.527 3.435 3.392 3.362 3.33 3.317 3.345 3.438 3.473 3.493 3.555 3.577 3.582 3.577 3.537 3.44 3.503 3.592 3.565 3.535 3.555 3.51 3.513 3.51 3.557 3.423 3.398 3.503 3.533 3.553 3.523 3.527 3.513 3.433 3.408 3.418 3.352 3.457 3.535 3.545 3.545 3.533 3.507 3.475 3.453 3.507
10.273 10.195 10.2 10.217 10.21 10.245 10.205 10.238 10.24 10.233 10.24 10.205 10.13 10.145 10.097 10.105 10.225 10.253 10.227 10.185 10.113 10.08 10.095 10.1 10.1 10.085 10.04 9.99 10.017 10.01 9.952 9.925 9.985 9.98 9.957 9.927 9.945 10.052 10.163 10.18 10.163 10.233 10.22 10.16 10.155 10.165 10.18 10.142 10.245 10.275 10.23 10.215 10.247 10.29 10.387 10.458 10.555 10.58 10.702 10.757 10.712 10.663 10.562 10.66 10.738 10.773 10.847 11.087 11.227 11.29 11.305 11.495 11.852 12.028 12.137 12.167 11.917 11.97 11.773 12.137 12.243 12.275 12.118 11.875 11.962 11.177 10.748 10.385 10.257 9.943 9.727 9.797 9.828 9.802 9.783 9.71 9.618 9.573 9.562 9.57 9.59 9.792 9.815 10.007 9.833 9.745 9.977 10.198 10.432 10.715 10.91 10.73 10.762 11.003 11.203 11.352 11.608 12.06 12.302 12.608 12.467 12.57 13.18 13.78 14.56 14.88 14.368 14.033 13.333 13.038 12.93 12.675 13.533 13.89 13.315 12.675 12.345 11.78 11.605 11.392 11.062 10.81 10.735 10.915 10.922 11.18 11.472 11.79 12.175 12.083 12.172 12.19 12.347 12.847 13.02 13.227 13.79 14.125 13.96 13.927 14.167 13.655 12.802 12.328 12.108 11.935 11.825 11.903 11.913 11.87 11.815 12.108 12.878 12.733 12.988 12.47 13.085 12.557 12.033 11.733 12.22 11.068 10.807 10.64 10.667 10.67 10.622 10.595 10.59 10.545 10.488 10.403 10.695 10.457 10.253 10.82 10.003 9.472 9.7 9.825 9.745 9.63 9.71 9.54 9.483 9.493 9.698 10.1 10.17 10.2 10.122 10.055 9.842 9.815 9.965 10.042 10.352 10.448 10.21 9.92 9.68 9.488 9.285 9.122 9.07 9.193 9.4 9.528 9.665 9.725 9.815 9.923 10.007 10.065 9.872 9.425 8.878 8.6 8.5 8.438 8.385 8.302 8.248 8.195 8.203 8.198 8.2 8.19 8.15 8.177 9.04 8.46 8.42 9.097 9.26 8.137 7.97 7.892 7.842 7.802 7.73 7.672 7.62 7.582 7.545 7.545 7.535 7.515 7.472 7.465 7.432 7.42 7.387 7.365 7.345 7.33 7.325 7.318 7.3 7.267 7.227 7.188 7.19 7.182 7.18 7.188 7.173 7.168 7.182 7.175 7.168 7.155 7.18 7.207 7.213 7.222 7.188 7.125 6.948 6.565 6.5 7.365 8.212 8.04 7.53 7.165 6.972 6.938 6.918 6.965 7.535 7.908 7.682 7.83 8.057 8.295 8.093 7.387 7.148 7.213 7.497 7.12 7.93 7.492 7.49 7.842 7.475 7.39 8.208 8.97 7.66 6.54 7.515 11.788 10.53 9.398 6.078 5.992 5.925 6.142 8.097 5.825 5.823 9.502 6.075 5.78 6.017 5.927 8.775 5.672 6.472 5.892 5.64 5.615 5.915 5.922 5.812 6.352 5.56 5.182 5.267 5.307 5.305 5.267 5.22 5.165 5.023 4.98 4.94 4.9 4.855 4.82 4.805 4.76 4.74 4.72 4.71 4.682 4.655 4.62 4.32 4.048 4.585 4.887 4.685 4.637 4.39 4.368 4.35 4.338 4.345 4.345 4.31 4.288 4.247 4.215 4.185 4.168 4.157 4.145 4.14 4.092 4.06 4.057 4.033 4.012 4 3.983 3.977 3.965 3.938 3.94 3.923 3.913 3.905 3.885 3.857 3.855 3.85 3.842 3.82 3.812 3.8 3.812 3.78 3.765 3.763 3.775 3.753 3.745 3.73 3.723 3.727 3.727 3.715 3.705 3.695 3.678 3.675 3.665 3.668 3.663 3.67 3.628 3.592 3.572 3.523 3.487 3.513 3.582 3.617 3.617 3.61 3.597 3.582 3.56 3.55 3.527 3.435 3.435 3.352 3.327 3.332 3.352 3.378 3.425 3.49 3.523 3.487 3.423 3.49 3.57 3.56 3.557 3.56 3.525 3.5 3.49 3.49 3.378 3.418 3.51 3.527 3.545 3.533 3.507 3.513 3.53 3.48 3.375 3.345 3.48 3.557 3.54 3.515 3.493 3.477 3.51 3.477 3.463
