ncols 495
nrows 31
xllcorner    246004
yllcorner    136244
cellsize     2
NODATA_value -9999
9.945 9.995 9.847 9.727 9.695 9.622 9.47 9.4 9.6 9.69 9.715 9.233 8.79 9.135 9.243 9.125 9.113 9.118 9.125 9.092 9.095 9.205 8.995 9.203 9.142 9.15 9.175 9.195 9.288 9.368 9.4 9.347 9.315 9.267 9.23 9.202 9.193 9.175 9.172 9.24 9.385 9.408 9.42 9.323 9.257 9.32 9.36 9.323 9.333 9.363 9.262 9.212 9.252 9.335 9.435 9.413 9.33 9.292 9.292 9.335 9.43 9.475 9.555 9.835 10.17 10.485 10.625 10.673 10.67 10.82 10.845 10.955 10.717 10.382 10.118 9.773 9.703 9.61 9.587 9.415 9.512 9.543 9.702 9.698 9.735 9.74 9.632 9.575 9.523 9.547 9.568 9.64 9.75 9.783 9.79 9.898 9.915 10.1 10.387 10.615 10.642 10.6 10.45 10.29 10.1 9.89 9.82 9.8 9.86 9.88 9.682 9.695 9.56 9.467 9.593 9.698 9.762 9.887 9.957 9.735 9.775 10.382 10.5 10.062 9.815 9.948 10.078 11.338 9.762 9.573 9.958 10.493 10.282 10.24 11.375 9.503 9.485 10.33 15.238 9.882 10.153 10.04 9.83 9.298 8.757 8.595 8.89 9.165 9.24 9.275 9.34 9.4 9.415 9.465 9.493 9.497 9.505 9.51 9.523 9.513 9.505 9.5 9.505 9.503 9.487 9.495 9.495 9.493 9.502 9.523 9.54 9.528 9.52 9.533 9.53 9.528 9.528 9.52 9.52 9.51 9.52 9.515 9.502 9.497 9.505 9.49 9.488 9.488 9.49 9.475 9.477 9.475 9.475 9.457 9.452 9.467 9.465 9.467 9.467 9.467 9.438 9.417 9.403 9.398 9.39 9.38 9.358 9.333 9.312 9.327 9.337 9.335 9.352 9.368 9.355 9.343 9.33 9.307 9.285 9.292 9.302 9.297 9.325 9.345 9.35 9.35 9.35 9.355 9.358 9.343 9.335 9.352 9.38 9.41 9.372 9.333 9.297 9.19 9.142 9.045 10.547 10.04 9.913 9.898 9.627 9.72 9.405 9.375 9.45 9.392 9.435 9.363 9.307 9.262 9.282 9.257 9.292 9.283 9.28 9.292 9.245 9.25 9.225 9.27 9.27 9.262 9.28 9.24 9.222 9.235 9.23 9.222 9.215 9.19 9.173 9.12 9.108 9.065 9.045 9.04 9.068 9.08 9.035 9.038 9.017 8.972 8.948 8.913 8.868 8.84 8.793 8.852 8.858 8.863 8.89 8.898 8.89 8.903 8.875 8.875 8.863 8.872 8.87 8.845 8.882 8.847 8.89 8.903 8.89 8.903 8.882 8.892 8.885 8.88 8.868 8.875 8.872 8.865 8.845 8.858 8.837 8.862 8.84 8.882 8.845 8.863 8.875 8.87 8.862 8.847 8.855 8.845 8.843 8.873 8.887 8.882 8.86 8.85 8.852 8.835 8.818 8.863 8.863 8.865 8.865 8.872 8.87 8.878 8.873 8.868 8.84 8.835 8.815 8.8 8.788 8.807 8.843 8.868 8.87 8.865 8.85 8.87 8.9 8.827 9.875 9.935 9.253 9.18 9.653 8.805 8.512 8.602 8.58 8.548 8.528 8.48 8.41 8.49 9.12 8.82 8.092 8.03 8.095 8.113 8.118 8.095 8.06 8.042 8.015 7.997 8.013 7.988 7.967 7.957 7.932 7.898 7.872 7.85 7.86 7.88 7.872 7.85 7.872 7.938 7.793 7.928 8.705 7.872 7.59 7.66 7.68 7.69 7.662 7.64 7.67 7.668 7.668 7.658 7.622 7.633 7.633 7.613 7.608 7.568 7.452 7.233 8.592 8.925 7.81 7.56 7.618 7.61 7.593 7.537 7.508 7.51 7.475 7.503 7.5 7.492 7.492 7.472 7.472 7.467 7.452 7.475 7.467 7.467 7.485 7.49 7.507 7.508 7.48 7.488 7.472 7.443 7.43 7.405 7.39 7.378 7.378 7.387 7.358 7.323 7.315 7.29 7.285 7.267 7.25 7.267 7.233 7.14 7.035 6.955 7.207 8.083 7.793 6.995 6.943 7.017 7.008 6.995 7.003 7 6.975 6.938 6.915 6.907 6.885 6.868 6.867 6.845 6.847 6.866 6.873
10.142 10.13 10.108 10.062 9.975 9.953 9.717 9.477 9.31 9.265 9.637 9.87 9.477 8.895 8.898 9.108 9.12 9.128 9.122 9.09 9.108 9.16 9.08 9.142 9.135 9.125 9.137 9.14 9.162 9.193 9.205 9.198 9.212 9.208 9.185 9.167 9.15 9.14 9.153 9.208 9.215 9.233 9.255 9.295 9.302 9.315 9.335 9.358 9.438 9.445 9.238 9.215 9.245 9.345 9.415 9.413 9.307 9.27 9.275 9.315 9.39 9.432 9.825 9.87 10.115 10.483 10.75 10.818 10.693 10.77 10.868 10.895 10.872 10.525 10.25 9.872 9.755 9.68 9.578 9.51 9.51 9.615 9.748 9.765 9.72 9.66 9.622 9.565 9.575 9.523 9.533 9.7 9.807 9.83 9.75 9.8 9.885 10.068 10.375 10.637 10.655 10.583 10.44 10.225 10.028 9.865 9.745 9.722 9.79 9.84 9.685 9.693 9.55 9.465 9.52 9.658 9.7 9.745 9.68 9.613 9.988 9.77 9.832 9.855 9.75 9.948 9.59 9.747 10.237 9.462 9.35 11.288 11.217 12.273 11.858 10.66 9.548 10.722 9.865 9.73 10.985 13.257 10.307 10.373 10.727 9.53 8.882 8.58 8.815 9.137 9.255 9.3 9.333 9.35 9.382 9.41 9.417 9.435 9.448 9.453 9.455 9.462 9.462 9.467 9.457 9.462 9.467 9.467 9.472 9.493 9.502 9.5 9.515 9.535 9.51 9.517 9.517 9.533 9.525 9.535 9.533 9.538 9.542 9.53 9.528 9.528 9.517 9.513 9.52 9.507 9.51 9.495 9.513 9.495 9.495 9.503 9.503 9.505 9.517 9.52 9.502 9.472 9.462 9.458 9.465 9.448 9.435 9.408 9.387 9.4 9.413 9.395 9.392 9.4 9.395 9.375 9.363 9.342 9.335 9.323 9.335 9.335 9.358 9.378 9.41 9.4 9.392 9.408 9.41 9.407 9.375 9.408 9.46 9.502 9.475 9.413 9.34 9.267 9.093 9.205 10.56 10.255 9.995 10.045 9.717 9.852 9.458 9.385 9.44 9.432 9.445 9.438 9.33 9.323 9.308 9.35 9.342 9.347 9.333 9.33 9.285 9.352 9.292 9.372 9.347 9.358 9.327 9.255 9.32 9.26 9.278 9.247 9.233 9.21 9.137 9.145 9.09 9.065 9.06 9.025 9.085 9.083 9.048 9.04 9.01 8.957 8.94 8.908 8.882 8.837 8.755 8.837 8.855 8.86 8.87 8.903 8.875 8.892 8.86 8.862 8.878 8.85 8.858 8.83 8.868 8.845 8.9 8.913 8.903 8.908 8.895 8.908 8.887 8.882 8.892 8.88 8.868 8.852 8.847 8.842 8.84 8.87 8.855 8.872 8.85 8.878 8.868 8.875 8.86 8.865 8.872 8.855 8.858 8.87 8.88 8.885 8.863 8.84 8.85 8.845 8.823 8.868 8.878 8.872 8.878 8.87 8.862 8.875 8.868 8.86 8.847 8.82 8.815 8.805 8.783 8.795 8.872 8.87 8.872 8.858 8.852 8.878 8.91 8.8 9.788 9.958 9.245 9.158 9.592 8.9 8.52 8.613 8.6 8.568 8.505 8.407 8.41 8.89 9.273 8.16 8.007 8.073 8.08 8.083 8.078 8.057 8.03 8.033 7.99 8.013 7.997 7.97 7.947 7.932 7.908 7.872 7.86 7.86 7.875 7.878 7.852 7.85 7.967 7.87 7.745 8.512 8.27 7.635 7.655 7.668 7.67 7.677 7.62 7.65 7.668 7.655 7.66 7.645 7.635 7.642 7.617 7.618 7.597 7.503 7.302 7.852 9.148 8.083 7.573 7.615 7.618 7.625 7.573 7.53 7.528 7.485 7.497 7.5 7.487 7.492 7.475 7.485 7.495 7.467 7.488 7.487 7.485 7.487 7.49 7.505 7.515 7.483 7.483 7.483 7.45 7.432 7.415 7.383 7.392 7.372 7.387 7.38 7.347 7.327 7.305 7.288 7.28 7.247 7.255 7.237 7.17 7.075 6.96 6.983 7.762 7.985 7.108 6.94 7.02 7.01 6.99 6.992 6.997 6.967 6.932 6.91 6.882 6.89 6.898 6.88 6.87 6.855 6.845 6.864 6.876
10.195 10.167 10.202 10.15 10.09 10.012 9.898 9.745 9.44 9.285 9.243 9.455 9.712 9.682 9.163 8.805 9.073 9.13 9.128 9.092 9.108 9.132 9.182 8.972 9.137 9.105 9.12 9.125 9.137 9.155 9.165 9.175 9.188 9.17 9.16 9.19 9.182 9.163 9.182 9.212 9.222 9.278 9.345 9.398 9.38 9.323 9.298 9.302 9.333 9.288 9.195 9.21 9.247 9.368 9.34 9.302 9.295 9.28 9.285 9.3 9.35 9.458 9.635 9.71 10.042 10.462 10.708 10.682 10.705 10.812 10.852 10.92 10.945 10.575 10.24 9.917 9.757 9.69 9.587 9.6 9.585 9.515 9.653 9.805 9.753 9.695 9.587 9.533 9.545 9.557 9.547 9.7 9.795 9.825 9.788 9.747 9.863 10.062 10.312 10.465 10.605 10.585 10.465 10.188 9.977 9.828 9.743 9.71 9.762 9.788 9.675 9.735 9.568 9.465 9.515 9.613 9.663 9.725 9.73 9.64 9.66 9.642 9.715 9.695 10.455 9.685 10.73 9.63 9.62 9.352 9.35 10.177 11.108 10.165 9.932 10.792 9.53 11.44 9.532 9.705 9.65 10.028 9.943 10.765 11.323 9.917 10.02 10.253 9.84 8.688 8.727 8.97 9.222 9.285 9.312 9.342 9.35 9.333 9.333 9.365 9.363 9.358 9.365 9.365 9.382 9.387 9.387 9.398 9.405 9.408 9.44 9.45 9.455 9.455 9.467 9.477 9.49 9.495 9.5 9.515 9.512 9.523 9.52 9.517 9.52 9.515 9.505 9.517 9.512 9.495 9.485 9.493 9.495 9.483 9.475 9.483 9.495 9.503 9.503 9.505 9.503 9.483 9.47 9.467 9.46 9.46 9.458 9.465 9.455 9.452 9.448 9.44 9.423 9.415 9.403 9.392 9.395 9.382 9.382 9.38 9.385 9.4 9.408 9.445 9.452 9.443 9.47 9.485 9.488 9.495 9.47 9.483 9.555 9.568 9.533 9.47 9.425 9.38 9.27 9.557 10.47 9.858 9.59 9.59 9.51 9.498 9.528 9.528 9.538 9.528 9.488 9.438 9.392 9.32 9.27 9.305 9.33 9.32 9.34 9.352 9.312 9.325 9.328 9.377 9.355 9.363 9.32 9.28 9.31 9.288 9.347 9.325 9.355 9.27 9.222 9.227 9.1 9.118 9.113 9.075 9.142 9.15 9.15 9.075 9.087 9.023 8.985 8.967 8.925 8.898 8.833 8.86 8.88 8.872 8.895 8.905 8.873 8.892 8.872 8.882 8.863 8.863 8.84 8.82 8.868 8.837 8.898 8.903 8.89 8.895 8.878 8.907 8.885 8.875 8.892 8.873 8.878 8.845 8.858 8.827 8.828 8.875 8.858 8.885 8.86 8.885 8.875 8.872 8.872 8.868 8.875 8.863 8.87 8.868 8.898 8.89 8.87 8.858 8.858 8.84 8.86 8.868 8.885 8.863 8.88 8.865 8.858 8.878 8.872 8.86 8.837 8.818 8.807 8.823 8.762 8.792 8.865 8.868 8.87 8.86 8.858 8.882 8.915 8.81 9.712 9.945 9.238 9.135 9.76 8.86 8.55 8.645 8.578 8.55 8.44 8.417 8.637 9.307 8.507 8.01 8.055 8.068 8.065 8.065 8.048 8.035 8.023 8.005 8.005 8.003 7.98 7.955 7.927 7.912 7.872 7.868 7.86 7.887 7.875 7.85 7.842 7.907 7.903 7.77 8.16 8.528 7.783 7.63 7.67 7.675 7.68 7.655 7.648 7.68 7.658 7.653 7.648 7.637 7.63 7.62 7.608 7.618 7.555 7.408 7.398 8.695 8.783 7.622 7.6 7.625 7.61 7.577 7.53 7.525 7.51 7.495 7.523 7.503 7.515 7.5 7.477 7.483 7.475 7.472 7.49 7.488 7.497 7.5 7.497 7.513 7.495 7.48 7.485 7.46 7.46 7.427 7.392 7.4 7.38 7.37 7.387 7.347 7.338 7.312 7.298 7.3 7.27 7.278 7.262 7.225 7.12 7.005 6.907 7.497 7.983 7.3 6.943 6.983 7.02 6.997 6.987 6.988 6.985 6.935 6.9 6.883 6.887 6.875 6.88 6.87 6.85 6.847 6.845 6.847 6.883
10.23 10.255 10.355 10.235 10.122 9.915 9.86 9.78 9.62 9.465 9.298 9.217 9.217 9.505 9.693 9.405 8.85 8.882 9.115 9.08 9.115 9.115 9.15 8.913 9.148 9.105 9.118 9.145 9.157 9.158 9.16 9.175 9.195 9.217 9.2 9.215 9.212 9.215 9.22 9.198 9.193 9.247 9.363 9.425 9.398 9.292 9.257 9.23 9.215 9.198 9.185 9.21 9.248 9.36 9.328 9.31 9.323 9.29 9.29 9.298 9.347 9.385 9.493 9.62 9.975 10.408 10.51 10.535 10.612 10.83 10.815 10.852 10.81 10.667 10.347 10.1 9.89 9.66 9.58 9.552 9.515 9.483 9.63 9.722 9.753 9.778 9.68 9.613 9.59 9.573 9.568 9.7 9.753 9.792 9.792 9.698 9.823 10.025 10.238 10.438 10.535 10.578 10.405 10.13 9.958 9.797 9.725 9.707 9.712 9.722 9.663 9.693 9.585 9.495 9.515 9.597 9.64 9.72 9.767 9.77 9.725 9.613 9.645 9.66 10.408 10.265 12.315 11.033 9.515 9.305 9.495 10.807 10.285 10.173 9.815 9.597 10.445 16.615 16.025 12.71 9.807 10.097 9.62 10.415 11.735 10.128 9.655 11.762 13.118 11.672 9.387 8.823 8.595 8.58 8.702 8.747 8.77 8.76 8.875 9.028 9.012 9.062 9.17 9.177 9.243 9.283 9.257 9.305 9.275 9.288 9.337 9.372 9.375 9.382 9.387 9.377 9.38 9.385 9.423 9.417 9.422 9.425 9.432 9.445 9.445 9.44 9.438 9.448 9.445 9.452 9.45 9.435 9.438 9.435 9.43 9.425 9.427 9.432 9.438 9.435 9.438 9.43 9.432 9.435 9.44 9.435 9.432 9.427 9.438 9.438 9.423 9.413 9.387 9.372 9.37 9.37 9.385 9.38 9.392 9.403 9.403 9.413 9.417 9.448 9.45 9.458 9.477 9.495 9.507 9.523 9.515 9.507 9.575 9.557 9.542 9.528 9.497 9.448 9.483 9.552 9.722 9.65 9.557 9.6 9.547 9.528 9.557 9.568 9.587 9.568 9.557 9.515 9.46 9.392 9.352 9.355 9.372 9.368 9.38 9.387 9.375 9.398 9.413 9.427 9.408 9.37 9.312 9.29 9.292 9.325 9.37 9.345 9.302 9.278 9.235 9.188 9.155 9.14 9.175 9.112 9.105 9.11 9.097 9.06 9.052 8.983 8.975 8.993 8.958 8.977 8.892 8.957 8.93 8.95 8.975 8.958 8.995 8.927 8.962 8.957 8.945 8.93 8.873 8.922 8.908 8.877 8.94 8.917 8.938 8.908 8.895 8.9 8.903 8.903 8.89 8.887 8.887 8.85 8.852 8.842 8.845 8.868 8.863 8.9 8.873 8.913 8.865 8.887 8.865 8.892 8.868 8.878 8.855 8.87 8.882 8.898 8.872 8.865 8.875 8.827 8.863 8.868 8.885 8.858 8.868 8.868 8.85 8.875 8.865 8.868 8.845 8.83 8.83 8.823 8.78 8.812 8.882 8.88 8.892 8.872 8.868 8.885 8.907 8.778 9.627 9.95 9.2 9.12 9.625 9.012 8.573 8.62 8.565 8.49 8.417 8.483 9.082 8.91 8 8.057 8.087 8.073 8.065 8.042 8.04 8.023 8.015 8.005 7.997 7.987 7.98 7.945 7.912 7.887 7.863 7.855 7.858 7.872 7.835 7.812 7.82 7.885 7.82 7.81 8.557 7.96 7.633 7.673 7.67 7.677 7.677 7.668 7.677 7.675 7.67 7.65 7.63 7.645 7.635 7.605 7.61 7.575 7.465 7.25 8.19 9.28 7.887 7.59 7.642 7.62 7.613 7.568 7.552 7.525 7.495 7.525 7.5 7.497 7.51 7.467 7.472 7.483 7.47 7.495 7.492 7.485 7.513 7.505 7.508 7.488 7.483 7.483 7.46 7.445 7.448 7.4 7.4 7.39 7.378 7.395 7.375 7.352 7.34 7.31 7.295 7.288 7.278 7.278 7.237 7.148 7.048 6.923 7.168 7.915 7.545 6.98 6.98 7.008 7.005 6.975 6.975 6.97 6.945 6.918 6.875 6.87 6.86 6.87 6.878 6.885 6.863 6.855 6.863 6.854 6.856
10.31 10.29 10.43 10.34 9.927 9.717 9.72 9.738 9.62 9.467 9.448 9.443 9.145 9.167 9.328 9.472 9.38 9.075 8.752 9.46 9.102 9.108 9.093 9.023 9.11 9.112 9.115 9.122 9.132 9.153 9.172 9.198 9.217 9.262 9.27 9.275 9.288 9.29 9.285 9.247 9.22 9.182 9.208 9.255 9.25 9.233 9.215 9.19 9.165 9.182 9.18 9.193 9.265 9.365 9.33 9.29 9.278 9.285 9.315 9.307 9.352 9.443 9.555 9.577 9.922 10.33 10.523 10.488 10.472 10.705 10.72 10.735 10.843 10.852 10.525 10.355 10.077 9.778 9.79 9.542 9.602 9.628 9.565 9.688 9.802 9.81 9.705 9.64 9.608 9.575 9.555 9.655 9.753 9.79 9.792 9.73 9.71 9.907 10.085 10.3 10.39 10.465 10.358 10.135 9.93 9.845 9.78 9.72 9.705 9.722 9.653 9.655 9.583 9.483 9.505 9.548 9.597 9.76 9.84 9.842 9.73 9.618 10.26 9.898 9.547 10.762 10.755 11.555 11.77 9.477 10.788 10.625 10.387 11.455 9.727 9.568 9.595 13.25 12.76 13.235 9.91 10.54 11.32 12.82 12.837 12.03 10.635 11.658 14.465 11.998 10.485 10.72 10.855 9.882 9.7 9.68 9.993 9.575 9.488 9.31 9.118 9.017 8.952 9.642 8.993 8.84 8.72 8.682 8.6 8.53 8.602 8.66 8.717 8.757 8.82 8.795 8.965 9.073 9.06 9.11 9.16 9.248 9.305 9.327 9.358 9.398 9.365 9.373 9.403 9.395 9.372 9.368 9.365 9.36 9.34 9.33 9.34 9.347 9.368 9.363 9.358 9.36 9.358 9.358 9.363 9.355 9.36 9.36 9.358 9.345 9.347 9.337 9.337 9.33 9.318 9.31 9.318 9.35 9.37 9.385 9.395 9.403 9.417 9.43 9.443 9.438 9.45 9.448 9.457 9.483 9.48 9.475 9.523 9.54 9.502 9.477 9.452 9.46 9.528 9.538 9.548 9.568 9.552 9.538 9.507 9.52 9.562 9.597 9.618 9.595 9.562 9.545 9.517 9.467 9.4 9.395 9.375 9.38 9.403 9.415 9.423 9.427 9.435 9.448 9.427 9.405 9.39 9.375 9.387 9.413 9.432 9.4 9.387 9.318 9.262 9.212 9.19 9.21 9.238 9.22 9.182 9.155 9.132 9.11 9.07 9.048 9.038 9.038 9.03 9 8.962 8.92 8.898 8.92 8.938 8.932 8.948 8.935 8.915 8.915 8.92 8.917 8.9 8.94 8.92 8.95 8.99 9.005 9.047 8.985 9 8.98 8.983 9.005 8.96 8.975 8.945 8.97 8.94 8.95 8.935 8.908 8.93 8.923 8.922 8.93 8.9 8.92 8.873 8.915 8.878 8.87 8.845 8.895 8.9 8.898 8.868 8.892 8.882 8.86 8.86 8.877 8.88 8.863 8.863 8.86 8.85 8.87 8.87 8.872 8.858 8.835 8.845 8.823 8.795 8.823 8.885 8.882 8.882 8.878 8.885 8.885 8.898 8.807 9.573 9.835 9.158 9.092 9.64 9.01 8.568 8.61 8.542 8.435 8.417 8.86 9.12 8.163 8.055 8.093 8.09 8.077 8.06 8.038 8.028 8.02 8.01 8.003 7.992 7.98 7.963 7.922 7.903 7.875 7.875 7.858 7.882 7.858 7.823 7.827 7.815 7.823 7.573 8.31 8.238 7.655 7.682 7.672 7.685 7.68 7.688 7.695 7.707 7.665 7.66 7.625 7.63 7.63 7.613 7.608 7.595 7.495 7.315 7.703 8.865 8.345 7.565 7.645 7.628 7.618 7.582 7.562 7.55 7.503 7.517 7.515 7.485 7.505 7.48 7.475 7.485 7.465 7.488 7.488 7.475 7.497 7.508 7.5 7.508 7.485 7.495 7.497 7.462 7.467 7.427 7.39 7.41 7.395 7.392 7.39 7.372 7.347 7.327 7.312 7.307 7.287 7.295 7.273 7.182 7.095 6.98 7.01 7.735 7.738 7.06 6.975 6.997 7.012 7.008 7 6.995 6.96 6.938 6.908 6.88 6.858 6.867 6.858 6.858 6.86 6.868 6.85 6.855 6.861 6.853
10.382 10.235 10.227 10.212 9.885 9.525 9.587 9.677 9.555 9.462 9.443 9.472 9.257 9.13 9.142 9.225 9.29 9.408 9.333 8.733 8.98 9.113 9.105 9.073 9.08 9.115 9.097 9.113 9.14 9.145 9.177 9.233 9.27 9.32 9.432 9.51 9.557 9.515 9.472 9.347 9.243 9.202 9.198 9.195 9.18 9.173 9.173 9.173 9.173 9.17 9.173 9.18 9.27 9.302 9.275 9.253 9.247 9.257 9.318 9.33 9.34 9.42 9.705 9.73 9.855 10.19 10.413 10.417 10.44 10.545 10.755 10.86 10.733 10.767 10.743 10.34 10.038 9.955 9.693 9.512 9.538 9.615 9.557 9.717 9.8 9.847 9.708 9.67 9.552 9.488 9.587 9.677 9.785 9.773 9.825 9.795 9.663 9.77 9.927 10.137 10.25 10.335 10.305 10.097 9.958 9.87 9.807 9.688 9.685 9.722 9.667 9.667 9.602 9.503 9.517 9.51 9.565 9.72 9.872 10.025 9.868 10.227 9.615 10.663 10.49 9.392 9.535 12.238 13.695 11.222 10.382 10.622 11.84 11.795 9.61 9.548 9.613 9.738 9.638 9.645 10.052 10.365 10.637 10.755 10.425 9.797 10.295 11.225 13.977 10.67 9.983 10.325 10.602 10.378 10.462 10.48 10.355 10.573 10.99 10.84 10.743 10.675 11.538 10.605 10.57 10.568 10.413 10.283 10.378 10.188 10.12 10.087 10.025 9.952 9.805 9.682 9.693 9.535 9.363 9.253 9.035 8.97 8.943 8.892 8.72 8.738 8.743 8.658 8.682 8.665 8.727 8.735 8.765 8.835 8.925 8.953 9.047 9.115 9.198 9.18 9.2 9.298 9.305 9.298 9.3 9.302 9.29 9.26 9.26 9.253 9.235 9.233 9.222 9.222 9.222 9.21 9.238 9.257 9.285 9.315 9.325 9.335 9.34 9.347 9.355 9.368 9.362 9.372 9.398 9.4 9.38 9.382 9.415 9.417 9.405 9.403 9.403 9.395 9.48 9.52 9.54 9.547 9.523 9.5 9.485 9.458 9.452 9.417 9.458 9.405 9.39 9.39 9.365 9.368 9.302 9.328 9.292 9.335 9.345 9.377 9.358 9.41 9.42 9.427 9.427 9.427 9.422 9.417 9.403 9.41 9.407 9.403 9.38 9.333 9.275 9.245 9.247 9.257 9.257 9.255 9.21 9.21 9.212 9.195 9.12 9.105 9.097 9.083 9.085 9.08 9.057 9 8.922 8.927 8.955 8.983 8.983 8.97 8.953 8.925 8.92 8.913 8.935 8.927 8.932 8.925 8.94 8.965 8.985 9.007 9.017 8.997 8.99 8.972 8.96 8.952 8.943 8.965 8.957 8.985 8.952 8.983 8.972 8.95 9.045 9.01 9.045 8.988 9.007 8.993 8.92 8.948 8.915 8.988 8.958 8.993 8.943 8.993 8.917 8.977 8.895 8.943 8.92 8.882 8.917 8.875 8.868 8.865 8.892 8.88 8.852 8.855 8.842 8.855 8.79 8.858 8.862 8.862 8.855 8.863 8.898 8.872 8.887 8.8 9.523 9.767 9.13 9.073 9.595 9.125 8.595 8.577 8.483 8.43 8.688 9.125 8.195 8.065 8.118 8.113 8.105 8.102 8.068 8.033 8.028 8.017 8.01 8.017 7.992 7.972 7.935 7.903 7.887 7.88 7.872 7.875 7.867 7.832 7.83 7.842 7.832 7.738 8.105 8.452 7.823 7.653 7.68 7.682 7.682 7.68 7.697 7.702 7.69 7.675 7.655 7.622 7.65 7.628 7.608 7.597 7.523 7.392 7.412 8.507 8.788 7.577 7.635 7.655 7.635 7.59 7.575 7.582 7.535 7.523 7.528 7.503 7.495 7.485 7.465 7.472 7.47 7.472 7.487 7.487 7.5 7.512 7.497 7.508 7.492 7.487 7.492 7.463 7.448 7.438 7.403 7.41 7.4 7.405 7.41 7.38 7.365 7.352 7.332 7.32 7.283 7.288 7.278 7.22 7.133 7.04 6.955 7.443 7.972 7.205 6.992 6.987 7.023 7.017 7.008 6.997 6.98 6.923 6.892 6.875 6.883 6.855 6.865 6.87 6.852 6.852 6.863 6.87 6.859 6.858 6.843
10.342 10.153 10.155 10.307 10.11 9.715 9.695 9.615 9.413 9.435 9.435 9.372 9.243 9.247 9.118 9.122 9.225 9.328 9.5 9.283 8.882 8.858 9.075 9.092 8.903 9.127 9.1 9.097 9.145 9.163 9.25 9.288 9.318 9.413 9.565 9.618 9.725 9.72 9.67 9.56 9.312 9.253 9.222 9.212 9.205 9.19 9.188 9.182 9.165 9.157 9.16 9.163 9.27 9.292 9.243 9.233 9.243 9.243 9.262 9.307 9.33 9.398 9.552 9.632 9.755 10.015 10.323 10.533 10.523 10.59 10.775 10.767 10.87 10.898 10.66 10.488 10.12 9.935 9.7 9.542 9.618 9.613 9.63 9.765 9.858 9.833 9.847 9.722 9.548 9.578 9.568 9.765 9.85 9.792 9.76 9.743 9.688 9.693 9.907 10.057 10.132 10.17 10.203 9.995 9.927 9.863 9.795 9.712 9.698 9.695 9.67 9.63 9.57 9.495 9.5 9.517 9.48 9.69 9.72 9.922 9.985 9.965 10.137 9.83 11.18 9.735 11.273 10.63 11.337 9.15 9.638 11.875 11.342 9.915 11.092 13.135 9.9 9.565 9.585 9.6 10.25 11.087 10.485 10.283 9.757 9.57 9.59 9.455 10.485 9.295 9.125 9.042 9.055 9.087 9.155 9.113 9.157 9.19 9.175 9.267 9.307 9.415 9.323 9.75 9.825 9.87 9.61 9.845 10.14 9.85 10.012 10.078 10.368 11.323 10.335 10.64 10.667 10.655 10.548 10.635 10.557 10.475 10.46 10.365 10.35 10.36 10.37 10.245 10.2 10.123 10.033 9.85 9.778 9.677 9.565 9.335 9.22 9.222 9.033 8.932 8.85 8.845 8.79 8.73 8.698 8.682 8.658 8.698 8.775 8.795 8.84 8.812 8.825 8.847 8.967 9.073 9.145 9.15 9.182 9.267 9.265 9.302 9.285 9.257 9.27 9.262 9.27 9.265 9.285 9.255 9.253 9.27 9.275 9.3 9.315 9.302 9.253 9.29 9.378 9.427 9.47 9.485 9.495 9.48 9.48 9.458 9.427 9.42 9.417 9.41 9.382 9.358 9.327 9.308 9.305 9.298 9.29 9.27 9.295 9.283 9.3 9.265 9.295 9.28 9.323 9.295 9.345 9.295 9.312 9.337 9.283 9.278 9.26 9.265 9.205 9.243 9.238 9.255 9.255 9.255 9.257 9.243 9.22 9.205 9.182 9.15 9.155 9.142 9.125 9.09 9.057 9.017 8.96 8.943 8.94 8.98 8.967 8.972 8.97 8.975 8.962 8.985 8.993 9.005 9.003 8.997 9.017 9.028 9.048 9.06 9.045 9.052 9.025 9.023 9.015 9.01 9.003 9.012 9.017 9.017 8.998 9.005 8.98 8.998 9.035 9.028 9.06 9.017 9.01 8.96 8.95 8.95 8.93 8.993 8.975 8.988 8.977 9.033 8.988 9.023 8.98 8.995 8.985 8.967 8.993 8.93 8.965 8.913 8.99 8.938 8.95 8.948 8.915 8.935 8.847 8.913 8.863 8.88 8.855 8.885 8.905 8.905 8.878 8.783 9.573 9.735 9.092 9.052 9.528 9.363 8.592 8.533 8.483 8.503 9.115 8.773 8.105 8.14 8.155 8.137 8.16 8.14 8.113 8.06 8.04 8.028 8.017 8.01 7.992 7.967 7.918 7.88 7.88 7.875 7.878 7.87 7.85 7.85 7.845 7.812 7.755 7.722 8.538 8.04 7.655 7.688 7.688 7.707 7.705 7.7 7.705 7.705 7.69 7.668 7.618 7.65 7.632 7.608 7.608 7.552 7.46 7.315 8.195 9.153 7.865 7.597 7.672 7.632 7.605 7.575 7.568 7.543 7.515 7.543 7.523 7.497 7.513 7.483 7.483 7.49 7.47 7.485 7.483 7.48 7.5 7.488 7.49 7.495 7.487 7.505 7.475 7.447 7.45 7.41 7.412 7.398 7.407 7.415 7.38 7.363 7.35 7.335 7.338 7.31 7.303 7.305 7.267 7.173 7.092 6.99 7.233 7.827 7.383 6.943 6.957 7.01 7.015 7.015 7.013 7.017 6.955 6.92 6.892 6.865 6.852 6.863 6.852 6.852 6.865 6.855 6.865 6.863 6.863 6.855 6.863
10.065 9.952 9.78 9.702 9.8 9.805 9.755 9.52 9.408 9.475 9.475 9.395 9.302 9.227 9.19 9.105 9.102 9.172 9.222 9.35 9.217 9.18 8.818 8.99 8.792 9.087 9.122 9.105 9.132 9.17 9.25 9.288 9.358 9.485 9.597 9.645 9.693 9.632 9.605 9.56 9.39 9.292 9.293 9.26 9.247 9.24 9.233 9.19 9.14 9.145 9.142 9.172 9.247 9.25 9.26 9.247 9.253 9.245 9.255 9.292 9.305 9.355 9.405 9.77 9.635 9.93 10.23 10.48 10.61 10.72 10.915 10.943 10.932 10.868 10.718 10.405 10.155 10.023 9.735 9.585 9.507 9.568 9.587 9.71 9.875 9.9 9.938 9.773 9.677 9.55 9.575 9.825 9.858 9.83 9.825 9.753 9.74 9.682 9.852 10.03 10.093 10.083 9.993 9.93 9.88 9.795 9.778 9.763 9.703 9.705 9.718 9.635 9.565 9.507 9.517 9.517 9.54 9.595 9.597 9.798 9.952 9.962 9.753 9.698 9.985 9.548 11.195 9.517 9.28 9.035 12.148 10.882 10.365 10.207 9.92 12.015 9.735 10.898 13.488 12.908 10.727 11.155 10.105 9.403 9.18 9.163 9.122 9.092 9.1 9.118 9.125 9.135 9.157 9.18 9.193 9.215 9.215 9.238 9.222 9.218 9.208 9.193 9.15 9.113 9.065 9.038 9.01 8.97 8.925 8.913 8.93 8.92 8.923 8.927 8.927 8.898 9.04 9.043 9.15 9.198 9.13 9.108 9.185 9.493 9.815 9.483 10.06 10.175 9.92 10.34 10.97 10.673 11.172 10.715 10.662 10.628 10.625 10.785 10.61 10.55 10.405 10.39 10.443 10.26 10.125 10.025 10.01 9.908 9.842 9.807 9.635 9.63 9.517 9.253 9.155 9.07 8.938 8.92 8.925 8.875 8.82 8.66 8.65 8.653 8.735 8.733 8.828 8.755 8.795 8.745 8.805 8.987 8.995 9.033 9.02 9.068 8.892 8.705 8.677 8.725 8.835 9.092 9.257 9.305 9.36 9.398 9.415 9.455 9.435 9.42 9.365 9.34 9.3 9.275 9.245 9.235 9.233 9.202 9.21 9.22 9.238 9.243 9.26 9.27 9.292 9.318 9.328 9.328 9.312 9.307 9.288 9.282 9.273 9.255 9.235 9.222 9.22 9.177 9.16 9.14 9.17 9.12 9.115 9.113 9.083 9.078 9.08 9.06 9.042 8.99 8.967 8.94 8.972 8.932 8.945 8.938 8.935 8.922 8.935 8.943 8.97 8.983 9.035 9.04 9.047 9.045 9.05 9.055 9.062 9.083 9.077 9.09 9.077 9.07 9.055 9.035 9.038 9.038 9.06 9.058 9.068 9.075 9.068 9.087 9.112 9.118 9.112 9.087 9.062 9.02 8.995 8.998 9.002 9.02 9.003 9.028 9.04 9.048 9.062 9.033 8.995 8.977 8.943 8.925 8.925 8.913 8.89 8.9 8.948 8.935 8.958 8.95 8.93 8.948 8.875 8.91 8.9 8.875 8.903 8.96 8.923 8.932 8.87 8.778 9.547 9.705 9.038 9.015 9.16 8.765 8.613 8.538 8.51 8.517 8.585 8.265 8.182 8.2 8.185 8.18 8.198 8.167 8.118 8.08 8.052 8.05 8.038 8.015 7.995 7.957 7.918 7.88 7.872 7.88 7.863 7.847 7.85 7.86 7.83 7.793 7.48 8.245 8.345 7.733 7.685 7.688 7.707 7.705 7.717 7.715 7.715 7.702 7.685 7.653 7.648 7.648 7.618 7.605 7.588 7.5 7.347 7.72 8.485 7.905 7.578 7.648 7.635 7.635 7.588 7.57 7.562 7.53 7.553 7.543 7.517 7.515 7.488 7.485 7.492 7.465 7.477 7.475 7.475 7.495 7.487 7.475 7.483 7.477 7.483 7.48 7.447 7.438 7.425 7.415 7.41 7.403 7.44 7.418 7.387 7.378 7.355 7.347 7.332 7.305 7.307 7.288 7.193 7.113 7.038 7.04 7.765 7.602 7.017 6.945 7 7.015 6.997 7.003 7.005 6.988 6.945 6.895 6.872 6.867 6.855 6.863 6.86 6.85 6.86 6.87 6.852 6.847 6.858 6.846 6.848
10.042 9.875 9.672 9.64 9.738 9.775 9.595 9.378 9.648 9.87 9.477 9.483 9.34 9.267 9.222 9.2 9.108 9.09 9.175 9.175 9.29 9.307 9.29 8.91 8.528 9.028 9.142 9.105 9.1 9.132 9.243 9.275 9.34 9.488 9.613 9.675 9.677 9.65 9.587 9.507 9.405 9.288 9.29 9.298 9.238 9.257 9.288 9.165 9.128 9.128 9.118 9.195 9.25 9.283 9.305 9.305 9.292 9.288 9.285 9.285 9.307 9.327 9.38 9.512 9.653 9.915 10.212 10.422 10.59 10.612 10.835 10.975 10.925 10.767 10.648 10.477 10.26 10.023 9.858 9.575 9.557 9.512 9.68 9.82 9.833 9.833 9.915 9.872 9.863 9.66 9.62 9.703 9.82 9.87 9.855 9.77 9.755 9.778 9.835 9.985 10.04 10.01 9.913 9.908 9.872 9.82 9.773 9.77 9.705 9.73 9.708 9.622 9.588 9.54 9.528 9.497 9.578 9.788 9.847 9.79 9.988 9.92 9.815 9.685 9.562 9.528 9.575 9.932 9.398 9 11.64 11.28 10.655 9.983 9.655 9.663 9.712 10.042 12.592 13.952 10.08 9.387 9.255 9.233 9.193 9.19 9.208 9.227 9.243 9.257 9.26 9.253 9.252 9.267 9.295 9.315 9.325 9.335 9.35 9.362 9.35 9.352 9.323 9.31 9.285 9.25 9.22 9.2 9.195 9.167 9.153 9.105 9.09 9.085 9.08 9.06 9.045 9.025 9.02 9.02 9.017 9.012 8.995 8.948 8.922 8.9 8.878 8.86 8.875 8.833 8.875 8.795 8.793 8.795 8.82 8.828 8.865 9.172 9.16 9.475 9.298 9.182 9.182 9.423 9.63 9.525 9.605 9.505 9.755 9.977 10.345 10.4 10.458 10.488 10.483 10.405 10.5 10.475 10.355 10.435 10.54 10.53 10.465 10.415 10.288 10.217 10.533 10.04 9.855 9.722 9.618 9.397 9.262 9.05 8.993 8.98 8.913 9.95 11.265 10.597 8.38 8.445 8.485 8.512 8.472 8.507 8.672 8.58 8.773 8.775 8.773 8.812 8.865 9.003 8.975 9.05 9.057 9.097 9.128 9.123 9.225 9.2 9.28 9.27 9.3 9.358 9.372 9.37 9.31 9.325 9.283 9.248 9.222 9.222 9.2 9.182 9.19 9.18 9.17 9.167 9.16 9.16 9.132 9.122 9.102 9.102 9.1 9.087 9.052 9.023 8.962 8.922 8.845 8.812 8.775 8.755 8.71 8.702 8.69 8.798 8.833 8.833 8.915 8.945 8.953 8.977 8.97 9.005 8.965 9.015 9.038 9.05 9.057 9.087 9.078 9.08 9.075 9.092 9.075 9.09 9.1 9.108 9.113 9.115 9.137 9.137 9.142 9.123 9.092 9.077 9.065 9.062 9.055 9.048 9.068 9.08 9.08 9.087 9.075 9.055 9.042 9.01 8.977 8.975 8.94 8.925 8.925 8.922 8.927 8.935 8.955 8.955 8.95 8.915 8.89 8.872 8.865 8.81 8.88 8.895 8.86 8.908 8.915 8.797 9.438 9.785 8.983 8.962 8.943 8.83 8.592 8.515 8.515 8.42 8.315 8.26 8.245 8.222 8.198 8.195 8.19 8.17 8.137 8.108 8.073 8.05 8.048 8.02 8.005 7.975 7.93 7.898 7.875 7.865 7.838 7.845 7.87 7.84 7.842 7.655 7.963 8.53 7.855 7.65 7.685 7.697 7.69 7.707 7.717 7.705 7.707 7.698 7.665 7.628 7.65 7.618 7.6 7.588 7.525 7.435 7.45 8.54 8.137 7.557 7.628 7.653 7.64 7.59 7.568 7.568 7.538 7.545 7.56 7.53 7.52 7.508 7.5 7.495 7.488 7.47 7.472 7.475 7.472 7.483 7.472 7.477 7.47 7.467 7.5 7.46 7.445 7.43 7.415 7.435 7.4 7.422 7.438 7.398 7.36 7.36 7.345 7.35 7.328 7.335 7.323 7.247 7.148 7.06 6.985 7.497 7.812 7.115 6.97 6.965 7.005 6.995 7 6.997 6.98 6.947 6.932 6.887 6.86 6.852 6.845 6.852 6.855 6.852 6.835 6.863 6.847 6.867 6.855 6.857 6.847
10.122 9.73 9.495 9.512 9.57 9.705 9.67 9.398 9.488 9.61 9.413 9.422 9.37 9.29 9.23 9.212 9.188 9.095 9.09 9.127 9.153 9.19 9.27 9.337 9.077 8.585 8.92 9.128 9.093 9.1 9.148 9.21 9.253 9.42 9.615 9.685 9.702 9.645 9.512 9.435 9.37 9.29 9.235 9.225 9.188 9.185 9.18 9.115 9.108 9.105 9.115 9.24 9.302 9.355 9.372 9.355 9.35 9.335 9.333 9.31 9.315 9.328 9.358 9.455 9.637 9.87 10.32 10.435 10.49 10.485 10.562 10.75 10.887 10.665 10.472 10.432 10.387 10.07 9.785 9.62 9.61 9.622 9.623 9.765 9.845 9.802 9.757 9.753 9.708 9.66 9.717 9.81 9.8 9.89 9.905 9.802 9.815 9.87 9.79 9.958 10.02 9.993 9.907 9.815 9.793 9.77 9.785 9.818 9.778 9.74 9.675 9.59 9.6 9.573 9.548 9.55 9.69 9.84 9.843 9.833 9.85 10 9.83 9.73 10.138 10.23 10.007 9.385 9.082 9.012 10.023 10.69 10.615 9.975 9.67 9.695 10.1 10.565 10.217 9.577 9.305 9.25 9.285 9.347 9.33 9.298 9.312 9.333 9.33 9.33 9.32 9.323 9.327 9.342 9.358 9.362 9.36 9.387 9.403 9.415 9.403 9.387 9.368 9.355 9.337 9.323 9.297 9.27 9.235 9.22 9.208 9.192 9.175 9.167 9.163 9.163 9.158 9.157 9.148 9.132 9.125 9.12 9.11 9.08 9.062 9.06 9.055 9.05 9.05 9.05 9.032 9.02 8.993 8.965 8.958 8.948 8.93 8.922 8.922 8.908 8.903 8.875 8.88 8.845 8.835 8.827 8.865 8.833 8.795 8.762 8.743 8.77 8.79 8.798 8.87 9.12 8.983 8.873 8.92 8.98 9.115 9.28 9.358 9.602 9.573 9.507 9.622 9.733 10.188 9.943 10.778 10.712 10.765 10.733 10.608 10.642 10.467 9.705 9.727 8.792 9.14 9.78 10.18 10.182 10.205 10.09 10.048 9.927 9.773 9.602 9.528 9.41 9.275 9.172 9.19 9.08 8.858 8.84 8.807 8.663 8.54 8.512 8.495 8.458 8.49 8.695 8.523 8.705 8.773 8.828 8.872 9.002 8.975 9.057 9.05 9.1 9.15 9.19 9.182 9.16 9.165 9.097 9.075 9.017 9.028 9.013 9.05 9.033 9.03 8.977 8.943 8.885 8.843 8.797 8.757 8.73 8.69 8.62 8.64 8.712 8.755 8.81 8.833 8.863 8.878 8.898 8.91 8.917 8.93 8.925 8.943 8.917 8.927 8.865 8.895 8.905 8.962 8.915 8.99 8.948 8.98 9.023 8.99 9.01 9.023 9.057 9.035 9.028 9.02 9.082 9.05 9.08 9.087 9.087 9.09 9.108 9.097 9.083 9.057 9.038 9.035 9.017 9.003 8.977 8.958 8.94 8.93 8.927 8.935 8.935 8.943 8.955 8.932 8.932 8.895 8.86 8.88 8.875 8.875 8.88 8.913 8.915 8.917 8.823 9.042 9.17 8.898 8.917 8.983 8.93 8.493 8.51 8.83 8.462 8.25 8.215 8.195 8.177 8.153 8.145 8.145 8.127 8.102 8.08 8.065 8.062 8.068 8.05 8.02 7.995 7.95 7.892 7.875 7.872 7.855 7.872 7.863 7.865 7.725 7.755 8.435 8.042 7.648 7.67 7.67 7.69 7.7 7.715 7.702 7.705 7.707 7.688 7.64 7.665 7.648 7.6 7.597 7.555 7.452 7.273 8.155 8.46 7.7 7.588 7.662 7.632 7.608 7.573 7.562 7.543 7.54 7.573 7.535 7.517 7.528 7.49 7.497 7.485 7.477 7.483 7.483 7.477 7.495 7.483 7.483 7.485 7.457 7.465 7.457 7.44 7.432 7.425 7.425 7.418 7.408 7.44 7.412 7.39 7.367 7.355 7.35 7.332 7.345 7.323 7.283 7.177 7.082 6.997 7.218 7.855 7.345 6.945 6.95 7 7 6.985 6.985 6.985 6.952 6.925 6.9 6.885 6.855 6.858 6.85 6.84 6.85 6.858 6.847 6.835 6.845 6.835 6.844 6.837 6.829
9.715 9.56 9.46 9.448 9.372 9.47 9.387 9.465 9.41 9.337 9.382 9.425 9.373 9.267 9.208 9.158 9.142 9.123 9.078 9.055 9.05 9.108 9.173 9.243 9.358 9.35 8.722 9.015 9.13 9.108 9.118 9.165 9.217 9.33 9.535 9.663 9.648 9.525 9.45 9.425 9.382 9.297 9.217 9.175 9.155 9.14 9.137 9.095 9.092 9.09 9.118 9.29 9.333 9.365 9.368 9.372 9.375 9.368 9.37 9.368 9.335 9.315 9.325 9.435 9.677 9.8 10.182 10.382 10.32 10.54 10.445 10.675 10.78 10.6 10.538 10.427 10.33 10.03 9.89 9.63 9.587 9.708 9.642 9.688 9.958 9.97 9.757 9.635 9.64 9.71 9.827 9.72 9.753 9.863 9.868 9.815 9.86 9.858 9.798 9.865 10.012 9.997 9.935 9.903 9.87 9.81 9.79 9.882 9.852 9.773 9.673 9.587 9.655 9.773 9.783 9.802 9.835 9.837 9.89 9.858 9.83 9.783 9.765 9.613 9.608 9.51 9.552 9.335 9 8.983 10.247 11.4 10.385 9.87 9.662 11.712 12.495 10.155 9.557 9.44 9.352 9.347 9.413 9.417 9.395 9.403 9.395 9.385 9.352 9.345 9.35 9.36 9.377 9.382 9.405 9.422 9.44 9.453 9.457 9.452 9.472 9.46 9.45 9.435 9.415 9.377 9.342 9.328 9.302 9.28 9.273 9.257 9.23 9.215 9.222 9.207 9.212 9.2 9.195 9.198 9.195 9.188 9.172 9.16 9.158 9.15 9.145 9.125 9.122 9.11 9.1 9.095 9.073 9.05 9.052 9.055 9.057 9.06 9.052 9.04 9.042 9.028 9.017 9.012 9.005 9.012 9.012 8.988 8.962 8.962 8.972 8.97 8.97 8.95 8.948 8.95 8.955 8.948 8.958 8.948 8.908 8.882 8.845 8.795 8.773 8.755 8.795 8.815 8.823 8.82 8.79 8.898 8.773 8.892 8.827 8.847 8.907 8.78 8.972 9.835 10.477 8.99 9.312 9.452 9.613 9.672 9.788 9.745 9.885 9.985 9.997 10.2 10.405 10.432 10.305 10.49 10.47 10.443 10.318 10.36 10.267 10.238 10.12 10.102 10.042 9.945 9.815 9.54 9.613 9.495 9.315 9.118 9.155 8.983 8.808 8.708 8.792 8.71 8.585 8.53 8.48 8.525 8.677 8.613 8.75 8.655 8.682 8.778 8.738 8.858 8.717 8.72 8.665 8.688 8.663 8.65 8.655 8.615 8.655 8.693 8.717 8.725 8.767 8.77 8.802 8.788 8.8 8.818 8.827 8.86 8.868 8.86 8.84 8.84 8.84 8.852 8.87 8.895 8.92 8.927 8.952 8.97 9 9.015 9.038 9.052 9.05 9.03 9.02 9.017 9.028 9.028 9.005 8.985 8.98 8.967 8.972 8.955 8.927 8.938 8.985 8.92 8.895 8.953 8.92 8.908 8.898 8.915 8.903 8.91 8.948 8.94 8.935 8.908 8.89 8.873 8.89 8.932 8.948 8.925 8.92 8.887 8.837 8.812 8.85 8.833 8.815 8.865 9.097 9.252 8.65 8.923 8.847 8.815 8.442 8.312 8.19 8.163 8.142 8.125 8.12 8.11 8.08 8.057 8.038 8.023 8.025 8.033 8.03 8.012 7.96 7.915 7.885 7.907 7.882 7.875 7.898 7.803 7.408 8.02 8.745 7.81 7.658 7.693 7.695 7.685 7.697 7.717 7.71 7.71 7.7 7.66 7.655 7.653 7.61 7.597 7.575 7.488 7.318 7.685 8.43 7.905 7.575 7.642 7.63 7.618 7.577 7.55 7.535 7.53 7.573 7.56 7.53 7.553 7.512 7.517 7.51 7.483 7.485 7.475 7.47 7.487 7.462 7.483 7.488 7.475 7.465 7.477 7.457 7.45 7.423 7.425 7.435 7.41 7.427 7.42 7.378 7.383 7.355 7.343 7.355 7.338 7.352 7.315 7.22 7.122 7.023 7.055 7.747 7.628 6.977 6.94 6.972 6.988 6.995 6.985 6.97 6.945 6.918 6.91 6.875 6.858 6.85 6.838 6.838 6.832 6.827 6.83 6.845 6.825 6.855 6.838 6.839 6.841 6.847
9.32 9.41 9.355 9.4 9.295 9.373 9.42 9.42 9.387 9.375 9.413 9.422 9.395 9.363 9.253 9.135 9.142 9.158 9.113 9.038 8.99 9.01 9.1 9.18 9.252 9.445 9.333 8.722 9.062 9.148 9.125 9.16 9.193 9.278 9.453 9.585 9.552 9.445 9.407 9.4 9.333 9.262 9.202 9.165 9.155 9.128 9.12 9.093 9.073 9.077 9.115 9.3 9.295 9.305 9.337 9.352 9.382 9.39 9.413 9.365 9.343 9.312 9.3 9.438 9.733 9.792 9.94 10.11 10.167 10.165 10.275 10.525 10.56 10.57 10.44 10.425 10.28 10.135 9.852 9.648 9.583 9.67 9.653 9.78 10.203 10.26 9.818 9.767 9.858 9.918 9.863 9.767 9.765 9.898 9.85 9.793 9.823 9.802 9.815 9.72 9.913 9.995 9.993 9.95 9.895 9.922 9.903 9.945 9.83 9.765 9.665 9.608 9.65 9.833 9.833 9.833 9.828 9.82 9.807 9.662 9.673 9.773 9.77 9.658 9.642 9.66 9.62 9.413 8.972 9.07 11.057 10.998 10.337 9.953 9.855 11.307 10.868 9.535 9.562 9.533 9.485 9.485 9.47 9.45 9.425 9.422 9.403 9.378 9.358 9.347 9.345 9.355 9.38 9.413 9.417 9.415 9.43 9.44 9.455 9.48 9.49 9.5 9.495 9.462 9.445 9.423 9.395 9.365 9.337 9.3 9.312 9.275 9.267 9.257 9.255 9.25 9.243 9.24 9.233 9.233 9.233 9.233 9.217 9.212 9.2 9.19 9.182 9.17 9.175 9.163 9.142 9.12 9.115 9.1 9.095 9.087 9.1 9.102 9.105 9.097 9.09 9.073 9.062 9.075 9.075 9.075 9.065 9.05 9.05 9.045 9.035 9.038 9.07 9.087 9.102 9.08 9.06 9.042 9.04 9.042 9.052 9.033 9.017 8.988 8.967 8.927 8.903 8.91 8.92 8.882 8.84 8.802 8.747 8.658 8.49 8.315 8.302 8.31 8.318 9.035 10.055 8.438 8.653 8.922 8.925 8.865 8.81 8.775 8.795 8.762 8.78 8.788 8.823 8.833 8.855 8.96 9.092 9.095 9.262 9.405 9.382 9.23 9.695 9.67 9.783 9.86 9.747 10.052 9.892 10.137 9.9 10.122 10.11 10.318 10.05 10.222 10.243 10.07 9.913 9.983 9.865 9.875 9.807 9.708 9.575 9.417 9.363 9.26 9.23 9.175 8.953 8.932 8.865 8.775 8.72 8.627 8.648 8.548 8.562 8.417 8.48 8.432 8.427 8.48 8.46 8.587 8.592 8.6 8.745 8.642 8.717 8.658 8.722 8.667 8.74 8.73 8.757 8.8 8.842 8.847 8.86 8.87 8.917 8.96 9.005 8.985 9 8.99 8.988 8.977 8.997 9 9.005 8.997 8.977 8.958 8.965 8.955 8.948 8.93 8.94 8.92 8.917 8.922 8.91 8.885 8.833 8.828 8.78 8.77 8.775 8.815 8.735 8.738 8.735 8.76 8.752 8.847 8.858 8.868 8.872 8.878 8.788 8.77 8.81 8.77 8.79 8.82 9.042 9.62 8.948 9.005 9.132 9.07 8.472 8.215 8.267 8.355 8.18 8.135 8.12 8.102 8.105 8.09 8.065 8.042 8.02 8.005 7.985 7.997 7.975 7.932 7.918 7.908 7.87 7.92 7.903 7.597 7.765 9.09 11.31 7.665 7.69 7.688 7.682 7.69 7.698 7.702 7.688 7.702 7.69 7.655 7.665 7.637 7.61 7.595 7.525 7.403 7.45 8.443 8.075 7.568 7.62 7.64 7.63 7.588 7.57 7.555 7.537 7.575 7.565 7.543 7.533 7.533 7.515 7.515 7.5 7.488 7.49 7.483 7.495 7.483 7.477 7.5 7.475 7.46 7.475 7.438 7.443 7.422 7.412 7.425 7.43 7.435 7.438 7.387 7.383 7.38 7.352 7.338 7.327 7.33 7.332 7.26 7.158 7.07 6.985 7.533 7.795 7.075 6.927 6.972 6.963 6.983 6.972 6.96 6.93 6.898 6.88 6.872 6.863 6.843 6.855 6.85 6.838 6.835 6.838 6.845 6.838 6.832 6.84 6.852 6.844 6.844 6.847
9.547 9.608 9.427 9.41 9.392 9.28 9.405 9.39 9.365 9.343 9.392 9.395 9.38 9.312 9.165 9.142 9.155 9.15 9.137 9.113 9.017 8.917 8.98 9.125 9.17 9.238 9.405 9.333 8.655 9.095 9.18 9.155 9.145 9.205 9.358 9.415 9.415 9.39 9.337 9.295 9.24 9.193 9.148 9.137 9.132 9.105 9.095 9.075 9.075 9.07 9.097 9.19 9.177 9.195 9.26 9.337 9.392 9.413 9.432 9.36 9.325 9.293 9.305 9.42 9.575 9.73 9.925 10.057 10.115 10.062 10.135 10.297 10.298 10.292 10.302 10.238 10.057 9.865 9.66 9.68 9.792 9.665 9.682 9.715 9.958 9.96 9.958 9.908 9.965 9.925 9.915 9.927 9.872 9.878 9.73 9.675 10.07 9.807 9.733 9.653 9.733 9.915 10.028 10.113 10.118 10.113 10.03 9.93 9.965 9.82 9.695 9.657 9.677 9.823 9.83 9.84 9.837 9.818 9.745 9.613 9.76 9.767 9.705 9.538 9.545 9.695 9.568 9.247 8.925 9.097 10.5 10.552 10.312 10.05 9.88 9.528 9.475 9.548 9.632 9.562 9.555 9.525 9.497 9.452 9.448 9.43 9.39 9.36 9.363 9.363 9.378 9.39 9.398 9.408 9.42 9.435 9.452 9.48 9.503 9.512 9.538 9.545 9.507 9.493 9.455 9.452 9.443 9.413 9.382 9.358 9.35 9.323 9.295 9.265 9.263 9.253 9.257 9.245 9.235 9.243 9.233 9.235 9.222 9.205 9.2 9.182 9.18 9.19 9.19 9.165 9.145 9.135 9.13 9.12 9.115 9.113 9.122 9.123 9.122 9.12 9.122 9.128 9.122 9.108 9.108 9.118 9.118 9.122 9.108 9.11 9.108 9.113 9.113 9.125 9.13 9.142 9.145 9.13 9.112 9.108 9.095 9.092 9.092 9.065 9.038 9.023 9.003 9.015 9.052 9.05 9.028 8.98 8.93 8.718 8.398 8.308 8.315 8.36 8.4 8.448 8.497 8.635 8.88 9.007 9.057 9.057 9.045 9.015 9.003 9 9.003 8.995 8.993 8.988 8.972 8.962 8.958 8.948 8.955 8.955 8.948 8.955 8.943 8.927 8.9 8.878 8.845 8.8 8.775 8.775 8.733 8.735 8.792 8.715 8.65 8.76 8.698 9.135 9.06 9.03 8.88 9.075 9.122 9.365 9.562 9.475 9.635 9.642 9.507 9.675 9.705 9.865 9.967 9.863 9.96 10.05 9.977 9.895 9.795 9.788 9.78 9.667 9.657 9.618 9.53 9.498 9.365 9.32 9.148 9.023 8.868 8.855 8.863 8.868 8.7 8.637 8.673 8.648 8.52 8.547 8.485 8.453 8.483 8.583 8.708 8.677 8.673 8.712 8.837 8.88 9.007 8.995 9.028 9.05 8.988 9.075 9.04 9.062 9.03 8.993 8.983 8.925 8.88 8.843 8.845 8.8 8.77 8.743 8.735 8.733 8.745 8.735 8.705 8.673 8.667 8.715 8.778 8.818 8.81 8.825 8.885 8.898 8.842 8.785 8.805 8.753 8.748 8.788 9.025 10.865 9.56 9.222 8.967 8.318 8.202 8.225 8.233 8.243 8.253 8.215 8.28 8.24 8.115 8.093 8.068 8.057 8.05 8.038 8.023 8.007 7.988 7.947 7.94 7.905 7.868 7.885 7.74 7.465 8.34 8.243 7.715 7.675 7.69 7.69 7.685 7.713 7.69 7.7 7.69 7.695 7.665 7.658 7.648 7.615 7.592 7.553 7.452 7.338 8.312 8.385 7.645 7.608 7.637 7.63 7.597 7.557 7.543 7.528 7.56 7.577 7.568 7.555 7.57 7.533 7.525 7.523 7.497 7.5 7.49 7.492 7.487 7.475 7.503 7.495 7.47 7.475 7.46 7.44 7.43 7.4 7.42 7.435 7.427 7.443 7.4 7.383 7.375 7.347 7.345 7.335 7.352 7.35 7.307 7.195 7.118 6.993 7.267 7.932 7.267 6.898 6.95 6.952 6.965 6.97 6.967 6.943 6.908 6.875 6.847 6.855 6.858 6.845 6.847 6.845 6.84 6.845 6.838 6.84 6.835 6.838 6.847 6.85 6.853 6.838 6.832
9.365 9.45 9.498 9.373 9.302 9.337 9.358 9.343 9.335 9.297 9.34 9.363 9.307 9.217 9.165 9.13 9.14 9.157 9.15 9.122 9.087 8.99 8.988 9.057 9.153 9.17 9.202 9.488 9.255 8.653 9.11 9.212 9.145 9.153 9.262 9.3 9.325 9.292 9.227 9.205 9.167 9.135 9.125 9.1 9.097 9.112 9.112 9.078 9.06 9.06 9.08 9.15 9.162 9.21 9.285 9.373 9.493 9.618 9.642 9.525 9.42 9.323 9.315 9.417 9.717 9.802 9.98 10.175 10.202 10.155 10.225 10.358 10.448 10.417 10.363 10.385 10.227 10.08 9.872 9.753 9.84 9.702 9.74 9.717 9.872 9.852 9.83 9.903 9.975 10.007 10.042 9.96 9.875 9.712 9.583 9.495 9.762 9.542 9.84 9.773 9.632 9.852 9.993 10.025 10.065 10.15 10.025 9.977 9.997 9.802 9.65 9.698 9.648 9.81 9.843 9.84 9.84 9.823 9.738 9.695 9.583 9.62 9.733 9.635 9.63 9.562 9.38 9.123 8.932 9.37 10.573 10.575 10.355 9.935 9.387 9.4 9.472 9.583 9.548 9.555 9.602 9.555 9.525 9.47 9.46 9.432 9.4 9.365 9.368 9.372 9.368 9.358 9.345 9.385 9.415 9.438 9.452 9.48 9.507 9.53 9.54 9.53 9.517 9.5 9.48 9.455 9.432 9.422 9.39 9.372 9.355 9.333 9.318 9.298 9.278 9.275 9.267 9.26 9.255 9.255 9.257 9.238 9.227 9.217 9.21 9.21 9.198 9.195 9.19 9.185 9.175 9.165 9.135 9.13 9.138 9.142 9.148 9.148 9.153 9.148 9.132 9.132 9.128 9.125 9.128 9.132 9.122 9.125 9.12 9.155 9.177 9.16 9.15 9.153 9.163 9.175 9.17 9.193 9.167 9.158 9.16 9.168 9.18 9.18 9.148 9.158 9.137 9.128 9.15 9.203 9.188 9.167 8.997 8.597 8.32 8.387 8.597 8.74 8.835 8.773 8.743 8.993 9.1 9.175 9.202 9.188 9.17 9.142 9.155 9.155 9.148 9.14 9.142 9.142 9.14 9.12 9.12 9.13 9.135 9.14 9.148 9.155 9.145 9.132 9.13 9.123 9.135 9.12 9.102 9.075 9.052 9.02 8.995 8.967 8.955 8.935 8.943 8.913 8.9 8.898 8.878 8.895 8.87 8.868 8.855 8.833 8.837 8.863 8.852 8.868 8.887 8.9 8.927 8.917 8.972 9.055 9.028 9.205 9.198 9.27 9.222 9.312 9.35 9.445 9.695 9.67 9.665 9.825 9.975 10.113 10.247 10.148 10.27 10.205 10.193 10.08 10.132 10.137 10.068 10.017 10 9.985 9.815 9.823 9.702 9.642 9.475 9.39 9.385 9.15 9.092 8.972 8.807 8.778 8.7 8.698 8.635 8.628 8.545 8.51 8.533 8.57 8.68 8.695 8.755 8.61 8.573 8.727 8.73 8.833 8.798 8.858 8.785 8.79 8.698 8.842 8.935 8.938 8.98 8.938 8.935 8.983 8.965 8.91 8.943 8.802 8.703 8.77 8.995 10.667 9.455 9.89 8.373 8.195 8.188 8.225 8.22 8.237 8.235 8.233 8.237 8.295 8.215 8.252 8.15 8.062 8.03 8.02 8.055 8.025 7.99 7.977 8.08 7.907 7.887 7.855 7.467 8.573 11.597 10.585 7.668 7.693 7.693 7.685 7.695 7.68 7.693 7.68 7.695 7.67 7.658 7.66 7.637 7.605 7.57 7.487 7.327 7.943 8.663 7.787 7.553 7.63 7.618 7.628 7.578 7.557 7.55 7.557 7.575 7.565 7.555 7.555 7.545 7.54 7.525 7.51 7.515 7.5 7.497 7.513 7.49 7.503 7.512 7.485 7.472 7.477 7.44 7.443 7.41 7.395 7.418 7.44 7.455 7.418 7.375 7.372 7.352 7.34 7.332 7.332 7.345 7.32 7.23 7.145 7.045 7.14 7.83 7.582 6.915 6.885 6.977 6.98 6.97 6.965 6.95 6.925 6.895 6.875 6.863 6.87 6.845 6.838 6.84 6.84 6.828 6.823 6.832 6.835 6.832 6.828 6.842 6.838 6.849 6.853 6.82
9.465 9.49 9.525 9.435 9.347 9.438 9.387 9.33 9.335 9.315 9.315 9.283 9.225 9.182 9.115 9.078 9.068 9.1 9.132 9.113 9.097 9.078 9.02 9.028 9.065 9.108 9.142 9.355 9.55 9.325 8.753 9.052 9.13 9.113 9.145 9.15 9.17 9.173 9.17 9.163 9.142 9.122 9.122 9.102 9.102 9.12 9.115 9.093 9.065 9.048 9.102 9.19 9.212 9.24 9.293 9.378 9.532 9.775 9.887 9.722 9.532 9.377 9.342 9.37 9.507 9.765 10.092 10.315 10.347 10.262 10.233 10.302 10.455 10.565 10.425 10.422 10.45 10.202 9.967 9.72 9.59 9.602 9.79 9.757 9.708 9.775 9.94 10.012 9.99 9.92 9.95 9.93 9.738 9.77 9.908 9.562 9.483 9.57 9.71 9.802 9.622 9.675 9.805 9.882 10.007 10.068 10.033 10.057 10.015 9.807 9.685 9.773 9.69 9.807 9.833 9.828 9.812 9.887 9.91 9.837 9.6 9.54 9.515 9.618 9.817 9.58 9.483 9.115 8.997 10.113 10.517 10.467 9.71 9.29 9.388 9.533 9.693 9.923 9.583 9.595 9.64 9.635 9.615 9.56 9.505 9.43 9.403 9.398 9.387 9.398 9.41 9.427 9.43 9.445 9.455 9.47 9.505 9.533 9.538 9.552 9.548 9.547 9.53 9.497 9.472 9.465 9.458 9.443 9.42 9.403 9.403 9.382 9.365 9.337 9.307 9.288 9.263 9.253 9.243 9.235 9.237 9.215 9.21 9.21 9.22 9.198 9.192 9.19 9.177 9.157 9.153 9.153 9.145 9.148 9.15 9.148 9.15 9.16 9.16 9.163 9.173 9.17 9.17 9.17 9.163 9.165 9.175 9.163 9.155 9.167 9.167 9.175 9.185 9.2 9.215 9.19 9.185 9.2 9.195 9.18 9.172 9.205 9.233 9.22 9.212 9.222 9.217 9.23 9.238 9.222 9.215 9.175 8.863 8.47 8.443 8.665 8.9 9.105 9.127 9.182 9.188 9.257 9.275 9.285 9.288 9.297 9.292 9.298 9.288 9.27 9.267 9.27 9.267 9.265 9.278 9.262 9.25 9.248 9.25 9.265 9.283 9.29 9.283 9.288 9.265 9.243 9.233 9.202 9.193 9.177 9.135 9.12 9.113 9.11 9.108 9.087 9.068 9.07 9.055 9.045 9.047 9.04 9.045 9.03 9.005 9.003 9.015 9.028 8.993 8.99 9.023 9.05 9.04 8.997 9.02 8.99 9.028 9.015 9.065 9.055 9.017 9.015 9.075 9.062 9.03 9.078 9.048 9.085 9.078 9.068 9.14 9.087 9.085 9.247 9.102 9.075 9.122 9.385 9.233 9.525 9.315 9.623 9.385 9.528 9.705 9.82 9.802 10.07 9.792 9.945 9.985 10.208 10.06 9.922 10 10.18 10.163 10.125 10.075 9.925 9.882 9.935 9.778 9.6 9.48 9.382 9.342 9.13 9.04 8.868 8.738 8.923 8.59 8.49 8.408 8.455 8.483 8.41 8.445 8.538 8.52 8.715 8.695 8.648 8.84 9.96 8.705 8.757 8.863 10.94 9.18 8.498 8.297 8.177 8.185 8.205 8.212 8.233 8.25 8.245 8.24 8.23 8.217 8.217 8.295 8.253 8.285 8.09 8.087 8.01 7.997 8.253 8.082 7.92 7.892 7.695 7.665 9.427 9.605 7.807 7.682 7.69 7.707 7.7 7.71 7.695 7.68 7.693 7.672 7.648 7.657 7.628 7.608 7.585 7.512 7.375 7.677 8.575 8.465 7.573 7.61 7.637 7.622 7.592 7.55 7.56 7.55 7.56 7.562 7.557 7.553 7.557 7.548 7.553 7.537 7.515 7.51 7.497 7.512 7.51 7.503 7.52 7.5 7.485 7.495 7.452 7.445 7.425 7.405 7.41 7.412 7.43 7.425 7.392 7.375 7.35 7.345 7.355 7.335 7.36 7.338 7.267 7.185 7.09 7.05 7.625 7.802 7.065 6.86 6.975 6.985 6.995 6.975 6.96 6.935 6.912 6.887 6.87 6.863 6.855 6.858 6.832 6.835 6.835 6.842 6.823 6.838 6.832 6.852 6.85 6.858 6.852 6.829 6.827 6.802
9.637 9.613 9.663 9.517 9.405 9.413 9.327 9.358 9.398 9.35 9.382 9.337 9.243 9.188 9.118 9.07 9.033 9.06 9.12 9.148 9.083 9.048 9.062 9.07 9.028 9.007 9.047 9.118 9.283 9.368 9.173 8.73 8.872 9.042 9.06 9.052 9.055 9.09 9.11 9.115 9.13 9.122 9.122 9.13 9.137 9.153 9.14 9.097 9.068 9.05 9.14 9.237 9.28 9.325 9.365 9.435 9.502 9.71 9.858 9.773 9.547 9.427 9.43 9.415 9.42 9.712 10.078 10.288 10.392 10.32 10.225 10.233 10.255 10.39 10.358 10.343 10.5 10.33 10.045 9.727 9.615 9.557 9.68 9.587 9.688 9.75 9.913 10.013 9.988 9.823 9.828 9.87 9.842 9.762 9.738 9.665 9.517 9.555 9.76 9.898 9.722 9.475 9.655 9.77 9.885 9.95 9.943 10 9.972 9.852 9.738 9.81 9.76 9.845 9.852 9.83 9.845 10.007 10.595 10.595 9.953 9.727 9.557 9.41 9.455 10.345 9.953 9.06 9.093 9.5 9.965 9.43 9.165 9.203 9.423 9.653 9.677 9.688 9.778 9.675 9.653 9.613 9.64 9.65 9.635 9.55 9.45 9.443 9.458 9.48 9.5 9.497 9.5 9.505 9.515 9.525 9.517 9.557 9.575 9.595 9.592 9.578 9.538 9.507 9.475 9.465 9.432 9.395 9.385 9.382 9.392 9.368 9.345 9.328 9.312 9.305 9.283 9.263 9.247 9.233 9.222 9.222 9.22 9.208 9.208 9.205 9.19 9.18 9.165 9.165 9.165 9.153 9.137 9.145 9.17 9.175 9.165 9.163 9.153 9.15 9.15 9.163 9.165 9.172 9.18 9.175 9.165 9.145 9.148 9.155 9.173 9.177 9.185 9.18 9.195 9.195 9.198 9.195 9.195 9.205 9.202 9.222 9.227 9.237 9.23 9.278 9.29 9.255 9.273 9.233 9.215 9.085 8.682 8.413 8.725 8.975 9.225 9.32 9.307 9.295 9.318 9.323 9.327 9.323 9.34 9.35 9.35 9.337 9.34 9.337 9.35 9.35 9.36 9.36 9.368 9.355 9.342 9.347 9.345 9.36 9.365 9.387 9.37 9.398 9.375 9.372 9.352 9.335 9.285 9.252 9.22 9.165 9.188 9.155 9.122 9.105 9.052 9.068 9.04 9.097 9.035 9.052 9.025 9.025 9.03 9.023 8.997 8.99 8.99 9.002 9.012 9.028 9.02 9.035 9.033 9.062 9.075 9.097 9.137 9.148 9.165 9.175 9.142 9.132 9.1 9.09 9.09 9.078 9.062 9.06 9.033 9.03 9.01 9.013 9.038 9.028 9.047 9.095 9.085 9.113 9.105 9.108 9.102 9.083 9.048 9.033 9.048 9.06 9.102 9.115 9.112 9.128 9.137 9.105 9.087 9.102 9.315 9.307 9.475 9.49 9.458 9.533 9.76 9.727 9.677 9.658 9.757 9.845 9.77 9.882 10.087 10.03 9.81 9.938 9.948 9.985 10 9.885 9.743 9.6 9.453 9.352 9.513 9.62 9.653 9.29 8.677 8.755 8.827 10.033 9.227 8.28 8.2 8.148 8.163 8.188 8.208 8.215 8.245 8.255 8.23 8.2 8.208 8.23 8.257 8.263 8.3 8.205 8.08 7.918 7.908 7.94 7.918 7.885 7.847 7.633 8.637 11.578 7.983 7.662 7.69 7.695 7.7 7.705 7.688 7.677 7.688 7.685 7.66 7.653 7.642 7.617 7.595 7.543 7.43 7.34 8.292 8.725 7.668 7.595 7.632 7.628 7.615 7.568 7.562 7.555 7.55 7.55 7.54 7.53 7.545 7.535 7.53 7.535 7.52 7.51 7.49 7.493 7.51 7.485 7.512 7.517 7.483 7.467 7.452 7.427 7.425 7.403 7.412 7.41 7.412 7.435 7.405 7.403 7.372 7.352 7.355 7.347 7.358 7.347 7.29 7.205 7.13 7.025 7.378 7.903 7.193 6.935 6.948 6.988 6.985 6.972 6.967 6.938 6.912 6.89 6.88 6.865 6.868 6.863 6.855 6.835 6.828 6.82 6.815 6.812 6.812 6.835 6.84 6.863 6.872 6.868 6.85 6.825 6.79
9.765 9.693 9.615 9.502 9.413 9.382 9.33 9.325 9.315 9.32 9.413 9.458 9.233 9.2 9.155 9.07 9.075 9.108 9.128 9.182 9.118 9.08 9.127 9.132 9.158 9.038 9 9.017 9.052 9.087 9.185 9.115 8.68 8.842 9.062 9.077 9.038 9.062 9.097 9.102 9.135 9.138 9.128 9.137 9.142 9.165 9.17 9.108 9.078 9.1 9.155 9.305 9.395 9.443 9.51 9.565 9.555 9.593 9.667 9.61 9.507 9.485 9.475 9.415 9.387 9.555 9.943 10.252 10.335 10.368 10.307 10.177 10.227 10.235 10.193 10.243 10.193 10.155 9.995 9.82 9.562 9.63 9.753 9.578 9.577 9.708 9.7 9.727 9.743 9.767 9.688 9.82 9.703 9.842 9.825 9.642 9.495 9.515 9.858 9.805 9.637 9.352 9.547 9.77 9.88 9.967 10.03 10.012 10.023 9.82 9.773 9.935 9.797 9.948 10.047 9.847 9.88 10.062 10.767 10.805 10.688 10.177 9.597 9.363 9.682 10.267 9.255 9.075 10.07 11.307 9.332 9.185 9.148 9.155 9.267 9.495 9.585 9.698 9.57 9.597 9.71 10.355 9.56 9.578 9.613 9.63 9.562 9.608 9.635 9.625 9.605 9.61 9.962 11.115 10.243 9.628 9.613 9.608 9.618 9.632 9.625 9.608 9.585 9.557 9.52 9.485 9.49 9.488 9.49 9.468 9.46 9.44 9.432 9.407 9.378 9.355 9.325 9.307 9.295 9.27 9.26 9.243 9.255 9.243 9.22 9.215 9.205 9.188 9.19 9.177 9.167 9.142 9.13 9.115 9.115 9.115 9.12 9.118 9.118 9.13 9.137 9.155 9.142 9.153 9.167 9.172 9.182 9.195 9.193 9.195 9.19 9.2 9.2 9.225 9.257 9.28 9.267 9.26 9.255 9.245 9.222 9.252 9.283 9.288 9.275 9.297 9.315 9.347 9.28 9.18 9.14 9.09 8.773 8.705 9.08 9.212 9.233 9.215 9.273 9.298 9.325 9.335 9.342 9.345 9.36 9.377 9.372 9.355 9.368 9.365 9.372 9.368 9.363 9.352 9.347 9.32 9.312 9.3 9.302 9.298 9.298 9.298 9.315 9.33 9.327 9.347 9.33 9.29 9.297 9.22 9.21 9.19 9.177 9.135 9.125 9.1 9.102 9.062 9.06 9.052 9.047 9.03 9.04 9.033 9.04 9.043 9.012 9.005 8.993 8.997 9.017 9.028 9.025 9.013 9.028 9.045 9.06 9.113 9.135 9.14 9.175 9.182 9.185 9.182 9.188 9.182 9.18 9.193 9.193 9.198 9.182 9.167 9.17 9.163 9.165 9.135 9.163 9.177 9.193 9.18 9.128 9.122 9.113 9.122 9.092 9.045 9.038 9.023 9.045 9.025 9.033 9.01 9.023 9.007 9.007 9 9.01 9.005 8.99 8.95 8.945 8.935 8.945 8.92 8.913 8.898 8.865 8.865 8.865 8.843 9.01 8.83 8.815 8.863 8.967 8.985 9.057 9.148 9.352 9.323 9.395 9.538 9.827 9.698 8.868 8.595 8.67 8.74 8.802 10.233 8.767 8.243 8.193 8.155 8.165 8.173 8.18 8.205 8.247 8.243 8.193 8.17 8.18 8.215 8.243 8.24 8.288 8.12 8.057 7.855 7.8 7.17 7.775 7.843 7.56 8.01 8.618 8.03 7.628 7.677 7.695 7.7 7.71 7.712 7.693 7.675 7.695 7.67 7.642 7.628 7.62 7.592 7.548 7.463 7.347 8.08 8.81 7.832 7.58 7.633 7.605 7.62 7.577 7.55 7.55 7.54 7.55 7.528 7.515 7.537 7.512 7.515 7.523 7.512 7.505 7.477 7.465 7.487 7.475 7.477 7.508 7.47 7.457 7.455 7.427 7.42 7.403 7.42 7.418 7.405 7.422 7.412 7.398 7.378 7.352 7.352 7.35 7.35 7.365 7.305 7.222 7.145 7.06 7.215 7.948 7.465 6.87 6.927 6.99 6.977 6.975 6.977 6.96 6.938 6.9 6.878 6.85 6.858 6.852 6.845 6.83 6.832 6.832 6.818 6.803 6.818 6.818 6.818 6.838 6.855 6.847 6.845 6.827 6.786 6.768
9.9 9.79 9.642 9.507 9.42 9.337 9.32 9.227 9.227 9.23 9.243 9.165 9.118 9.078 9.102 9.148 9.193 9.157 9.14 9.273 9.222 9.325 9.333 9.34 9.523 9.347 9.055 9.017 9.05 9.102 9.118 9.21 9.182 8.73 8.905 9.14 9.075 9.06 9.077 9.087 9.102 9.12 9.118 9.13 9.132 9.155 9.195 9.13 9.118 9.165 9.22 9.295 9.325 9.36 9.455 9.523 9.535 9.538 9.565 9.535 9.493 9.528 9.557 9.55 9.403 9.512 9.878 10.142 10.238 10.3 10.298 10.142 10.35 10.27 10.225 10.105 10.033 10.068 9.852 9.625 9.538 9.61 9.872 9.573 9.53 9.7 9.66 9.583 9.555 9.595 9.605 9.615 9.712 9.66 9.68 9.655 9.63 9.64 9.69 9.773 9.762 9.648 9.71 9.835 9.783 9.89 9.913 9.915 9.875 9.64 9.715 9.865 9.78 9.84 9.833 9.658 9.7 10.095 10.53 9.935 9.705 10.06 9.943 9.517 9.477 9.94 10.205 9.125 9.448 9.573 9.305 9.202 9.193 9.21 9.208 9.307 9.46 9.655 9.635 9.565 9.618 9.59 9.6 9.622 9.615 9.657 9.583 9.59 9.59 9.58 9.595 9.595 10.455 12.865 11.715 11.403 9.568 9.523 9.595 9.632 9.66 9.658 9.672 9.645 9.615 9.605 9.595 9.58 9.575 9.587 9.595 9.59 9.585 9.562 9.548 9.523 9.5 9.467 9.443 9.432 9.427 9.415 9.39 9.375 9.37 9.355 9.34 9.33 9.302 9.305 9.307 9.295 9.288 9.265 9.253 9.245 9.23 9.222 9.202 9.205 9.208 9.205 9.218 9.205 9.21 9.215 9.215 9.22 9.227 9.23 9.225 9.225 9.21 9.222 9.26 9.285 9.28 9.253 9.26 9.257 9.255 9.257 9.253 9.23 9.255 9.285 9.292 9.315 9.25 9.145 9.123 9.128 9.12 9.15 9.137 9.155 9.108 9.148 9.215 9.285 9.285 9.278 9.278 9.265 9.283 9.288 9.295 9.273 9.267 9.257 9.26 9.247 9.255 9.227 9.182 9.162 9.177 9.177 9.173 9.18 9.212 9.195 9.205 9.212 9.212 9.212 9.225 9.165 9.14 9.122 9.1 9.083 9.03 9.028 9.012 9.012 9.01 9.007 8.983 9 9.015 8.995 8.99 8.997 8.953 8.945 8.95 8.932 8.967 8.96 8.952 8.95 8.948 8.94 8.938 8.943 8.967 8.998 9.005 9.025 9.05 9.078 9.07 9.09 9.093 9.09 9.095 9.095 9.105 9.13 9.135 9.115 9.11 9.128 9.115 9.135 9.132 9.155 9.177 9.177 9.17 9.165 9.163 9.158 9.137 9.122 9.105 9.087 9.093 9.092 9.075 9.055 9.038 9.02 8.993 8.985 8.967 8.97 8.958 8.94 8.925 8.9 8.882 8.855 8.842 8.83 8.795 8.778 8.778 8.762 8.727 8.708 8.715 8.71 8.708 8.715 8.738 8.747 8.75 8.74 8.702 8.632 8.568 8.552 8.533 8.54 8.637 8.717 8.783 9.65 8.743 8.198 8.14 8.15 8.145 8.145 8.15 8.207 8.233 8.215 8.163 8.153 8.155 8.188 8.21 8.208 8.205 8.085 7.975 7.787 7.44 7.315 7.83 7.738 7.503 9.145 9.733 7.637 7.665 7.688 7.695 7.702 7.72 7.707 7.682 7.695 7.677 7.655 7.653 7.62 7.605 7.575 7.48 7.38 7.675 8.745 8.467 7.553 7.613 7.613 7.622 7.585 7.55 7.535 7.533 7.538 7.515 7.513 7.51 7.515 7.495 7.505 7.508 7.505 7.488 7.475 7.472 7.472 7.47 7.485 7.475 7.447 7.443 7.425 7.423 7.4 7.398 7.42 7.412 7.412 7.412 7.4 7.39 7.372 7.352 7.37 7.345 7.352 7.318 7.247 7.175 7.095 7.057 7.825 7.76 6.985 6.887 6.97 6.967 6.98 6.97 6.97 6.947 6.925 6.905 6.89 6.875 6.872 6.855 6.842 6.83 6.825 6.815 6.793 6.767 6.778 6.778 6.8 6.812 6.83 6.827 6.823 6.798 6.772 6.753
9.92 9.785 9.688 9.703 9.57 9.387 9.312 9.29 9.225 9.198 9.185 9.243 9.318 9.238 9.208 9.2 9.222 9.257 9.208 9.28 9.507 9.755 9.775 9.667 9.688 9.555 9.305 9.115 9.042 9.042 9.135 9.18 9.3 9.392 8.628 9.005 9.113 9.085 9.09 9.077 9.095 9.108 9.142 9.135 9.125 9.125 9.163 9.145 9.14 9.157 9.163 9.215 9.255 9.292 9.365 9.443 9.483 9.472 9.498 9.465 9.44 9.5 9.54 9.488 9.333 9.507 9.76 9.955 10.012 9.993 10.01 9.98 10.335 10.283 10.07 9.83 9.967 9.798 9.64 9.658 9.618 9.615 9.74 9.592 9.55 9.7 9.653 9.523 9.523 9.443 9.453 9.57 9.632 9.71 9.767 9.792 9.783 9.828 9.807 9.863 9.935 9.765 9.675 9.733 9.645 9.63 9.653 9.74 9.625 9.475 9.577 9.66 9.663 9.69 9.66 9.565 9.632 9.823 10.432 10.188 10.25 10.208 9.555 9.703 10.525 10.533 9.35 10.43 10.717 9.92 9.398 9.337 9.365 9.38 9.365 9.382 9.485 9.38 9.503 9.363 9.46 9.445 9.452 9.53 9.532 9.542 9.533 9.55 9.58 9.587 9.575 9.583 10.273 9.8 11.073 14.318 9.575 9.417 9.528 9.602 9.665 9.7 9.72 9.7 9.68 9.657 9.653 9.66 9.68 9.708 9.715 9.71 9.72 9.722 9.7 9.672 9.648 9.615 9.592 9.575 9.55 9.535 9.53 9.495 9.485 9.45 9.44 9.43 9.413 9.408 9.387 9.385 9.385 9.378 9.385 9.37 9.352 9.345 9.34 9.34 9.337 9.345 9.35 9.355 9.358 9.363 9.363 9.372 9.387 9.38 9.362 9.37 9.38 9.398 9.41 9.413 9.415 9.405 9.368 9.352 9.347 9.325 9.28 9.275 9.238 9.225 9.243 9.245 9.172 9.042 8.887 8.965 9.135 9.118 9.085 9.092 9.108 9.13 9.16 9.16 9.163 9.153 9.155 9.142 9.137 9.148 9.153 9.148 9.15 9.13 9.11 9.108 9.097 9.06 9.03 9.017 9.042 9.057 9.068 9.08 9.087 9.09 9.105 9.108 9.115 9.097 9.075 9.038 9.028 8.988 8.975 8.94 8.925 8.93 8.925 8.915 8.915 8.91 8.91 8.92 8.915 8.918 8.917 8.913 8.88 8.872 8.865 8.9 8.91 8.898 8.88 8.865 8.868 8.852 8.845 8.85 8.855 8.89 8.892 8.905 8.938 8.96 8.97 8.98 8.975 8.97 8.972 8.988 8.998 9.017 9.015 8.998 8.988 8.998 8.998 9.003 9.007 9.017 9.023 9.017 9.02 9.025 9.015 9.03 9.007 9.01 8.98 8.97 8.958 8.95 8.962 8.955 8.94 8.943 8.932 8.907 8.925 8.938 8.932 8.922 8.935 8.927 8.915 8.913 8.9 8.885 8.863 8.85 8.825 8.802 8.785 8.76 8.767 8.735 8.725 8.738 8.77 8.79 8.762 8.74 8.695 8.62 8.762 8.878 8.525 8.525 8.585 8.682 8.757 9.83 8.727 8.198 8.137 8.142 8.138 8.135 8.142 8.17 8.177 8.16 8.128 8.128 8.15 8.177 8.19 8.195 8.105 8.06 7.93 7.725 7.332 7.57 7.76 7.602 7.878 8.37 7.743 7.653 7.685 7.695 7.695 7.713 7.722 7.693 7.688 7.69 7.66 7.65 7.622 7.593 7.585 7.512 7.425 7.387 8.328 8.517 7.635 7.6 7.617 7.605 7.585 7.54 7.538 7.54 7.523 7.535 7.512 7.51 7.53 7.497 7.495 7.517 7.5 7.497 7.477 7.472 7.472 7.45 7.483 7.48 7.45 7.45 7.41 7.405 7.4 7.385 7.407 7.395 7.4 7.39 7.39 7.395 7.383 7.383 7.39 7.375 7.36 7.332 7.28 7.195 7.11 7.03 7.463 8.052 7.173 6.872 6.952 6.967 6.972 6.985 6.977 6.957 6.923 6.908 6.887 6.872 6.878 6.87 6.852 6.823 6.815 6.805 6.802 6.803 6.79 6.788 6.79 6.805 6.812 6.818 6.82 6.807 6.795 6.764 6.748
9.925 9.825 9.72 9.585 9.5 9.565 9.307 9.28 9.278 9.347 9.61 9.67 9.68 9.632 9.485 9.333 9.257 9.22 9.257 9.427 9.725 10.01 10.142 10.06 9.823 9.608 9.785 9.703 9.323 9.06 9.073 9.102 9.14 9.302 9.153 8.577 9.058 9.095 9.087 9.085 9.108 9.118 9.083 9.132 9.122 9.122 9.158 9.158 9.155 9.145 9.125 9.158 9.21 9.257 9.295 9.328 9.34 9.318 9.34 9.387 9.44 9.515 9.5 9.43 9.41 9.488 9.66 9.823 9.855 9.86 9.845 9.823 9.882 9.7 9.528 9.64 9.86 9.767 9.74 9.712 9.733 9.69 9.66 9.632 9.61 9.762 9.688 9.752 9.505 9.53 9.615 9.54 9.615 9.795 9.748 9.74 9.722 9.792 9.935 9.93 9.84 9.833 9.755 9.775 9.792 9.765 9.54 9.5 9.457 9.432 9.5 9.608 9.667 9.608 9.655 9.535 9.535 9.685 9.952 10.087 9.955 9.548 9.557 9.903 10.365 10.927 9.325 9.46 10.58 10.165 9.443 9.403 9.41 9.427 9.37 9.385 9.69 9.337 9.26 9.34 9.395 9.382 9.36 9.488 9.507 9.505 9.517 10.045 12.948 9.573 9.597 9.665 9.735 9.727 9.95 10.21 9.542 9.36 9.472 9.562 9.653 9.725 9.753 9.75 9.77 9.76 9.755 9.757 9.788 9.812 9.835 9.843 9.86 9.852 9.837 9.815 9.785 9.743 9.717 9.682 9.672 9.648 9.625 9.587 9.555 9.555 9.545 9.53 9.5 9.503 9.5 9.493 9.495 9.49 9.47 9.458 9.45 9.438 9.415 9.415 9.407 9.42 9.423 9.43 9.42 9.427 9.438 9.438 9.438 9.435 9.427 9.427 9.442 9.443 9.465 9.47 9.455 9.415 9.37 9.36 9.345 9.333 9.283 9.247 9.2 9.17 9.115 9.035 8.905 8.705 8.61 8.83 8.997 9.017 9.057 9.06 9.052 9.07 9.073 9.035 9.06 9.05 9.055 9.05 9.062 9.052 9.062 9.065 9.042 9.04 9.033 9.01 8.967 8.943 8.945 8.948 8.955 8.965 8.98 8.977 8.985 8.985 8.993 8.99 8.99 8.983 8.962 8.927 8.9 8.89 8.89 8.878 8.88 8.872 8.868 8.852 8.847 8.858 8.86 8.863 8.86 8.863 8.858 8.83 8.818 8.815 8.82 8.837 8.833 8.818 8.805 8.797 8.788 8.783 8.783 8.795 8.8 8.812 8.828 8.847 8.86 8.882 8.877 8.865 8.872 8.87 8.875 8.88 8.905 8.927 8.927 8.913 8.903 8.895 8.903 8.903 8.915 8.922 8.92 8.927 8.92 8.9 8.92 8.948 8.943 8.932 8.9 8.875 8.845 8.828 8.837 8.84 8.837 8.837 8.833 8.83 8.842 8.847 8.863 8.887 8.885 8.885 8.875 8.87 8.863 8.847 8.815 8.805 8.792 8.783 8.755 8.757 8.77 8.778 8.788 8.782 8.792 8.785 8.74 8.705 8.658 8.613 9.628 10.033 10.36 9.983 8.545 8.66 8.708 9.825 8.688 8.142 8.132 8.145 8.14 8.125 8.132 8.148 8.142 8.13 8.12 8.12 8.148 8.188 8.185 8.31 8.085 8.028 7.892 7.415 7.36 7.76 7.677 7.565 8.312 7.842 7.653 7.668 7.682 7.685 7.688 7.698 7.695 7.688 7.685 7.67 7.655 7.635 7.597 7.585 7.543 7.457 7.383 8.225 8.58 7.713 7.545 7.615 7.595 7.608 7.545 7.523 7.54 7.533 7.528 7.525 7.517 7.528 7.505 7.495 7.515 7.512 7.51 7.49 7.483 7.485 7.472 7.47 7.48 7.452 7.443 7.425 7.405 7.398 7.385 7.403 7.412 7.405 7.395 7.392 7.403 7.412 7.4 7.38 7.382 7.378 7.363 7.31 7.235 7.155 7.073 7.23 7.932 7.395 6.88 6.935 6.943 6.957 6.967 6.97 6.952 6.923 6.907 6.892 6.887 6.885 6.89 6.885 6.865 6.838 6.82 6.81 6.825 6.807 6.82 6.832 6.823 6.832 6.832 6.835 6.83 6.82 6.8 6.762 6.747
9.87 9.718 9.642 9.533 9.392 9.363 9.355 9.382 9.45 9.632 9.812 9.887 9.837 9.855 9.74 9.488 9.587 9.695 9.642 9.677 9.78 9.87 9.92 9.845 9.832 9.71 9.887 9.895 9.642 9.153 9.1 9.052 9.073 9.113 9.24 9.028 8.615 9.005 9.028 9.038 9.06 9.047 9.052 9.1 9.12 9.11 9.135 9.13 9.118 9.102 9.075 9.048 9.083 9.145 9.175 9.217 9.222 9.26 9.33 9.438 9.493 9.538 9.545 9.495 9.455 9.48 9.62 9.79 9.835 9.903 9.812 9.715 9.68 9.505 9.467 9.648 9.76 9.743 9.688 9.73 9.62 9.637 9.577 9.505 9.67 9.702 9.618 9.557 9.54 9.56 9.575 9.53 9.682 9.565 9.557 9.618 9.655 9.702 9.69 9.653 9.675 9.89 9.858 9.828 9.96 9.785 9.625 9.548 9.46 9.448 9.542 9.61 9.688 9.575 9.712 9.542 9.462 9.53 9.86 9.852 10.105 9.82 10.075 9.568 9.59 9.613 9.337 10.685 11.28 11.255 9.502 9.465 9.498 9.517 9.533 9.477 9.435 9.378 9.555 9.552 9.54 9.44 9.472 9.62 9.542 9.568 9.525 12.65 15.122 11.167 10.93 9.77 10.503 9.615 10.715 11.102 9.505 9.328 9.415 9.517 9.63 9.705 9.727 9.757 9.762 9.775 9.78 9.792 9.815 9.835 9.852 9.852 9.85 9.852 9.855 9.835 9.778 9.712 9.675 9.65 9.63 9.59 9.555 9.5 9.483 9.452 9.44 9.435 9.435 9.417 9.385 9.382 9.405 9.387 9.37 9.347 9.328 9.323 9.323 9.288 9.262 9.238 9.215 9.215 9.212 9.195 9.24 9.26 9.255 9.25 9.243 9.28 9.305 9.34 9.333 9.34 9.33 9.318 9.305 9.29 9.31 9.278 9.22 9.167 9.108 9.028 8.905 8.782 8.625 8.587 8.67 8.863 8.905 8.983 9.033 9.028 9.03 9.025 9.007 9.007 8.998 8.985 8.985 8.97 8.965 8.965 8.972 8.965 8.967 8.955 8.935 8.915 8.898 8.873 8.865 8.868 8.87 8.887 8.905 8.9 8.915 8.927 8.932 8.945 8.925 8.905 8.89 8.873 8.837 8.84 8.85 8.85 8.855 8.827 8.823 8.812 8.81 8.815 8.825 8.82 8.815 8.812 8.795 8.783 8.78 8.778 8.783 8.778 8.778 8.78 8.765 8.753 8.743 8.733 8.727 8.74 8.747 8.75 8.78 8.793 8.8 8.807 8.815 8.792 8.795 8.792 8.79 8.81 8.835 8.84 8.83 8.818 8.815 8.81 8.812 8.83 8.855 8.86 8.863 8.852 8.852 8.858 8.87 8.875 8.86 8.837 8.812 8.775 8.745 8.743 8.743 8.752 8.755 8.753 8.765 8.785 8.807 8.81 8.815 8.823 8.823 8.823 8.81 8.807 8.815 8.958 8.922 8.85 8.842 8.917 8.78 8.755 8.825 8.84 8.763 8.765 8.76 8.7 8.66 8.608 8.568 9.498 10.423 9.815 9.9 11.43 9.52 8.622 8.655 9.725 8.823 8.122 8.13 8.15 8.222 8.135 8.11 8.128 8.115 8.11 8.09 8.11 8.158 8.193 8.182 8.16 8.11 7.975 7.778 7.28 7.753 7.72 7.593 8.028 8.02 7.668 7.658 7.675 7.693 7.677 7.688 7.688 7.68 7.67 7.67 7.65 7.648 7.608 7.568 7.555 7.48 7.383 7.85 9.46 8.36 7.533 7.608 7.608 7.613 7.557 7.523 7.53 7.54 7.523 7.54 7.53 7.523 7.52 7.503 7.5 7.5 7.49 7.497 7.483 7.477 7.477 7.467 7.475 7.465 7.46 7.46 7.435 7.418 7.403 7.392 7.39 7.395 7.4 7.403 7.4 7.425 7.42 7.4 7.395 7.398 7.39 7.328 7.262 7.18 7.085 7.075 7.74 7.677 6.99 6.925 6.985 6.962 6.98 6.975 6.962 6.93 6.908 6.9 6.89 6.887 6.88 6.89 6.89 6.878 6.865 6.852 6.838 6.832 6.83 6.82 6.807 6.807 6.807 6.803 6.807 6.802 6.793 6.788 6.752 6.745
9.825 9.625 9.525 9.47 9.4 9.387 9.425 9.49 9.583 9.663 9.65 9.743 9.795 9.81 9.93 9.975 9.913 9.887 9.73 9.615 9.528 9.51 9.5 9.488 9.485 9.457 9.47 9.445 9.358 9.175 9.078 9.057 9.033 9.04 9.14 9.278 8.868 8.715 9.055 9.092 9.085 9.095 9.1 9.118 9.113 9.102 9.108 9.118 9.13 9.108 9.06 9.06 9.07 9.132 9.15 9.128 9.137 9.19 9.352 9.472 9.55 9.63 9.628 9.568 9.395 9.365 9.542 9.73 9.815 9.795 9.77 9.722 9.68 9.483 9.493 9.63 9.61 9.595 9.645 9.757 9.615 9.833 9.592 9.642 9.818 9.77 9.57 9.523 9.505 9.493 9.538 9.507 9.535 9.595 9.65 9.7 9.748 9.658 9.722 9.547 9.47 9.825 10.033 9.693 9.755 9.733 9.658 9.682 9.483 9.573 9.648 9.688 9.738 9.605 9.727 9.577 9.475 9.455 9.722 9.602 9.865 9.802 9.833 9.71 9.932 9.592 9.347 10.13 12.377 13.727 9.533 9.472 9.535 9.575 9.573 9.533 9.47 9.51 9.597 9.615 9.602 9.52 9.475 9.485 9.852 10.66 9.945 10.952 10.283 9.568 12.065 14.975 12.245 9.89 10.58 10.265 9.495 9.325 9.38 9.483 9.6 9.68 9.675 9.685 9.682 9.663 9.667 9.695 9.722 9.733 9.725 9.7 9.685 9.685 9.68 9.65 9.605 9.568 9.528 9.485 9.445 9.405 9.365 9.352 9.31 9.27 9.285 9.273 9.255 9.233 9.235 9.243 9.23 9.225 9.222 9.188 9.185 9.182 9.148 9.132 9.12 9.073 9.11 9.11 9.16 9.247 9.182 9.137 9.13 9.17 9.205 9.22 9.238 9.257 9.252 9.285 9.28 9.273 9.245 9.257 9.248 9.21 9.108 9.028 8.93 8.818 8.698 8.575 8.615 8.703 8.807 8.878 8.96 8.962 8.967 8.962 8.953 8.92 8.93 8.92 8.915 8.92 8.908 8.907 8.92 8.92 8.913 8.91 8.91 8.892 8.875 8.86 8.852 8.852 8.865 8.88 8.885 8.898 8.905 8.905 8.932 8.925 8.94 8.93 8.905 8.882 8.865 8.845 8.85 8.855 8.855 8.852 8.837 8.802 8.812 8.802 8.805 8.815 8.815 8.8 8.805 8.802 8.788 8.783 8.773 8.767 8.77 8.77 8.767 8.763 8.743 8.735 8.73 8.71 8.712 8.727 8.71 8.722 8.735 8.75 8.737 8.725 8.72 8.71 8.715 8.715 8.735 8.745 8.77 8.783 8.755 8.733 8.705 8.71 8.735 8.727 8.733 8.727 8.74 8.725 8.715 8.74 8.765 8.755 8.733 8.7 8.673 8.632 8.627 8.628 8.628 8.63 8.645 8.66 8.675 8.695 8.71 8.712 8.722 8.73 8.727 8.727 8.73 8.717 8.835 9.398 9.672 9.305 9.255 9.472 9.05 9.03 8.99 9.08 8.738 8.698 8.68 8.623 8.583 8.525 9.405 10.355 9.63 8.597 9.938 11.065 8.953 8.597 8.605 9.523 8.71 8.17 8.375 8.113 8.142 8.125 8.115 8.11 8.105 8.087 8.077 8.108 8.155 8.177 8.17 8.105 8.1 7.892 7.435 7.622 7.717 7.64 7.738 8.597 7.665 7.655 7.665 7.675 7.68 7.688 7.67 7.662 7.665 7.675 7.648 7.65 7.633 7.585 7.565 7.508 7.422 7.492 8.785 8.865 7.62 7.585 7.625 7.613 7.58 7.517 7.533 7.528 7.507 7.515 7.512 7.495 7.508 7.48 7.5 7.5 7.488 7.503 7.497 7.497 7.485 7.475 7.467 7.465 7.467 7.467 7.45 7.44 7.423 7.408 7.415 7.415 7.415 7.42 7.41 7.403 7.403 7.408 7.383 7.382 7.383 7.358 7.287 7.215 7.142 7.065 7.54 7.983 7.162 6.867 6.992 6.988 6.992 6.995 6.975 6.955 6.927 6.912 6.885 6.872 6.872 6.872 6.87 6.84 6.835 6.827 6.823 6.815 6.815 6.81 6.818 6.802 6.79 6.788 6.785 6.783 6.778 6.765 6.756 6.737 6.732
9.825 9.642 9.557 9.49 9.45 9.425 9.465 9.512 9.585 9.69 9.79 10.025 10.125 10.193 10.422 10.815 10.52 10.105 10.023 9.868 9.71 9.693 9.695 9.653 9.637 9.677 9.515 9.425 9.34 9.17 9.068 9.1 9.042 9.017 9.057 9.267 9.413 9.025 8.63 9.073 9.11 9.077 9.065 9.073 9.078 9.095 9.093 9.105 9.15 9.13 9.068 9.068 9.077 9.083 9.128 9.153 9.145 9.193 9.262 9.323 9.452 9.57 9.543 9.5 9.41 9.42 9.59 9.75 9.828 9.863 9.913 10.012 10.145 10.087 9.855 9.595 9.452 9.597 9.65 9.74 9.653 9.577 9.53 9.593 9.725 9.645 9.665 9.577 9.67 9.532 9.505 9.408 9.435 9.562 9.657 9.605 9.613 9.63 9.517 9.42 9.465 9.917 10.092 9.762 9.655 9.71 9.675 9.608 9.485 9.663 9.67 9.79 9.878 9.65 9.783 9.677 9.592 9.542 9.712 10.167 10.233 9.65 9.703 10.11 9.9 9.608 9.452 9.648 14.105 12.773 9.843 9.462 9.745 10.24 10.327 9.523 9.535 9.507 9.485 9.538 9.54 9.535 9.427 9.425 9.5 14.358 11.927 9.495 9.495 9.517 9.735 11.165 10.43 9.825 9.675 10.4 9.403 9.29 9.35 9.488 9.62 9.657 9.635 9.63 9.653 9.632 9.62 9.632 9.632 9.625 9.605 9.585 9.565 9.54 9.502 9.477 9.472 9.443 9.398 9.37 9.298 9.257 9.238 9.205 9.18 9.188 9.163 9.155 9.132 9.113 9.12 9.095 9.085 9.083 9.092 9.068 9.08 9.048 9.033 9.025 8.997 8.995 9.023 9.08 9.38 9.953 9.628 9.093 9.073 9.1 9.123 9.155 9.177 9.182 9.222 9.255 9.243 9.222 9.217 9.202 9.128 9.038 8.958 8.86 8.753 8.625 8.575 8.64 8.757 8.807 8.882 8.925 8.932 8.932 8.91 8.91 8.913 8.938 8.94 8.91 8.892 8.9 8.903 8.903 8.907 8.927 8.91 8.907 8.903 8.882 8.868 8.852 8.865 8.872 8.885 8.88 8.898 8.9 8.91 8.92 8.923 8.935 8.945 8.927 8.89 8.875 8.845 8.835 8.85 8.868 8.858 8.855 8.815 8.83 8.823 8.815 8.837 8.83 8.812 8.81 8.792 8.773 8.775 8.775 8.78 8.783 8.775 8.778 8.785 8.765 8.743 8.745 8.733 8.727 8.727 8.712 8.708 8.722 8.702 8.718 8.717 8.708 8.693 8.702 8.695 8.708 8.74 8.757 8.763 8.76 8.738 8.708 8.702 8.705 8.707 8.705 8.727 8.705 8.692 8.68 8.717 8.718 8.727 8.698 8.663 8.635 8.597 8.595 8.595 8.583 8.57 8.573 8.577 8.595 8.61 8.625 8.64 8.63 8.65 8.645 8.645 8.682 8.913 8.797 8.972 9.045 9.43 9.49 9.735 9.725 9.532 9.497 9.145 8.95 8.663 8.597 8.565 8.532 8.483 9.327 10.25 10.613 8.99 8.438 10.497 11.525 9.05 8.59 8.577 9.665 8.66 8.36 8.74 8.545 8.115 8.155 8.092 8.108 8.095 8.087 8.085 8.122 8.158 8.167 8.162 8.092 8.073 7.52 7.453 7.727 7.64 7.557 8.2 7.95 7.635 7.673 7.677 7.693 7.695 7.677 7.67 7.655 7.677 7.657 7.635 7.628 7.608 7.575 7.533 7.455 7.387 8.667 9.165 7.682 7.557 7.615 7.595 7.592 7.523 7.53 7.533 7.515 7.515 7.52 7.507 7.508 7.49 7.495 7.505 7.5 7.492 7.495 7.487 7.485 7.483 7.472 7.475 7.477 7.467 7.467 7.46 7.45 7.43 7.432 7.432 7.43 7.435 7.42 7.418 7.418 7.42 7.412 7.405 7.395 7.365 7.312 7.253 7.188 7.132 7.233 8.16 7.932 6.932 6.935 7.04 7.05 7.017 6.983 6.96 6.915 6.887 6.867 6.84 6.83 6.827 6.838 6.84 6.842 6.835 6.843 6.84 6.83 6.83 6.825 6.802 6.783 6.747 6.722 6.712 6.71 6.707 6.71 6.703 6.673 6.655
9.733 9.63 9.542 9.432 9.483 9.53 9.557 9.562 9.613 9.738 9.91 10.08 10.24 10.408 10.872 11.205 11.057 10.943 10.752 10.333 9.96 9.835 9.823 9.775 9.66 9.488 9.278 9.547 9.835 9.278 9.073 9.205 9.227 9.07 9.045 9.033 9.195 9.395 9.128 8.712 8.948 9.085 9.055 9.03 9.05 9.057 9.06 9.068 9.092 9.142 9.11 9.083 9.097 9.085 9.085 9.102 9.14 9.165 9.172 9.188 9.288 9.398 9.415 9.413 9.38 9.372 9.505 9.665 9.967 10.075 10.113 10.238 10.158 10.167 10.02 9.645 9.265 9.658 9.663 9.528 9.505 9.573 9.46 9.745 9.57 9.66 9.917 9.847 9.707 9.568 9.578 9.547 9.545 9.467 9.465 9.43 9.455 9.525 9.443 9.432 9.54 9.845 10.082 9.89 9.595 9.69 9.632 9.525 9.51 9.637 9.718 9.845 9.91 9.68 9.805 9.783 9.74 9.597 9.688 9.735 9.658 9.618 10.113 9.98 11.477 9.528 10.503 12.545 11.653 10.717 9.807 9.462 10.31 11.57 10.042 10.72 9.477 9.483 9.5 9.47 9.483 9.45 9.462 9.443 9.405 9.512 9.753 10.443 12.695 9.745 9.55 9.62 9.64 12.095 9.472 9.8 9.44 9.285 9.365 9.507 9.622 9.66 9.648 9.635 9.64 9.645 9.628 9.627 9.61 9.58 9.555 9.523 9.483 9.44 9.413 9.39 9.378 9.34 9.295 9.255 9.212 9.19 9.155 9.118 9.12 9.097 9.087 9.075 9.065 9.065 9.073 9.083 9.087 9.083 9.062 9.07 9.09 9.062 9.04 9.032 9.017 9.015 9.017 9.292 9.685 9.667 9.427 9.097 9.08 9.108 9.122 9.14 9.165 9.165 9.203 9.227 9.225 9.225 9.16 9.095 9.003 8.915 8.823 8.703 8.605 8.613 8.747 8.815 8.83 8.913 8.91 8.925 9.125 8.903 8.885 8.903 8.922 8.908 8.913 8.892 8.892 8.907 8.907 8.898 8.925 8.913 8.9 8.895 8.888 8.86 8.86 8.865 8.863 8.89 8.885 8.882 8.907 8.892 8.898 8.91 8.903 8.935 8.92 8.89 8.868 8.86 8.825 8.84 8.858 8.865 8.863 8.82 8.807 8.833 8.808 8.837 8.843 8.825 8.807 8.805 8.765 8.76 8.778 8.783 8.785 8.795 8.785 8.792 8.773 8.763 8.747 8.727 8.708 8.717 8.698 8.68 8.69 8.69 8.677 8.688 8.677 8.672 8.663 8.67 8.675 8.7 8.72 8.735 8.755 8.737 8.715 8.698 8.688 8.682 8.695 8.69 8.693 8.68 8.663 8.655 8.693 8.685 8.68 8.67 8.622 8.585 8.587 8.59 8.552 8.538 8.54 8.547 8.552 8.56 8.575 8.602 8.6 8.6 8.61 8.61 8.602 8.778 9.11 8.917 9.31 9.33 9.42 9.328 9.688 9.705 9.625 9.557 9.398 8.95 8.557 8.515 8.49 8.432 9.233 10.352 10.675 9.64 8.605 8.422 9.87 11 9.542 8.605 8.557 9.453 8.663 8.415 8.738 8.422 8.148 8.177 8.108 8.09 8.083 8.078 8.097 8.125 8.148 8.15 8.097 8.09 7.86 7.31 7.73 7.698 7.592 7.805 8.602 7.677 7.665 7.68 7.705 7.702 7.705 7.69 7.68 7.677 7.677 7.632 7.628 7.602 7.585 7.543 7.475 7.375 8.365 9.283 8.278 7.55 7.608 7.595 7.595 7.54 7.528 7.52 7.515 7.495 7.505 7.5 7.488 7.483 7.485 7.49 7.497 7.5 7.508 7.5 7.508 7.492 7.49 7.483 7.472 7.467 7.47 7.46 7.462 7.46 7.45 7.45 7.45 7.455 7.455 7.445 7.457 7.44 7.432 7.432 7.452 7.43 7.372 7.285 7.235 7.177 7.2 7.923 9.53 7.675 6.938 6.985 7.095 7.052 6.977 6.91 6.895 6.872 6.84 6.835 6.818 6.795 6.778 6.765 6.76 6.753 6.733 6.727 6.722 6.713 6.688 6.665 6.655 6.63 6.588 6.573 6.57 6.597 6.64 6.687 6.726 6.742 6.695
9.675 9.608 9.55 9.51 9.575 9.562 9.597 9.615 9.677 9.762 9.86 10.075 10.278 10.477 10.57 10.79 10.727 10.68 10.585 10.438 9.997 9.795 9.708 9.575 9.41 9.257 9.23 9.342 9.305 9.247 9.105 9.292 9.217 9.19 9.208 9.038 9.015 9.078 9.25 9.35 8.903 8.79 9.033 9.017 9.03 9.03 9.025 9.028 9.042 9.075 9.122 9.113 9.097 9.097 9.102 9.102 9.105 9.122 9.145 9.137 9.182 9.267 9.345 9.375 9.293 9.248 9.345 9.557 9.935 10.132 10.08 10.132 10.06 9.98 9.785 9.653 9.443 9.507 9.64 9.722 9.63 9.562 9.485 9.913 9.7 9.648 9.898 9.913 9.785 9.637 9.752 9.818 9.8 9.455 9.382 9.41 9.583 9.712 9.483 9.445 9.487 9.837 10.17 10.055 9.645 9.602 9.575 9.435 9.528 9.6 9.667 9.797 9.882 9.715 9.807 9.9 9.875 9.622 9.655 9.895 9.818 9.585 10.04 9.97 10.72 9.468 10.94 12.297 9.74 10.33 13.097 13.427 9.42 9.44 10.278 11.49 9.495 9.517 10.177 9.557 9.38 9.36 9.388 9.47 9.44 9.497 9.665 12.06 14.275 15.675 13.108 10 9.673 11.34 11.253 9.497 9.427 9.257 9.37 9.517 9.632 9.653 9.665 9.635 9.642 9.65 9.615 9.637 9.632 9.615 9.587 9.523 9.458 9.425 9.39 9.36 9.34 9.32 9.29 9.255 9.212 9.167 9.12 9.102 9.09 9.077 9.062 9.052 9.045 9.062 9.065 9.062 9.065 9.062 9.055 9.055 9.045 9.035 9.035 9.028 9.01 9.007 9.007 9.262 9.84 9.858 9.552 9.092 9.055 9.075 9.11 9.128 9.142 9.172 9.185 9.185 9.182 9.163 9.085 8.997 8.9 8.812 8.67 8.58 8.665 8.778 8.825 8.87 8.89 8.905 8.945 8.93 9.67 8.898 8.872 8.9 8.878 8.87 8.88 8.868 8.882 8.898 8.88 8.907 8.903 8.87 8.878 8.882 8.865 8.855 8.852 8.85 8.872 8.875 8.878 8.88 8.88 8.882 8.903 8.892 8.913 8.908 8.885 8.865 8.858 8.823 8.837 8.847 8.852 8.87 8.833 8.808 8.82 8.823 8.815 8.845 8.83 8.805 8.79 8.767 8.747 8.76 8.767 8.78 8.78 8.773 8.78 8.78 8.76 8.75 8.735 8.708 8.715 8.693 8.663 8.682 8.673 8.665 8.68 8.663 8.64 8.648 8.645 8.65 8.665 8.682 8.693 8.727 8.727 8.69 8.688 8.677 8.653 8.653 8.67 8.663 8.65 8.64 8.628 8.653 8.645 8.658 8.642 8.595 8.565 8.557 8.555 8.532 8.5 8.507 8.51 8.507 8.512 8.538 8.562 8.57 8.573 8.58 8.58 8.58 8.6 8.952 9.052 9.16 9.488 9.495 9.682 9.375 9.667 9.505 9.515 9.62 9.32 8.8 8.47 8.445 8.395 8.792 10.31 10.68 11.413 9.198 8.525 8.528 9.858 10.99 9.903 8.618 8.538 9.37 9.173 8.403 8.608 8.298 8.097 8.653 8.35 8.095 8.075 8.07 8.075 8.128 8.132 8.132 8.06 8.055 7.592 7.582 7.74 7.615 7.662 8.555 7.832 7.65 7.685 7.707 7.733 7.725 7.71 7.685 7.668 7.675 7.642 7.62 7.602 7.588 7.555 7.483 7.425 7.698 9.225 8.427 7.58 7.61 7.61 7.58 7.545 7.525 7.515 7.503 7.51 7.517 7.52 7.508 7.495 7.485 7.5 7.505 7.497 7.512 7.517 7.528 7.533 7.528 7.54 7.543 7.538 7.54 7.52 7.508 7.495 7.483 7.492 7.488 7.472 7.48 7.488 7.495 7.505 7.49 7.483 7.47 7.462 7.44 7.35 7.28 7.225 7.188 7.63 8.497 7.41 6.95 7.077 7.047 7.095 7.045 6.938 6.845 6.783 6.765 6.743 6.702 6.658 6.62 6.602 6.597 6.61 6.63 6.64 6.66 6.665 6.662 6.65 6.665 6.66 6.618 6.565 6.575 6.595 6.585 6.628 6.573 6.529 6.453 6.443
9.65 9.583 9.568 9.667 9.7 9.64 9.642 9.628 9.712 9.798 9.887 10.033 10.2 10.345 10.485 10.517 10.5 10.24 10.373 10.068 9.895 9.648 9.573 9.452 9.333 9.318 9.25 9.233 9.2 9.22 9.222 9.403 9.505 9.688 9.637 9.465 9.105 8.993 9.03 9.55 9.425 8.8 8.908 9.028 9.015 9.017 9.017 9.017 9.015 9.04 9.06 9.108 9.125 9.095 9.09 9.097 9.097 9.095 9.09 9.075 9.113 9.13 9.158 9.22 9.22 9.212 9.25 9.47 9.835 10.08 9.91 9.945 9.938 9.792 9.62 9.475 9.458 9.395 9.415 9.488 9.645 9.663 9.475 9.795 9.743 9.602 9.658 9.752 9.68 9.56 9.762 9.95 9.733 9.62 9.425 9.483 9.7 9.898 9.655 9.458 9.467 9.557 9.858 9.983 9.755 9.602 9.545 9.415 9.52 9.57 9.645 9.765 9.852 9.738 9.77 9.922 9.935 9.788 9.608 9.702 10.045 9.887 10.443 10.955 10.645 9.528 10.347 11.18 13.135 11.895 12.363 10.565 9.622 9.52 10.337 10.653 9.565 9.523 9.47 9.408 9.337 9.395 9.625 9.792 11.207 10.215 11.255 9.913 11.733 12.148 12.477 9.783 9.708 10.015 10.875 9.545 9.295 9.273 9.375 9.512 9.62 9.655 9.658 9.642 9.663 9.653 9.648 9.645 9.625 9.615 9.59 9.528 9.467 9.42 9.38 9.363 9.345 9.318 9.29 9.238 9.195 9.145 9.123 9.075 9.057 9.04 9.03 9.02 9.02 9.007 9.023 9.047 9.035 9.017 9.028 9.012 9.003 9.028 9.038 9.023 9.025 9.013 9.007 9.057 9.395 9.68 9.22 9.038 9.042 9.075 9.1 9.193 9.112 9.128 9.15 9.153 9.16 9.113 9.042 8.907 8.8 8.637 8.61 8.715 8.795 8.827 8.908 8.868 8.922 8.945 8.943 8.935 8.908 8.882 8.887 8.92 8.898 8.865 8.855 8.86 8.88 8.868 8.875 8.885 8.847 8.865 8.86 8.85 8.845 8.835 8.85 8.858 8.868 8.86 8.865 8.875 8.872 8.872 8.872 8.878 8.892 8.87 8.852 8.85 8.828 8.843 8.85 8.837 8.86 8.84 8.807 8.815 8.807 8.807 8.818 8.812 8.798 8.795 8.757 8.73 8.75 8.757 8.76 8.77 8.753 8.753 8.765 8.738 8.737 8.72 8.705 8.708 8.688 8.655 8.663 8.655 8.655 8.65 8.667 8.637 8.635 8.632 8.642 8.665 8.667 8.67 8.7 8.698 8.665 8.657 8.66 8.637 8.648 8.642 8.65 8.645 8.63 8.618 8.642 8.63 8.64 8.623 8.597 8.543 8.538 8.52 8.51 8.48 8.477 8.47 8.477 8.485 8.495 8.52 8.557 8.552 8.552 8.552 8.555 8.56 8.6 8.967 8.943 9.49 9.577 9.63 9.385 9.387 9.695 9.613 9.53 9.497 9.115 8.555 8.435 8.372 8.483 9.97 10.153 11.45 10.328 8.67 8.422 8.378 9.075 11.215 9.765 8.602 8.517 9.87 8.878 8.307 8.48 8.262 8.083 9.967 11.395 11.215 9.517 8.31 8.11 8.118 8.122 8.13 8.062 8.065 7.845 7.818 7.662 7.56 7.98 8.038 7.665 7.682 7.72 7.725 7.74 7.73 7.722 7.697 7.69 7.672 7.64 7.61 7.6 7.562 7.508 7.438 7.457 8.967 9.135 7.693 7.595 7.65 7.602 7.593 7.53 7.533 7.515 7.508 7.525 7.53 7.54 7.54 7.528 7.53 7.545 7.548 7.53 7.545 7.548 7.543 7.543 7.545 7.533 7.523 7.525 7.515 7.5 7.485 7.483 7.462 7.472 7.465 7.462 7.47 7.472 7.477 7.48 7.463 7.46 7.47 7.457 7.425 7.367 7.307 7.278 7.387 8.155 8.163 6.932 6.975 6.963 6.938 6.977 6.92 6.838 6.828 6.74 6.658 6.622 6.628 6.6 6.575 6.618 6.625 6.592 6.493 6.472 6.452 6.39 6.408 6.452 6.5 6.52 6.68 6.912 7.158 7.055 7.383 7.195 7.573 7.501 7.894 8.02
9.648 9.585 9.632 9.76 9.762 9.725 9.7 9.642 9.65 9.788 9.843 9.898 10.042 10.212 10.31 10.31 10.265 10.163 10.033 9.852 9.773 9.698 9.677 9.7 9.635 9.58 9.325 9.295 9.295 9.335 9.425 9.783 10.095 10.413 10.642 10.33 9.625 9.292 9.007 9.057 9.34 9.22 8.625 9.02 9.028 9.007 9.017 9.04 9.04 9.035 9.04 9.05 9.1 9.135 9.1 9.095 9.108 9.11 9.08 9.05 9.055 9.068 9.095 9.13 9.167 9.165 9.202 9.417 9.745 9.85 9.673 9.685 9.828 9.738 9.488 9.305 9.288 9.288 9.305 9.315 9.45 9.51 9.65 9.682 9.528 9.4 9.56 9.632 9.64 9.73 9.8 9.785 9.577 9.483 9.435 9.43 9.715 9.943 9.9 9.86 9.792 9.618 9.582 9.9 9.868 9.637 9.472 9.455 9.663 9.712 9.673 9.748 9.835 9.747 9.74 9.895 9.88 9.887 9.75 9.538 9.882 9.882 9.96 9.92 9.815 9.637 9.532 9.847 10.278 12.743 11.493 12.165 9.608 9.465 9.422 9.64 9.525 9.49 9.422 9.375 9.312 9.945 11.892 10.352 12.887 13.788 11.733 9.45 10.547 10.637 10.128 9.79 9.66 9.632 9.89 11.4 9.27 9.267 9.375 9.53 9.613 9.66 9.663 9.667 9.665 9.663 9.65 9.63 9.63 9.602 9.573 9.535 9.477 9.425 9.387 9.378 9.352 9.32 9.285 9.25 9.21 9.148 9.097 9.065 9.038 9.023 9.013 9 8.995 8.988 8.987 8.997 8.993 8.985 8.99 8.987 8.983 8.983 8.993 9.002 8.988 8.98 8.997 9.185 9.545 9.542 9.172 9.055 9.038 9.062 9.07 9.083 9.1 9.122 9.113 9.127 9.108 9.057 8.952 8.815 8.62 8.61 8.748 8.807 8.9 8.915 8.887 8.938 8.953 8.935 8.927 8.903 8.865 8.89 8.875 8.907 8.882 8.852 8.837 8.855 8.852 8.845 8.87 8.845 8.85 8.85 8.835 8.83 8.84 8.843 8.845 8.85 8.845 8.855 8.858 8.847 8.855 8.86 8.863 8.875 8.86 8.852 8.84 8.823 8.83 8.852 8.843 8.84 8.828 8.795 8.795 8.802 8.798 8.798 8.805 8.788 8.773 8.753 8.717 8.74 8.747 8.747 8.753 8.745 8.737 8.75 8.717 8.717 8.717 8.698 8.685 8.675 8.65 8.645 8.645 8.64 8.63 8.642 8.63 8.632 8.628 8.62 8.655 8.68 8.67 8.69 8.677 8.648 8.645 8.653 8.645 8.642 8.64 8.653 8.648 8.628 8.605 8.613 8.608 8.608 8.597 8.602 8.538 8.517 8.5 8.493 8.472 8.477 8.465 8.462 8.472 8.488 8.493 8.53 8.548 8.525 8.542 8.523 8.542 8.535 8.53 8.642 9.092 9.328 9.247 9.375 9.445 9.363 9.59 9.552 9.477 9.305 8.743 8.438 8.385 8.335 9.58 10.24 10.372 10.917 10.452 9.163 8.45 8.413 9.43 11.403 9.693 8.585 8.507 9.83 9.155 8.21 8.31 8.142 8.295 11.032 11.722 12.028 11.36 9.863 8.118 8.408 8.587 8.075 8.07 8.028 8.472 8.142 8.305 8.595 8.097 7.715 7.702 7.727 7.762 7.767 7.74 7.735 7.715 7.688 7.677 7.668 7.635 7.605 7.59 7.568 7.492 7.355 8.305 9.342 8.312 7.602 7.65 7.658 7.625 7.58 7.57 7.562 7.56 7.548 7.557 7.548 7.562 7.543 7.53 7.545 7.538 7.52 7.512 7.525 7.533 7.54 7.525 7.535 7.523 7.52 7.492 7.472 7.47 7.457 7.448 7.45 7.45 7.445 7.443 7.43 7.438 7.432 7.42 7.427 7.43 7.408 7.407 7.423 7.352 7.315 7.365 8.01 8.635 7.217 6.832 6.898 6.87 6.793 6.74 6.675 6.62 6.55 6.42 6.345 6.385 6.425 6.467 6.602 6.642 6.722 6.865 7.023 7.197 7.423 7.625 7.72 7.815 7.793 7.775 8.007 8.293 8.132 7.972 7.997 7.832 7.37 7.109 7.185 7.251
9.632 9.667 9.727 9.845 9.788 9.73 9.69 9.648 9.648 9.722 9.75 9.775 9.828 9.965 10.1 10.173 10.097 9.983 9.917 9.812 9.812 9.812 9.767 10.052 10.235 9.578 9.425 9.408 9.585 9.427 9.685 10.01 10.595 11.34 11.67 11.64 10.672 10.387 9.203 8.98 9.193 9.387 9.062 8.788 9.08 9.038 9.035 9.052 9.05 9.052 9.05 9.048 9.06 9.1 9.122 9.118 9.11 9.095 9.11 9.097 9.075 9.05 9.045 9.085 9.13 9.148 9.165 9.382 9.78 9.79 9.495 9.493 9.72 9.695 9.425 9.24 9.182 9.18 9.2 9.233 9.288 9.38 9.557 9.542 9.513 9.415 9.517 9.622 9.685 9.707 9.68 9.657 9.528 9.528 9.533 9.7 9.967 10.13 10.202 10.077 9.97 9.962 9.805 9.812 9.783 9.648 9.462 9.592 9.79 9.77 9.73 9.752 9.845 9.743 9.672 9.888 9.892 9.955 9.792 9.558 9.74 10.158 10.47 9.885 9.825 9.835 9.73 11.425 10.993 11.1 11.102 11.267 9.54 9.497 9.61 9.587 9.535 9.483 9.46 9.408 9.37 9.37 10.977 9.622 9.562 10.845 10.095 9.408 10.02 11.52 9.665 9.615 9.64 9.67 9.613 9.427 9.25 9.26 9.398 9.532 9.608 9.66 9.688 9.69 9.667 9.65 9.63 9.64 9.622 9.593 9.57 9.538 9.488 9.455 9.398 9.368 9.347 9.335 9.307 9.267 9.195 9.142 9.1 9.06 9.028 8.997 9 8.993 8.975 8.958 8.948 8.948 8.955 8.94 8.95 8.958 8.955 8.945 8.957 8.95 8.953 9.035 9.092 9.477 9.833 9.472 9.055 9.03 9.03 9.045 9.052 9.07 9.083 9.095 9.118 9.1 9.057 8.997 8.835 8.597 8.618 8.795 8.855 8.922 8.905 8.938 8.962 8.955 8.932 8.923 8.925 8.887 8.863 8.84 8.885 8.892 8.87 8.852 8.828 8.835 8.83 8.858 8.845 8.833 8.837 8.833 8.835 8.843 8.85 8.843 8.862 8.847 8.85 8.85 8.847 8.847 8.845 8.84 8.852 8.833 8.83 8.827 8.827 8.815 8.845 8.827 8.835 8.828 8.785 8.775 8.795 8.788 8.792 8.79 8.773 8.76 8.753 8.722 8.712 8.72 8.722 8.735 8.727 8.727 8.733 8.71 8.69 8.702 8.685 8.68 8.667 8.65 8.63 8.632 8.618 8.602 8.62 8.615 8.62 8.625 8.608 8.635 8.67 8.667 8.675 8.672 8.635 8.63 8.645 8.635 8.625 8.632 8.645 8.635 8.625 8.597 8.583 8.58 8.59 8.58 8.585 8.535 8.5 8.493 8.477 8.46 8.47 8.453 8.458 8.465 8.47 8.483 8.505 8.533 8.53 8.535 8.517 8.533 8.525 8.507 8.48 8.465 8.557 8.523 8.7 9.273 9.033 8.833 9.182 9.378 9.22 8.903 8.493 8.405 8.3 9.42 10.413 10.407 9.875 9.917 10.023 10.195 8.445 8.455 8.952 10.837 9.408 8.568 8.507 9.81 9.705 8.247 8.068 8.08 9.81 11.305 11.96 11.795 11.12 9.532 8.153 8.158 8.333 8.048 8.05 8 8.385 12.443 11.177 9.323 7.82 7.725 7.735 7.762 7.805 7.785 7.767 7.753 7.737 7.702 7.675 7.662 7.65 7.622 7.61 7.55 7.422 7.762 8.71 9.28 7.7 7.702 7.688 7.693 7.645 7.622 7.595 7.56 7.55 7.528 7.54 7.545 7.553 7.56 7.55 7.548 7.53 7.523 7.512 7.507 7.515 7.51 7.513 7.505 7.508 7.495 7.49 7.462 7.452 7.432 7.42 7.408 7.408 7.385 7.37 7.358 7.335 7.328 7.323 7.345 7.36 7.372 7.412 7.427 7.35 7.285 7.838 8.455 7.973 7.27 7.168 7.363 7.135 7.133 7.095 7.235 7.233 7.352 7.905 7.58 7.87 7.82 8.12 8.033 7.872 7.858 8.25 7.795 7.55 7.497 7.405 7.37 7.315 7.265 7.148 7.05 6.935 6.865 6.783 6.773 6.767 6.77 6.765 6.782 6.8
9.427 9.525 9.618 9.74 9.82 9.795 9.738 9.7 9.708 9.708 9.695 9.735 9.693 9.73 9.843 9.915 9.908 9.872 9.843 9.82 9.832 9.812 9.757 9.788 9.743 9.63 9.54 9.497 9.682 9.565 9.938 10.267 10.708 11.288 11.68 10.84 10.778 11.217 10.705 9.255 9.035 9.28 9.502 8.925 8.895 9.097 9.05 9.05 9.068 9.08 9.07 9.062 9.065 9.095 9.115 9.118 9.13 9.118 9.095 9.087 9.087 9.085 9.06 9.042 9.077 9.128 9.142 9.292 9.707 9.83 9.36 9.295 9.613 9.71 9.42 9.18 9.105 9.083 9.102 9.142 9.198 9.31 9.372 9.483 9.44 9.305 9.532 9.615 9.512 9.545 9.542 9.43 9.415 9.503 9.775 10.023 9.875 10.085 10.235 10.22 10.108 10.023 9.97 9.807 9.733 9.608 9.465 9.708 9.865 9.738 9.725 9.727 9.788 9.695 9.593 9.802 9.88 9.868 9.917 9.743 9.727 9.983 10.253 10.828 10.497 10.177 9.887 9.658 9.833 11.155 12.1 11.83 9.882 9.49 9.52 9.592 9.545 9.538 11.78 10.465 9.39 9.415 9.472 9.517 9.515 9.542 9.413 10.955 9.435 9.5 10.495 10.735 9.6 9.67 9.63 9.485 9.292 9.26 9.405 9.538 9.61 9.68 9.677 9.673 9.65 9.632 9.622 9.613 9.59 9.575 9.568 9.52 9.465 9.43 9.387 9.38 9.36 9.325 9.307 9.265 9.215 9.167 9.115 9.085 9.057 9.035 9.01 8.987 8.985 8.993 8.98 8.965 8.952 8.95 8.96 8.965 8.96 8.945 8.935 8.92 8.958 9.27 9.77 9.403 9.172 9.04 9.015 9.015 9.015 9.05 9.048 9.045 9.052 9.08 9.057 9.03 9.003 8.83 8.632 8.733 8.815 8.868 8.93 8.898 8.95 8.967 8.96 8.925 8.92 8.925 8.887 8.872 8.878 8.878 8.828 8.825 8.815 8.85 8.827 8.823 8.835 8.835 8.825 8.833 8.833 8.823 8.84 8.86 8.852 8.868 8.85 8.855 8.862 8.842 8.847 8.845 8.835 8.85 8.833 8.82 8.815 8.818 8.808 8.818 8.825 8.825 8.838 8.788 8.765 8.785 8.785 8.792 8.79 8.775 8.76 8.745 8.715 8.705 8.717 8.7 8.72 8.705 8.708 8.722 8.702 8.68 8.685 8.69 8.67 8.663 8.645 8.613 8.618 8.602 8.59 8.605 8.605 8.6 8.618 8.605 8.622 8.65 8.655 8.653 8.66 8.618 8.608 8.632 8.622 8.615 8.622 8.618 8.628 8.605 8.602 8.583 8.573 8.58 8.58 8.56 8.528 8.495 8.495 8.475 8.458 8.44 8.44 8.445 8.455 8.455 8.462 8.487 8.523 8.525 8.528 8.52 8.513 8.51 8.503 8.475 8.455 8.427 8.395 8.405 8.465 8.653 8.497 8.483 8.698 8.698 8.653 8.488 8.413 8.34 8.953 10.52 9.905 9.96 9.958 10.318 10.693 8.688 8.472 8.43 8.828 11.155 9.45 8.528 8.5 9.825 9.715 8.115 8.062 8.215 10.685 11.545 12.062 11.653 11.235 10.823 9.835 8.645 8.07 8.013 8.02 8.347 10.9 13.083 10.29 8.028 7.755 7.755 7.765 7.823 7.83 7.81 7.795 7.765 7.745 7.725 7.71 7.695 7.685 7.665 7.628 7.548 7.503 8.84 8.355 7.738 7.727 7.767 7.73 7.71 7.69 7.653 7.622 7.59 7.577 7.56 7.545 7.543 7.54 7.528 7.523 7.515 7.515 7.512 7.503 7.488 7.472 7.467 7.46 7.462 7.438 7.412 7.395 7.38 7.358 7.347 7.318 7.305 7.298 7.278 7.262 7.247 7.217 7.215 7.153 7.213 7.287 7.37 7.418 7.395 7.347 7.632 8.693 8.583 8.325 8.46 8.28 8.153 8.295 8.342 8.295 8.53 8.44 8.352 8.26 7.99 7.96 7.793 7.573 7.18 7.065 6.988 6.887 6.87 6.865 6.867 6.868 6.863 6.86 6.858 6.845 6.825 6.8 6.798 6.79 6.785 6.773 6.739 6.741 6.77 6.77
9.36 9.362 9.38 9.435 9.512 9.597 9.648 9.68 9.747 9.753 9.75 9.755 9.715 9.66 9.735 9.812 9.802 9.83 9.858 9.828 9.805 9.767 9.767 9.833 9.812 9.708 9.685 9.49 9.427 9.64 9.955 10.108 10.648 11.108 11.212 10.583 10.552 10.475 10.16 9.892 9.03 9.08 9.35 9.483 8.923 8.85 9.118 9.08 9.077 9.068 9.075 9.092 9.108 9.137 9.132 9.115 9.108 9.148 9.17 9.13 9.105 9.087 9.09 9.075 9.04 9.06 9.142 9.198 9.562 9.727 9.307 9.108 9.458 9.672 9.42 9.165 9.073 9.048 9.065 9.085 9.148 9.483 9.645 9.66 9.637 9.34 9.405 9.677 9.443 9.387 9.405 9.455 9.477 9.542 9.655 9.72 9.96 10.057 10.135 10.267 10.15 9.962 9.855 9.823 9.66 9.547 9.49 9.727 9.745 9.727 9.67 9.67 9.663 9.635 9.545 9.715 9.812 9.828 9.98 9.945 9.798 9.875 10.342 10.863 10.405 11.3 10.025 9.605 10.38 9.705 9.53 9.56 10.035 9.46 9.477 9.502 9.53 10.238 14.392 13.378 10.3 9.483 9.752 9.525 9.523 9.467 9.722 13.195 14.007 12.578 11.012 9.36 9.438 9.538 9.49 9.458 9.24 9.238 9.42 9.505 9.618 9.663 9.658 9.67 9.65 9.65 9.62 9.618 9.59 9.555 9.548 9.51 9.47 9.43 9.395 9.382 9.363 9.36 9.318 9.285 9.243 9.195 9.16 9.122 9.062 9.042 9.03 9.015 9.015 9 8.987 8.983 8.965 8.958 8.977 8.95 8.955 8.962 8.948 8.95 9.138 9.392 9.53 9.262 9.108 8.997 9.01 9.007 9.023 9.028 9.028 9.035 9.04 9.01 8.975 8.96 8.805 8.618 8.775 8.823 8.892 8.943 8.95 8.965 8.98 8.98 8.95 8.908 8.905 8.865 8.86 8.872 8.845 8.858 8.84 8.828 8.805 8.833 8.828 8.825 8.85 8.82 8.833 8.82 8.815 8.825 8.847 8.858 8.86 8.863 8.878 8.87 8.842 8.84 8.845 8.833 8.843 8.83 8.81 8.805 8.815 8.788 8.812 8.812 8.815 8.828 8.79 8.765 8.775 8.77 8.78 8.79 8.767 8.75 8.735 8.72 8.705 8.71 8.695 8.698 8.685 8.692 8.71 8.7 8.66 8.663 8.677 8.67 8.665 8.64 8.613 8.61 8.6 8.583 8.592 8.605 8.59 8.605 8.597 8.608 8.63 8.64 8.648 8.65 8.618 8.597 8.61 8.615 8.595 8.608 8.61 8.6 8.618 8.585 8.583 8.562 8.562 8.565 8.56 8.517 8.485 8.49 8.477 8.467 8.448 8.435 8.422 8.448 8.44 8.44 8.467 8.488 8.503 8.523 8.525 8.51 8.495 8.503 8.472 8.44 8.427 8.395 8.388 8.395 8.395 8.42 8.427 8.445 8.46 8.46 8.448 8.42 8.35 8.562 10.062 10.625 10.873 9.335 8.975 10.497 9.36 8.462 8.42 8.42 8.545 10.01 9.422 8.535 8.49 9.733 9.177 8.948 8.057 8.727 11.035 11.53 11.865 12.03 11.967 11.717 11.43 11.14 8.733 8.052 8.023 8.788 10.545 9.335 9.185 8.102 7.727 7.715 7.765 7.827 7.827 7.825 7.8 7.795 7.788 7.767 7.75 7.727 7.715 7.7 7.645 7.608 7.775 8.538 8.095 7.783 7.81 7.783 7.738 7.67 7.653 7.61 7.568 7.55 7.543 7.525 7.512 7.508 7.488 7.475 7.452 7.44 7.43 7.42 7.398 7.387 7.383 7.365 7.345 7.323 7.275 7.28 7.28 7.31 7.668 7.39 7.54 7.755 7.845 7.963 8.193 9.028 8.233 8.27 7.983 8.122 8.203 8.28 8.102 7.36 7.227 7.943 8.653 8.043 8.22 8.083 7.8 7.582 7.52 7.363 7.332 7.332 7.22 7.043 7.003 7.008 6.997 6.99 6.98 6.97 6.947 6.93 6.903 6.895 6.867 6.842 6.82 6.787 6.78 6.82 6.838 6.977 7.715 7.233 6.635 6.6 6.867 7.183 8.36 8.455 6.888
9.505 9.42 9.375 9.375 9.385 9.413 9.438 9.488 9.538 9.605 9.667 9.693 9.743 9.708 9.61 9.623 9.642 9.675 9.602 9.613 9.695 9.833 9.87 9.927 9.82 9.743 9.717 9.58 9.458 9.693 9.88 9.932 10.195 10.595 10.538 10.548 10.432 10.403 10.452 10.2 9.142 9.045 9.312 9.65 9.613 9.017 8.837 9.118 9.085 9.065 9.073 9.1 9.16 9.165 9.118 9.1 9.09 9.137 9.177 9.19 9.173 9.137 9.097 9.083 9.062 9.045 9.075 9.182 9.458 9.565 9.29 9.108 9.378 9.67 9.422 9.215 9.115 9.055 9.02 9.068 9.253 9.62 9.842 9.825 9.58 9.273 9.327 9.53 9.408 9.343 9.34 9.455 9.767 9.73 9.935 9.805 9.788 9.84 9.93 10.102 9.932 9.903 9.79 9.698 9.665 9.48 9.523 9.712 9.712 9.705 9.688 9.67 9.568 9.613 9.56 9.688 9.73 9.775 9.98 10.095 9.983 9.722 9.935 10.307 10.47 10.182 9.807 9.535 9.842 9.735 9.422 10.105 11.557 9.855 9.432 9.863 9.69 9.592 10.597 9.587 11.07 10.655 9.675 9.5 9.495 9.507 10.038 10.635 10.365 10.64 13.142 9.35 9.358 9.602 11.59 12.227 9.163 9.23 9.387 9.472 9.613 9.645 9.637 9.648 9.65 9.64 9.63 9.575 9.548 9.523 9.502 9.467 9.445 9.415 9.385 9.368 9.343 9.34 9.325 9.305 9.273 9.212 9.172 9.125 9.09 9.07 9.045 9.033 9.035 9.007 9.005 8.985 8.975 8.975 8.975 8.955 8.965 8.962 8.97 9.007 9.398 9.717 9.568 9.047 9.012 8.99 8.995 8.995 9.007 9.01 9 8.985 8.962 8.932 8.9 8.72 8.622 8.812 8.87 8.94 8.932 8.975 8.987 8.995 8.987 8.962 8.92 8.895 8.855 8.84 8.86 8.835 8.827 8.847 8.83 8.818 8.823 8.835 8.823 8.84 8.823 8.82 8.823 8.81 8.82 8.833 8.847 8.86 8.863 8.868 8.872 8.862 8.835 8.85 8.845 8.833 8.833 8.81 8.802 8.802 8.785 8.8 8.812 8.802 8.823 8.795 8.755 8.763 8.775 8.778 8.788 8.765 8.743 8.735 8.72 8.7 8.698 8.692 8.688 8.685 8.673 8.688 8.688 8.66 8.645 8.663 8.655 8.663 8.642 8.618 8.6 8.6 8.585 8.593 8.597 8.59 8.597 8.595 8.583 8.613 8.625 8.637 8.638 8.627 8.587 8.58 8.58 8.578 8.593 8.593 8.575 8.595 8.573 8.575 8.56 8.552 8.525 8.542 8.512 8.477 8.483 8.462 8.452 8.45 8.435 8.415 8.422 8.44 8.435 8.44 8.45 8.483 8.51 8.525 8.513 8.488 8.49 8.462 8.423 8.432 8.4 8.378 8.385 8.395 8.398 8.417 8.435 8.435 8.442 8.44 8.427 8.385 8.365 9.673 10.615 10.97 9.323 8.493 8.488 8.587 9.85 9.347 8.395 8.405 8.823 10.35 9.57 8.48 8.462 9.41 8.898 10.807 8.062 8.062 9.12 10.542 11.132 11.42 11.708 11.74 12.012 11.302 8.043 8.052 8.205 10.278 9.852 9.122 9.655 8.227 7.69 7.662 7.74 7.802 7.798 7.8 7.77 7.755 7.755 7.758 7.738 7.727 7.722 7.71 7.675 7.713 7.823 7.842 7.898 7.86 7.835 7.75 7.662 7.602 7.585 7.555 7.537 7.508 7.48 7.435 7.407 7.395 7.39 7.375 7.395 7.4 7.395 7.395 7.475 7.53 7.585 7.675 7.773 7.908 8.155 8.028 8.597 8.398 9.052 10.212 9.673 8.84 8.832 9.445 9.445 10.19 10.342 8.998 8.778 8.847 8.165 7.9 7.688 7.205 7.173 7.16 7.162 7.165 7.172 7.148 7.122 7.108 7.097 7.088 7.085 7.09 7.068 7.06 7.073 7.088 7.075 7.057 7.015 6.967 6.927 6.85 6.82 6.88 6.875 6.767 6.74 6.74 7.012 6.878 7.883 8.47 9.025 8.012 7.378 8.462 9.02 8.561 8.899 8.676 7.909
