ncols 452
nrows 31
xllcorner    246082
yllcorner    137794
cellsize     2
NODATA_value -9999
29.795 29.725 29.68 29.638 29.593 29.542 29.49 29.452 29.392 29.333 29.278 29.212 29.162 29.11 29.058 29.003 28.958 28.892 28.835 28.805 28.765 28.712 28.66 28.625 28.608 28.55 28.465 28.403 28.397 28.315 28.253 28.177 28.12 28.073 28.02 27.967 27.903 27.845 27.785 27.733 27.677 27.625 27.565 27.47 27.375 27.27 27.108 27.103 28.02 27.855 27.362 27.353 27.267 27.212 27.147 27.068 27.017 27.003 26.978 26.985 27 26.985 26.983 26.96 26.95 26.91 26.917 26.872 26.833 26.785 26.74 26.698 26.65 26.602 26.57 26.535 26.507 26.47 26.448 26.403 26.395 26.358 26.298 26.26 26.238 26.212 26.193 26.167 26.155 26.145 26.12 26.093 26.073 26.085 26.052 26.025 26 25.958 25.95 25.925 25.89 25.845 25.802 25.778 25.715 25.673 25.66 25.663 25.658 25.705 25.733 25.74 25.74 25.737 25.725 25.685 25.62 25.538 25.478 25.448 25.413 25.38 25.352 25.312 25.272 25.245 25.235 25.205 25.147 25.163 25.66 26.06 26.017 25.52 25.007 24.897 24.872 24.858 24.907 24.943 24.96 25.003 25.05 25.073 25.06 25.025 24.958 24.95 24.945 24.898 24.905 24.858 24.802 24.747 24.702 24.642 24.495 24.41 24.452 25.682 24.472 23.962 24.702 25.275 24.855 24.737 24.73 24.745 24.737 24.705 24.66 24.6 24.54 24.47 24.395 24.255 24.583 24.55 24.515 24.548 24.542 24.565 24.58 24.578 24.592 24.597 24.615 24.615 24.65 24.642 24.65 24.647 24.638 24.655 24.645 24.665 24.665 24.663 24.66 24.647 24.62 24.61 24.632 24.63 24.615 24.63 24.597 24.577 24.562 24.545 24.535 24.52 24.528 24.513 24.548 24.548 24.505 24.538 24.487 24.438 24.36 24.28 24.522 23.972 23.542 24.923 25.99 26.28 24.87 24.962 24.858 25.032 24.548 24.493 24.397 24.247 25.647 27.305 30.96 31.548 31.595 31.395 31.028 30.622 30.227 26.535 24.538 23.92 23.878 24.028 23.833 23.68 23.673 23.667 23.782 24.327 24.413 24.193 24.138 24.347 24.567 24.903 24.853 22.61 20.283 20.31 21.46 24.805 23.83 23.83 23.808 23.853 23.852 23.845 23.83 23.778 23.7 23.7 23.695 23.712 23.695 23.705 23.718 23.718 23.712 23.68 23.708 23.642 23.612 23.642 23.642 23.65 23.655 23.667 23.708 23.75 23.772 23.827 23.875 23.892 23.933 23.948 23.965 24.007 24.065 24.095 24.105 24.185 24.217 24.26 24.312 24.377 24.445 24.495 24.54 24.583 24.612 24.677 24.735 24.78 24.81 24.878 24.962 25.06 25.132 25.188 25.228 25.305 25.365 25.385 25.413 25.43 25.467 25.503 25.555 25.615 25.67 25.71 25.798 25.862 25.938 25.97 25.978 26 26.085 26.173 26.288 26.405 27.515 26.788 27.135 26.59 26.6 26.635 26.71 26.802 26.89 26.978 27.007 27.025 27.04 27.105 27.157 27.2 27.235 27.28 27.323 27.36 27.415 27.455 27.515 27.56 27.615 27.68 27.737 27.795 27.837 27.895 27.925 27.97 28.035 28.09 28.15 28.213 28.272 28.323 28.388 28.438 28.495 28.55 28.618 28.677 28.735 28.783 28.837 28.888 28.93 28.978 29.035 29.093 29.142 29.202 29.265 29.327 29.375 29.438 29.522 29.585 29.647 29.71 29.745 29.76 29.798 29.865 29.955 30.515 31.13 31.395 31.08 30.587 30.618 30.72 30.798 30.865 30.943 31.028 31.12 31.215 31.305 31.395 31.505 31.583 31.66 31.748 31.845 31.938 32.028 32.1 32.188 32.268 32.37 32.478 32.59 32.693 32.802 32.917 33.022 33.128 33.237 33.35 33.485 33.605
29.618 29.542 29.485 29.442 29.405 29.347 29.302 29.255 29.212 29.155 29.097 29.038 28.972 28.932 28.882 28.823 28.778 28.728 28.665 28.622 28.587 28.54 28.495 28.445 28.405 28.385 28.358 28.28 28.192 28.128 28.09 28.017 27.95 27.9 27.86 27.802 27.737 27.675 27.625 27.568 27.515 27.462 27.417 27.34 27.248 27.157 27.005 26.89 27.67 27.927 27.305 27.177 27.112 27.048 26.983 26.91 26.858 26.833 26.805 26.81 26.8 26.802 26.81 26.792 26.778 26.757 26.738 26.733 26.677 26.645 26.597 26.558 26.513 26.445 26.423 26.39 26.36 26.323 26.298 26.262 26.355 26.188 26.138 26.11 26.09 26.058 26.035 26.02 26.005 25.978 25.945 25.935 25.935 25.915 25.89 25.87 25.88 25.837 25.82 25.785 25.745 25.72 25.663 25.63 25.577 25.528 25.498 25.51 25.538 25.528 25.542 25.57 25.6 25.622 25.6 25.552 25.51 25.455 25.392 25.342 25.32 25.272 25.215 25.153 25.12 25.09 25.04 25.022 25.253 25.98 26.14 25.385 24.938 24.788 24.735 24.735 24.745 24.783 24.833 24.865 24.91 24.925 24.955 24.927 24.905 24.915 24.875 24.853 24.818 24.765 24.767 24.755 24.698 24.665 24.565 24.52 24.38 24.292 24.233 24.92 24.905 23.85 24.215 25.188 24.755 24.6 24.587 24.587 24.612 24.577 24.545 24.485 24.435 24.358 24.283 24.14 24.138 24.307 24.395 24.4 24.423 24.435 24.44 24.425 24.445 24.478 24.475 24.475 24.485 24.51 24.515 24.497 24.49 24.517 24.522 24.528 24.532 24.528 24.515 24.517 24.507 24.505 24.497 24.52 24.495 24.507 24.493 24.47 24.452 24.44 24.452 24.415 24.44 24.443 24.43 24.445 24.435 24.435 24.403 24.368 24.32 24.19 24.245 22.878 23.068 24.318 25.467 24.818 24.467 24.485 24.645 24.638 24.44 24.397 24.55 25.605 25.013 26.99 29.347 30.87 30.432 29.583 27.905 25.397 24.92 24.37 24.307 24.273 24.225 24.12 23.915 23.783 23.837 23.405 22.993 22.853 22.733 22.79 23.182 23.452 23.667 23.83 23.972 23.21 20.432 20.278 20.167 23.59 23.903 23.688 23.702 23.715 23.728 23.733 23.737 23.718 23.635 23.608 23.608 23.612 23.64 23.647 23.635 23.625 23.595 23.57 23.58 23.542 23.517 23.542 23.538 23.54 23.54 23.565 23.608 23.642 23.708 23.763 23.78 23.81 23.833 23.847 23.95 23.965 23.98 23.99 24.052 24.1 24.147 24.202 24.25 24.323 24.378 24.443 24.47 24.517 24.57 24.62 24.675 24.717 24.77 24.843 24.948 25.028 25.097 25.142 25.195 25.267 25.305 25.315 25.325 25.37 25.407 25.45 25.517 25.577 25.622 25.705 25.795 25.862 25.897 25.923 25.882 25.94 26.048 26.1 26.218 26.335 27.3 26.667 27.142 26.55 26.53 26.597 26.658 26.73 26.825 26.908 26.94 26.95 26.972 27.035 27.093 27.125 27.162 27.217 27.253 27.28 27.345 27.417 27.458 27.513 27.568 27.625 27.692 27.722 27.76 27.795 27.85 27.9 27.96 28.022 28.09 28.142 28.193 28.247 28.307 28.355 28.43 28.503 28.548 28.597 28.645 28.698 28.757 28.785 28.853 28.905 28.96 29.015 29.08 29.138 29.205 29.255 29.315 29.403 29.467 29.533 29.587 29.603 29.628 29.667 29.767 30.055 30.767 31.115 30.825 30.507 30.427 30.515 30.603 30.667 30.745 30.81 30.89 30.975 31.075 31.173 31.265 31.358 31.438 31.517 31.603 31.695 31.783 31.865 31.948 32.03 32.113 32.205 32.31 32.42 32.518 32.62 32.74 32.835 32.935 33.045 33.165 33.28 33.4 33.507
29.423 29.355 29.295 29.24 29.215 29.17 29.12 29.065 29.028 28.968 28.917 28.86 28.792 28.75 28.71 28.647 28.587 28.54 28.493 28.44 28.403 28.355 28.315 28.27 28.222 28.192 28.16 28.1 28.032 27.958 27.92 27.85 27.785 27.728 27.673 27.628 27.57 27.522 27.47 27.417 27.362 27.31 27.267 27.205 27.115 27.033 26.917 26.798 26.932 27.965 27.68 26.98 26.935 26.878 26.815 26.745 26.69 26.645 26.63 26.625 26.622 26.622 26.618 26.612 26.622 26.597 26.583 26.57 26.535 26.502 26.45 26.408 26.365 26.315 26.27 26.222 26.205 26.173 26.333 26.102 26.083 26.045 25.993 25.952 25.917 25.897 25.868 25.843 25.842 25.837 25.805 25.775 25.76 25.76 25.745 25.73 25.73 25.695 25.67 25.635 25.6 25.56 25.548 25.487 25.45 25.425 25.403 25.375 25.362 25.372 25.392 25.4 25.43 25.448 25.45 25.455 25.392 25.362 25.312 25.23 25.175 25.118 25.08 25.033 24.962 24.875 24.958 25.585 25.85 25.58 24.952 24.647 24.58 24.595 24.618 24.65 24.693 24.722 24.748 24.795 24.827 24.837 24.795 24.8 24.755 24.76 24.725 24.688 24.72 24.657 24.665 24.618 24.58 24.507 24.448 24.388 24.285 24.193 24.077 24.455 25.157 23.815 23.743 25.618 24.705 24.51 24.44 24.448 24.487 24.45 24.427 24.395 24.315 24.233 24.15 24.052 23.965 24.35 24.315 24.263 24.278 24.27 24.298 24.302 24.308 24.312 24.335 24.35 24.36 24.365 24.362 24.37 24.368 24.362 24.382 24.37 24.392 24.413 24.403 24.39 24.392 24.398 24.385 24.385 24.39 24.395 24.403 24.365 24.347 24.355 24.358 24.325 24.355 24.343 24.37 24.37 24.35 24.337 24.333 24.29 24.283 24.208 24.427 23.63 22.98 24.075 24.708 24.355 24.4 24.375 24.378 24.392 24.333 24.355 24.382 24.577 24.188 26.237 26.565 26.843 24.218 24.253 24.362 24.895 24.63 25.243 25.17 24.627 24.147 24.007 23.978 24.255 24.435 24.542 24.087 23.085 22.413 22.167 21.91 21.708 21.702 21.805 21.788 21.448 20.458 20.162 20.122 21.215 23.84 23.58 23.608 23.615 23.622 23.64 23.642 23.653 23.59 23.498 23.468 23.497 23.55 23.575 23.557 23.505 23.465 23.435 23.405 23.408 23.417 23.448 23.445 23.432 23.417 23.458 23.487 23.515 23.587 23.66 23.675 23.705 23.71 23.73 23.838 23.915 23.895 23.908 23.97 24.005 24.08 24.138 24.19 24.26 24.318 24.382 24.42 24.472 24.53 24.565 24.605 24.675 24.73 24.798 24.9 24.968 25.033 25.097 25.165 25.21 25.225 25.25 25.263 25.305 25.355 25.405 25.483 25.542 25.612 25.705 25.778 25.827 25.843 25.845 25.83 25.9 26.005 26.067 26.163 26.272 27.045 26.548 27.022 26.618 26.455 26.557 26.595 26.67 26.753 26.837 26.875 26.882 26.923 26.98 27.015 27.055 27.09 27.145 27.177 27.247 27.302 27.35 27.403 27.467 27.522 27.577 27.618 27.642 27.692 27.743 27.78 27.845 27.907 27.952 28.013 28.077 28.122 28.165 28.22 28.28 28.355 28.42 28.505 28.52 28.565 28.625 28.663 28.715 28.772 28.837 28.892 28.955 29.017 29.068 29.14 29.222 29.28 29.343 29.405 29.442 29.47 29.478 29.548 29.7 30.663 30.837 30.78 30.533 30.237 30.31 30.4 30.475 30.54 30.628 30.693 30.763 30.847 30.93 31.032 31.13 31.21 31.29 31.373 31.452 31.532 31.625 31.712 31.783 31.882 31.955 32.055 32.155 32.27 32.35 32.442 32.545 32.658 32.755 32.862 32.97 33.085 33.205 33.305 33.405
29.233 29.173 29.108 29.062 29.028 28.983 28.935 28.878 28.837 28.772 28.725 28.677 28.605 28.558 28.525 28.475 28.417 28.368 28.315 28.265 28.22 28.167 28.132 28.09 28.045 28.012 27.975 27.927 27.872 27.795 27.747 27.698 27.612 27.57 27.507 27.468 27.405 27.365 27.325 27.26 27.215 27.165 27.112 27.073 26.993 26.91 26.815 26.677 26.597 27.358 27.65 26.878 26.77 26.71 26.658 26.595 26.532 26.483 26.472 26.458 26.455 26.462 26.448 26.46 26.452 26.44 26.417 26.405 26.385 26.342 26.31 26.263 26.228 26.18 26.128 26.083 26.07 26.038 25.978 25.952 25.93 25.888 25.845 25.805 25.778 25.743 25.733 25.72 25.708 25.682 25.655 25.642 25.628 25.59 25.59 25.57 25.565 25.538 25.497 25.493 25.46 25.427 25.39 25.372 25.345 25.295 25.253 25.243 25.215 25.21 25.2 25.23 25.247 25.28 25.308 25.31 25.3 25.27 25.183 25.108 25.065 24.997 24.923 24.83 24.812 25.077 25.573 25.275 24.9 24.548 24.458 24.43 24.423 24.49 24.533 24.565 24.618 24.632 24.698 24.658 24.717 24.68 24.675 24.65 24.59 24.62 24.615 24.555 24.57 24.512 24.535 24.505 24.468 24.395 24.333 24.275 24.205 24.11 23.993 23.945 25.057 23.958 23.59 24.628 24.747 24.395 24.318 24.33 24.337 24.33 24.318 24.247 24.215 24.12 24.035 23.955 23.843 24.42 24.335 24.138 24.132 24.148 24.155 24.17 24.145 24.188 24.198 24.198 24.23 24.243 24.247 24.243 24.225 24.222 24.265 24.24 24.265 24.26 24.267 24.278 24.288 24.272 24.265 24.285 24.298 24.285 24.285 24.28 24.26 24.257 24.267 24.252 24.25 24.265 24.265 24.292 24.295 24.283 24.27 24.2 24.185 24.135 24.04 23.255 23.695 23.108 26.38 25.392 24.298 24.34 24.312 24.285 24.307 24.302 24.273 24.278 24.042 24.062 24.048 24.033 24.003 24 24.032 24.443 24.86 25.23 25.23 24.493 24.025 23.94 23.948 24.065 24.368 24.795 24.925 24.67 24.175 23.185 22.497 21.99 21.365 21.1 20.765 20.575 20.26 20.048 20.075 19.923 25.028 24.307 23.505 23.515 23.532 23.552 23.542 23.535 23.515 23.423 23.345 23.378 23.445 23.485 23.48 23.415 23.36 23.295 23.29 23.307 23.353 23.36 23.347 23.333 23.325 23.347 23.375 23.415 23.595 23.538 23.568 23.593 23.595 23.655 23.763 23.843 23.858 23.853 23.892 23.938 24.007 24.068 24.132 24.188 24.247 24.307 24.37 24.415 24.46 24.517 24.577 24.63 24.693 24.767 24.853 24.925 24.993 25.05 25.1 25.14 25.155 25.185 25.212 25.263 25.307 25.37 25.452 25.517 25.612 25.665 25.73 25.765 25.767 25.778 25.807 25.86 25.955 26.025 26.09 26.19 26.825 26.305 27.118 26.73 26.392 26.505 26.515 26.612 26.688 26.755 26.802 26.835 26.868 26.895 26.94 26.975 27.025 27.075 27.14 27.195 27.243 27.3 27.353 27.417 27.467 27.5 27.538 27.587 27.64 27.675 27.735 27.783 27.825 27.865 27.94 27.98 28.042 28.093 28.142 28.21 28.278 28.345 28.392 28.458 28.49 28.552 28.6 28.653 28.722 28.767 28.833 28.885 28.94 29.013 29.087 29.15 29.217 29.27 29.305 29.318 29.34 29.455 29.72 30.593 30.88 30.905 30.087 30.112 30.218 30.278 30.362 30.425 30.505 30.575 30.647 30.715 30.807 30.897 30.993 31.077 31.147 31.23 31.318 31.39 31.487 31.56 31.638 31.71 31.805 31.905 31.997 32.097 32.195 32.298 32.38 32.485 32.583 32.695 32.802 32.903 33.015 33.11 33.21 33.312
29.035 28.98 28.925 28.862 28.818 28.78 28.735 28.685 28.647 28.6 28.545 28.503 28.44 28.382 28.333 28.295 28.237 28.19 28.138 28.085 28.04 28.007 27.95 27.913 27.868 27.835 27.798 27.76 27.705 27.642 27.573 27.545 27.47 27.405 27.355 27.305 27.25 27.2 27.16 27.108 27.055 27.013 26.97 26.927 26.87 26.785 26.708 26.592 26.52 26.868 27.535 26.907 26.575 26.55 26.493 26.438 26.362 26.328 26.29 26.28 26.275 26.278 26.278 26.275 26.275 26.282 26.27 26.255 26.23 26.195 26.163 26.115 26.068 26.04 25.97 25.952 25.923 25.86 25.833 25.802 25.785 25.75 25.712 25.663 25.622 25.602 25.59 25.558 25.528 25.538 25.505 25.483 25.475 25.465 25.445 25.417 25.4 25.385 25.375 25.35 25.318 25.308 25.267 25.225 25.2 25.185 25.142 25.097 25.075 25.048 25.05 25.08 25.085 25.132 25.147 25.172 25.148 25.112 25.07 25.007 24.938 24.83 24.767 24.933 25.362 25.195 25.33 24.288 24.243 24.217 24.23 24.292 24.373 24.41 24.455 24.475 24.487 24.557 24.485 24.55 24.528 24.555 24.56 24.562 24.483 24.485 24.478 24.44 24.427 24.392 24.417 24.378 24.36 24.275 24.225 24.153 24.077 24.005 23.935 23.823 24.528 24.355 23.485 23.995 24.873 24.308 24.202 24.18 24.192 24.215 24.2 24.15 24.115 24.045 23.93 23.833 23.72 23.987 24.4 24.015 24 24.012 24.028 24.048 24.02 24.057 24.05 24.075 24.095 24.092 24.102 24.115 24.11 24.095 24.1 24.115 24.135 24.145 24.153 24.148 24.163 24.19 24.173 24.173 24.18 24.173 24.19 24.167 24.16 24.153 24.17 24.195 24.163 24.18 24.205 24.222 24.235 24.217 24.18 24.167 24.108 24.05 24.035 22.885 22.67 23.688 25.95 24.253 24.185 24.182 24.18 24.202 24.23 24.237 24.155 23.972 23.985 24.033 24.03 24.183 24.105 23.948 24.013 24.31 25.035 25.235 25.467 25.013 24.552 24.263 24.1 24.163 24.138 24.395 24.42 24.78 24.538 24.142 24.06 23.82 23.58 23.02 22.235 21.753 20.827 20.14 19.948 20.215 25.267 25.138 23.4 23.427 23.438 23.458 23.445 23.423 23.413 23.358 23.265 23.267 23.327 23.36 23.343 23.312 23.272 23.23 23.225 23.243 23.272 23.253 23.25 23.235 23.237 23.265 23.27 23.327 23.375 23.413 23.445 23.49 23.517 23.605 23.717 23.815 23.823 23.837 23.84 23.872 23.96 24.003 24.065 24.125 24.185 24.245 24.32 24.368 24.405 24.46 24.54 24.59 24.663 24.74 24.83 24.897 24.95 24.983 25.028 25.05 25.09 25.132 25.157 25.202 25.263 25.343 25.423 25.515 25.587 25.632 25.683 25.695 25.722 25.737 25.765 25.818 25.897 25.952 25.995 26.1 26.705 27.052 27.077 26.715 26.362 26.435 26.452 26.542 26.625 26.682 26.753 26.785 26.8 26.812 26.868 26.92 26.98 27.035 27.077 27.135 27.19 27.247 27.31 27.365 27.398 27.43 27.487 27.533 27.573 27.635 27.682 27.72 27.767 27.798 27.85 27.913 27.955 28.01 28.087 28.15 28.222 28.267 28.32 28.358 28.423 28.478 28.525 28.595 28.653 28.715 28.77 28.812 28.885 28.965 29.03 29.083 29.118 29.158 29.175 29.21 29.452 29.905 30.657 30.72 30.08 29.905 30.005 30.09 30.16 30.222 30.312 30.378 30.45 30.525 30.597 30.688 30.767 30.858 30.927 31.01 31.083 31.17 31.243 31.337 31.4 31.478 31.568 31.663 31.76 31.853 31.94 32.028 32.123 32.21 32.312 32.412 32.515 32.62 32.72 32.81 32.912 33.013 33.132 33.23
28.845 28.798 28.743 28.685 28.638 28.602 28.552 28.51 28.462 28.427 28.378 28.325 28.263 28.2 28.153 28.105 28.062 28.007 27.96 27.905 27.858 27.825 27.782 27.735 27.698 27.66 27.625 27.587 27.538 27.472 27.413 27.372 27.317 27.243 27.195 27.14 27.09 27.048 27.013 26.972 26.907 26.868 26.827 26.785 26.745 26.675 26.608 26.52 26.445 26.472 27.528 27.09 26.465 26.365 26.32 26.285 26.222 26.16 26.13 26.112 26.11 26.097 26.122 26.128 26.115 26.12 26.12 26.108 26.087 26.07 26.015 25.98 25.932 25.885 25.843 25.81 25.76 25.717 25.685 25.638 25.62 25.595 25.573 25.542 25.503 25.458 25.452 25.432 25.375 25.358 25.355 25.327 25.308 25.29 25.278 25.265 25.253 25.247 25.228 25.218 25.183 25.155 25.14 25.11 25.09 25.042 25 24.987 24.967 24.927 24.94 24.94 24.935 24.978 24.978 24.985 24.995 24.983 24.938 24.885 24.78 24.87 25.06 25.61 25.202 24.625 24.55 24.295 24.048 24.105 24.11 24.188 24.252 24.31 24.353 24.365 24.34 24.38 24.388 24.38 24.38 24.45 24.4 24.388 24.378 24.392 24.342 24.308 24.292 24.255 24.225 24.218 24.235 24.155 24.108 24.045 23.97 23.892 23.827 23.698 24.182 24.642 23.403 23.47 25.083 24.245 24.087 24.062 24.09 24.075 24.057 24.038 23.985 23.915 23.83 23.728 23.622 23.62 24.455 23.938 23.885 23.885 23.882 23.888 23.895 23.905 23.915 23.917 23.94 23.942 23.972 23.983 23.962 23.968 24 24.03 24.007 24.007 24.042 24.048 24.062 24.062 24.073 24.073 24.065 24.055 24.068 24.07 24.083 24.052 24.095 24.115 24.09 24.135 24.14 24.142 24.16 24.16 24.108 24.09 24.025 23.873 23.628 23.542 23.323 24.44 24.302 24.24 24.055 24.05 24.1 24.15 24.132 24.128 23.97 23.913 24.003 24.028 24.013 23.975 23.987 23.958 23.958 23.91 24.255 24.812 25.195 25.528 25.23 24.985 24.655 24.65 24.32 24.265 24.092 24.458 24.485 24.292 24.247 24.163 24.115 23.862 23.923 23.862 23.292 22.017 19.995 19.862 20.71 22.905 23.378 23.327 23.347 23.352 23.337 23.298 23.302 23.275 23.222 23.165 23.167 23.215 23.218 23.185 23.175 23.155 23.147 23.163 23.167 23.145 23.14 23.153 23.16 23.177 23.198 23.235 23.237 23.263 23.325 23.395 23.448 23.583 23.688 23.765 23.78 23.78 23.778 23.802 23.855 23.913 23.98 24.055 24.127 24.2 24.263 24.305 24.343 24.397 24.493 24.575 24.647 24.71 24.783 24.845 24.888 24.913 24.942 24.97 25.02 25.062 25.103 25.17 25.25 25.337 25.432 25.513 25.56 25.568 25.6 25.65 25.693 25.725 25.72 25.767 25.823 25.87 25.923 26.295 26.353 26.935 26.49 27.05 26.34 26.375 26.38 26.458 26.562 26.625 26.688 26.737 26.747 26.772 26.827 26.862 26.927 26.987 27.033 27.083 27.145 27.195 27.272 27.298 27.323 27.375 27.44 27.48 27.535 27.59 27.625 27.663 27.7 27.737 27.785 27.83 27.895 27.958 28.035 28.087 28.142 28.193 28.24 28.29 28.358 28.423 28.48 28.533 28.612 28.647 28.708 28.765 28.837 28.905 28.958 28.993 29.013 29.048 29.125 29.503 30.275 30.55 30.347 29.855 29.783 29.88 29.962 30.05 30.118 30.182 30.257 30.327 30.413 30.475 30.56 30.66 30.728 30.81 30.892 30.962 31.042 31.11 31.192 31.267 31.33 31.42 31.513 31.608 31.695 31.78 31.872 31.962 32.045 32.127 32.235 32.34 32.427 32.542 32.638 32.732 32.83 32.948 33.045 33.147
28.66 28.62 28.568 28.503 28.445 28.42 28.382 28.325 28.275 28.238 28.188 28.142 28.087 28.017 27.968 27.927 27.88 27.827 27.785 27.725 27.68 27.628 27.597 27.548 27.517 27.475 27.448 27.413 27.37 27.312 27.25 27.198 27.16 27.087 27.025 26.983 26.945 26.9 26.86 26.81 26.767 26.718 26.688 26.65 26.612 26.573 26.503 26.432 26.337 26.307 27.05 27.26 26.448 26.2 26.173 26.118 26.08 26.007 25.965 25.958 25.945 25.948 25.955 25.962 25.962 25.958 25.975 25.95 25.938 25.913 25.862 25.845 25.795 25.74 25.708 25.655 25.628 25.59 25.55 25.51 25.5 25.45 25.42 25.388 25.34 25.327 25.285 25.248 25.228 25.205 25.185 25.16 25.182 25.135 25.12 25.118 25.102 25.1 25.08 25.06 25.05 25.025 25.005 24.975 24.96 24.948 24.927 24.92 24.88 24.833 24.827 24.792 24.767 24.788 24.823 24.855 24.82 24.807 24.767 24.95 25.097 25.26 24.872 24.237 24.27 24.505 25.83 24.037 23.995 23.983 23.987 24.087 24.16 24.215 24.215 24.225 24.235 24.225 24.253 24.228 24.235 24.265 24.262 24.285 24.243 24.292 24.208 24.177 24.208 24.135 24.11 24.07 24.077 24.032 23.962 23.923 23.862 23.775 23.692 23.59 23.513 25.013 23.487 23.212 24.6 24.265 23.997 23.94 23.942 23.968 23.955 23.925 23.852 23.845 23.72 23.632 23.533 23.403 24.01 24.03 23.737 23.728 23.755 23.755 23.76 23.765 23.795 23.792 23.815 23.815 23.827 23.852 23.85 23.865 23.865 23.89 23.888 23.895 23.9 23.915 23.943 23.958 23.948 23.96 23.945 23.958 23.978 23.997 23.99 23.99 24.035 24.035 24.03 24.038 24.052 24.068 24.06 24.083 24.022 23.903 24.628 23.487 22.895 22.48 22.718 25.158 26.083 25.327 23.978 23.915 23.975 24.032 23.983 23.927 23.802 23.858 23.955 23.99 23.993 23.962 23.93 23.895 23.875 23.82 24.15 23.878 24.638 25.52 25.595 25.63 25.097 25.03 24.368 24.195 23.897 23.897 24.125 24.382 24.215 24.24 24.03 23.763 23.98 24.057 24.233 24.41 21.51 19.75 19.743 21.29 23.59 23.228 23.233 23.23 23.222 23.198 23.192 23.18 23.15 23.095 23.07 23.112 23.115 23.058 23.045 23.038 23.055 23.065 23.077 23.07 23.065 23.09 23.095 23.112 23.142 23.17 23.175 23.208 23.263 23.335 23.407 23.56 23.667 23.705 23.715 23.7 23.682 23.71 23.76 23.827 23.903 23.98 24.052 24.142 24.2 24.25 24.298 24.362 24.452 24.552 24.635 24.688 24.735 24.775 24.823 24.845 24.862 24.895 24.95 25.003 25.07 25.163 25.247 25.343 25.427 25.458 25.487 25.472 25.545 25.622 25.65 25.65 25.655 25.698 25.747 25.792 25.865 26.5 26.615 27.25 26.58 26.78 26.31 26.295 26.33 26.392 26.498 26.557 26.63 26.67 26.683 26.71 26.778 26.837 26.885 26.958 27.005 27.03 27.085 27.153 27.198 27.235 27.283 27.333 27.392 27.438 27.48 27.52 27.557 27.595 27.64 27.673 27.715 27.772 27.83 27.907 27.96 28.013 28.062 28.118 28.177 28.237 28.31 28.365 28.427 28.477 28.54 28.605 28.667 28.725 28.785 28.81 28.837 28.86 28.917 29.015 29.72 30.433 30.292 29.753 29.612 29.675 29.763 29.84 29.92 30.007 30.077 30.153 30.205 30.283 30.372 30.445 30.525 30.605 30.677 30.765 30.85 30.908 30.983 31.04 31.105 31.185 31.272 31.372 31.452 31.54 31.628 31.708 31.792 31.882 31.975 32.077 32.18 32.283 32.365 32.467 32.555 32.66 32.755 32.845 32.943 33.05
28.48 28.432 28.388 28.33 28.272 28.225 28.195 28.148 28.092 28.05 28.007 27.955 27.905 27.85 27.798 27.737 27.7 27.65 27.605 27.555 27.507 27.465 27.425 27.378 27.333 27.302 27.267 27.238 27.202 27.15 27.083 27.035 26.995 26.942 26.87 26.83 26.795 26.755 26.71 26.657 26.612 26.585 26.565 26.54 26.525 26.48 26.41 26.29 26.185 26.2 26.855 27.025 26.603 26.057 26 25.95 25.935 25.865 25.8 25.8 25.778 25.78 25.767 25.788 25.805 25.8 25.802 25.812 25.79 25.772 25.715 25.705 25.663 25.615 25.57 25.522 25.497 25.458 25.408 25.378 25.355 25.325 25.295 25.255 25.18 25.185 25.14 25.112 25.09 25.077 25.083 25.028 25.01 25.013 24.987 24.962 24.96 24.96 24.95 24.93 24.932 24.905 24.903 24.9 24.87 24.862 24.825 24.79 24.752 24.72 24.68 24.667 24.677 24.65 24.658 24.653 24.663 25.02 25.427 25.812 25.077 25.405 24.185 23.897 23.868 25.355 25.432 24.103 23.885 23.89 23.903 23.94 23.978 24.045 24.08 24.095 24.085 24.103 24.1 24.085 24.097 24.118 24.122 24.115 24.113 24.15 24.1 24.06 24.042 24.017 23.978 23.958 23.915 23.917 23.868 23.88 23.75 23.66 23.575 23.445 23.35 24.087 23.865 23.03 23.785 24.548 23.923 23.805 23.818 23.835 23.845 23.808 23.755 23.675 23.612 23.54 23.455 23.323 23.528 24.108 23.62 23.595 23.602 23.61 23.63 23.632 23.642 23.67 23.665 23.688 23.72 23.745 23.738 23.733 23.74 23.775 23.765 23.79 23.792 23.818 23.833 23.815 23.845 23.865 23.868 23.892 23.913 23.927 23.942 23.943 23.952 23.955 23.995 23.965 23.97 23.98 23.972 23.84 23.512 23.248 23.243 23.915 24.13 23.36 24.035 24.472 27.4 25.022 24.188 25.392 23.987 23.86 23.842 23.74 23.725 23.825 23.925 23.95 23.935 23.92 23.878 23.827 23.767 23.735 23.733 23.923 24.142 25.27 25.662 25.317 25.378 24.792 23.985 24.11 23.772 23.55 23.905 24.265 24.237 24.062 23.878 23.96 24.04 23.915 23.785 23.843 23.103 19.765 19.638 20.165 23.638 23.177 23.138 23.132 23.132 23.105 23.1 23.103 23.077 23.048 23.013 23.02 23 22.925 22.905 22.932 22.955 22.965 23.01 23.02 23.03 23.032 23.035 23.05 23.097 23.118 23.15 23.175 23.202 23.233 23.327 23.49 23.577 23.615 23.62 23.622 23.625 23.66 23.688 23.755 23.82 23.897 24.002 24.087 24.138 24.193 24.247 24.325 24.423 24.522 24.595 24.645 24.675 24.715 24.755 24.78 24.795 24.837 24.907 24.955 25.042 25.153 25.237 25.31 25.318 25.382 25.388 25.432 25.515 25.565 25.58 25.575 25.595 25.627 25.667 25.725 25.967 26.48 27.065 26.632 29.052 26.932 26.265 26.228 26.275 26.342 26.44 26.5 26.583 26.628 26.635 26.688 26.733 26.788 26.868 26.92 26.96 27.005 27.052 27.087 27.14 27.193 27.235 27.288 27.33 27.377 27.413 27.462 27.5 27.542 27.57 27.605 27.657 27.72 27.788 27.83 27.872 27.925 28.003 28.065 28.12 28.175 28.25 28.302 28.358 28.427 28.48 28.548 28.605 28.66 28.677 28.682 28.71 28.77 29.165 29.862 30.202 30.135 29.448 29.478 29.565 29.64 29.728 29.815 29.895 29.958 30.033 30.085 30.15 30.237 30.323 30.388 30.467 30.555 30.618 30.68 30.77 30.837 30.903 30.962 31.045 31.145 31.23 31.31 31.385 31.47 31.56 31.64 31.73 31.833 31.91 32.007 32.09 32.188 32.285 32.373 32.475 32.57 32.685 32.763 32.855 32.948
28.295 28.253 28.208 28.15 28.085 28.035 27.997 27.948 27.895 27.852 27.815 27.77 27.72 27.667 27.62 27.56 27.53 27.48 27.432 27.385 27.335 27.292 27.26 27.21 27.165 27.128 27.09 27.062 27.022 26.985 26.932 26.87 26.837 26.795 26.72 26.677 26.648 26.628 26.583 26.498 26.462 26.475 26.46 26.448 26.415 26.347 26.233 26.225 26.4 26.538 26.495 26.5 26.605 26.042 25.845 25.792 25.76 25.71 25.64 25.625 25.635 25.632 25.628 25.635 25.663 25.663 25.667 25.68 25.655 25.66 25.612 25.577 25.53 25.495 25.445 25.42 25.375 25.335 25.29 25.25 25.21 25.192 25.138 25.1 25.077 25.042 25.003 24.987 24.98 24.932 24.913 24.907 24.878 24.895 24.885 24.86 24.865 24.882 24.868 24.85 24.86 24.845 24.805 24.782 24.737 24.725 24.693 24.657 24.625 24.597 24.555 24.528 24.485 24.445 24.57 25.032 25.45 25.597 25.38 25.028 24.327 23.897 23.885 23.818 23.745 24.605 24.673 24.23 23.802 23.722 23.725 23.792 23.855 23.905 23.908 23.932 23.972 23.93 23.945 23.962 23.945 23.96 23.978 23.983 23.95 23.96 23.942 23.942 23.915 23.9 23.85 23.828 23.792 23.755 23.743 23.767 23.65 23.568 23.515 23.362 23.24 23.472 24.25 22.892 23.058 24.625 23.85 23.68 23.66 23.695 23.685 23.667 23.632 23.57 23.505 23.417 23.333 23.225 23.125 23.983 23.58 23.445 23.455 23.475 23.49 23.503 23.528 23.55 23.54 23.542 23.588 23.587 23.618 23.622 23.62 23.64 23.667 23.67 23.7 23.712 23.73 23.745 23.753 23.775 23.785 23.83 23.858 23.85 23.847 23.875 23.872 23.882 23.888 23.903 23.868 23.67 24 23.228 23.823 24.153 23.298 22.317 23.66 24.372 23.812 23.728 24.81 25.132 26.975 27.615 24.142 23.788 23.708 23.622 23.67 23.837 23.865 23.877 23.878 23.837 23.77 23.71 23.65 23.612 23.635 23.725 23.907 24.765 25.358 25.73 25.115 24.76 23.715 24.198 24.4 24.373 23.837 23.783 23.81 23.95 23.78 23.423 23.108 23.095 23.158 23.198 23.92 20.333 19.555 19.683 21.897 23.47 23.02 23.03 23.025 23.03 23.022 23.035 23.03 22.997 22.938 22.908 22.865 22.823 22.81 22.847 22.862 22.88 22.925 22.977 22.98 22.96 22.983 23.02 23.035 23.052 23.095 23.1 23.128 23.163 23.247 23.405 23.47 23.488 23.497 23.532 23.577 23.605 23.622 23.667 23.722 23.84 23.94 24.015 24.065 24.145 24.22 24.295 24.39 24.48 24.552 24.593 24.62 24.653 24.7 24.718 24.747 24.785 24.858 24.933 25.03 25.153 25.267 25.245 25.245 25.28 25.307 25.417 25.47 25.503 25.52 25.535 25.53 25.555 25.593 25.665 26.115 26.245 26.568 25.925 26.592 26.763 26.312 26.15 26.23 26.283 26.372 26.458 26.53 26.585 26.625 26.645 26.692 26.747 26.808 26.86 26.9 26.938 26.977 27.033 27.085 27.138 27.195 27.225 27.28 27.323 27.365 27.4 27.435 27.472 27.503 27.538 27.62 27.675 27.722 27.767 27.802 27.87 27.938 28.017 28.06 28.122 28.173 28.24 28.305 28.365 28.438 28.493 28.54 28.545 28.542 28.583 28.662 29.353 29.985 29.977 29.513 29.288 29.38 29.445 29.532 29.615 29.682 29.763 29.837 29.913 29.967 30.022 30.115 30.2 30.28 30.337 30.407 30.493 30.557 30.628 30.705 30.763 30.842 30.91 30.993 31.08 31.167 31.24 31.325 31.395 31.478 31.568 31.662 31.743 31.84 31.923 32.01 32.11 32.198 32.28 32.378 32.482 32.585 32.67 32.753 32.845
28.1 28.06 28.015 27.968 27.9 27.847 27.802 27.767 27.718 27.675 27.638 27.595 27.542 27.498 27.44 27.385 27.345 27.312 27.26 27.212 27.165 27.13 27.077 27.04 26.995 26.968 26.92 26.888 26.86 26.825 26.782 26.73 26.675 26.64 26.577 26.528 26.498 26.47 26.43 26.365 26.27 26.29 26.325 26.3 26.23 26.177 26.63 27.17 27.278 26.12 25.532 25.67 26.45 26.243 25.71 25.658 25.618 25.605 25.53 25.49 25.493 25.48 25.49 25.478 25.51 25.517 25.512 25.528 25.532 25.535 25.497 25.45 25.413 25.38 25.34 25.302 25.26 25.21 25.17 25.15 25.077 25.07 25.035 24.993 24.965 24.938 24.907 24.892 24.89 24.872 24.842 24.827 24.81 24.82 24.795 24.767 24.767 24.767 24.767 24.743 24.712 24.682 24.67 24.645 24.63 24.605 24.565 24.535 24.483 24.41 24.365 24.4 24.763 25.015 25.292 25.1 24.667 24.205 24.057 23.89 23.86 23.82 23.767 23.702 23.647 23.972 24.888 24.665 23.878 23.65 23.603 23.63 23.682 23.725 23.76 23.8 23.83 23.81 23.812 23.82 23.802 23.823 23.865 23.872 23.837 23.85 23.825 23.8 23.788 23.775 23.725 23.71 23.665 23.618 23.62 23.628 23.54 23.448 23.403 23.295 23.188 23.263 24.392 22.993 22.772 24.237 23.862 23.585 23.52 23.535 23.548 23.54 23.483 23.425 23.353 23.302 23.23 23.112 22.955 23.398 23.695 23.347 23.325 23.328 23.353 23.395 23.392 23.43 23.408 23.438 23.478 23.49 23.503 23.522 23.52 23.522 23.58 23.558 23.597 23.615 23.63 23.65 23.67 23.69 23.7 23.75 23.765 23.75 23.757 23.79 23.792 23.782 23.735 23.645 24.57 23.215 23.638 22.722 22.675 22.97 23.788 23.635 23.632 23.842 23.425 23.988 24.495 26.325 25.895 25.778 24.315 23.705 23.517 23.503 23.65 23.775 23.815 23.805 23.763 23.705 23.655 23.605 23.62 23.673 23.688 23.638 23.833 24.448 24.935 25.642 25.243 25.12 24.108 23.878 23.825 23.795 23.908 23.837 23.36 23.06 22.837 22.843 22.835 22.925 22.92 23.003 23.368 22.175 19.522 19.507 22.155 23.737 22.925 22.927 22.938 22.948 22.935 22.95 22.96 22.925 22.868 22.83 22.78 22.73 22.733 22.772 22.795 22.808 22.85 22.91 22.905 22.892 22.938 22.97 22.97 22.99 23.003 23.022 23.062 23.112 23.173 23.302 23.397 23.395 23.4 23.45 23.493 23.517 23.55 23.605 23.692 23.8 23.87 23.943 24.01 24.108 24.192 24.263 24.34 24.417 24.48 24.52 24.56 24.593 24.628 24.67 24.712 24.757 24.833 24.92 25.045 25.15 25.247 25.215 25.145 25.182 25.27 25.37 25.41 25.445 25.46 25.483 25.5 25.505 25.542 25.763 25.895 26.528 25.815 25.695 26.363 27.165 26.38 26.092 26.188 26.24 26.307 26.408 26.467 26.533 26.583 26.603 26.657 26.698 26.755 26.81 26.853 26.888 26.943 26.993 27.03 27.093 27.138 27.18 27.237 27.265 27.31 27.35 27.375 27.403 27.448 27.503 27.542 27.605 27.655 27.705 27.75 27.83 27.903 27.948 28.017 28.058 28.108 28.173 28.25 28.31 28.362 28.408 28.41 28.42 28.455 28.618 29.333 29.935 29.585 29.265 29.175 29.257 29.335 29.403 29.487 29.573 29.65 29.702 29.775 29.845 29.917 29.99 30.065 30.15 30.228 30.288 30.355 30.44 30.503 30.557 30.635 30.71 30.782 30.855 30.943 31.022 31.105 31.17 31.245 31.32 31.403 31.51 31.6 31.673 31.767 31.842 31.932 32.025 32.118 32.205 32.323 32.405 32.487 32.58 32.655 32.75
27.908 27.872 27.82 27.782 27.722 27.655 27.612 27.585 27.542 27.493 27.455 27.417 27.368 27.32 27.272 27.22 27.173 27.155 27.097 27.052 27 26.955 26.907 26.875 26.833 26.792 26.757 26.715 26.69 26.663 26.622 26.575 26.54 26.498 26.448 26.368 26.337 26.305 26.255 26.212 26.033 25.98 26.06 26.25 26.73 27.01 26.737 25.972 25.673 25.36 25.275 25.493 26.195 26.267 25.75 25.555 25.497 25.507 25.458 25.39 25.403 25.4 25.375 25.38 25.37 25.395 25.403 25.407 25.42 25.43 25.41 25.36 25.347 25.312 25.285 25.23 25.19 25.153 25.103 25.08 25.045 25.017 24.965 24.927 24.897 24.853 24.82 24.788 24.775 24.743 24.722 24.698 24.698 24.67 24.658 24.645 24.64 24.63 24.612 24.585 24.575 24.548 24.522 24.493 24.462 24.4 24.368 24.365 24.385 24.63 24.86 25.087 25.375 25.495 24.745 24.075 23.83 23.825 23.823 23.792 23.743 23.71 23.66 23.612 23.552 23.493 24.405 24.562 24.135 23.515 23.52 23.472 23.53 23.555 23.603 23.665 23.69 23.685 23.69 23.677 23.677 23.673 23.7 23.733 23.718 23.69 23.712 23.673 23.665 23.677 23.597 23.595 23.56 23.522 23.5 23.475 23.472 23.368 23.29 23.177 23.035 22.983 23.63 23.44 22.65 23.487 24.13 23.517 23.398 23.382 23.4 23.365 23.347 23.31 23.23 23.18 23.095 22.995 22.897 22.95 23.64 23.3 23.22 23.208 23.222 23.257 23.265 23.288 23.302 23.31 23.32 23.36 23.4 23.43 23.45 23.43 23.478 23.493 23.507 23.538 23.565 23.577 23.605 23.593 23.62 23.632 23.645 23.663 23.655 23.62 23.702 23.182 23.34 23.07 23.385 22.627 22.443 22.375 23.552 23.842 24.112 23.945 24.102 23.8 23.737 23.858 24.577 24.645 24.068 23.54 23.515 23.493 23.347 23.385 23.665 23.715 23.74 23.733 23.673 23.62 23.538 23.545 23.655 23.632 23.625 23.585 23.495 23.9 24.132 24.897 25.1 24.478 24.245 24.03 23.847 23.462 23.062 22.778 22.76 22.778 22.792 22.795 22.77 22.855 22.81 22.872 22.935 23.645 19.522 19.445 20.11 22.663 22.862 22.853 22.853 22.847 22.827 22.83 22.825 22.79 22.775 22.755 22.74 22.69 22.665 22.688 22.712 22.737 22.8 22.837 22.827 22.825 22.878 22.885 22.91 22.935 22.945 22.967 23.068 23.075 23.123 23.237 23.327 23.312 23.365 23.382 23.407 23.438 23.53 23.597 23.645 23.733 23.843 23.895 23.962 24.062 24.14 24.212 24.29 24.355 24.413 24.448 24.493 24.54 24.58 24.628 24.69 24.745 24.82 24.92 25.028 25.103 25.145 25.125 25.115 25.12 25.255 25.325 25.358 25.388 25.413 25.445 25.45 25.452 25.52 25.895 26.298 26.36 25.595 25.733 25.845 26.767 26.365 26.077 26.15 26.193 26.257 26.345 26.41 26.48 26.54 26.575 26.597 26.673 26.725 26.75 26.812 26.847 26.897 26.94 26.985 27.022 27.07 27.125 27.167 27.19 27.225 27.263 27.305 27.347 27.4 27.43 27.477 27.517 27.573 27.645 27.705 27.77 27.84 27.892 27.938 27.99 28.068 28.135 28.208 28.25 28.267 28.265 28.28 28.353 28.66 29.638 29.608 29.138 29.01 29.057 29.127 29.202 29.298 29.378 29.445 29.528 29.587 29.663 29.73 29.805 29.882 29.958 30.035 30.105 30.158 30.237 30.315 30.382 30.427 30.497 30.57 30.647 30.722 30.798 30.89 30.965 31.028 31.1 31.175 31.255 31.342 31.445 31.522 31.593 31.685 31.77 31.862 31.96 32.048 32.143 32.222 32.318 32.397 32.478 32.552 32.642
27.733 27.688 27.642 27.597 27.55 27.487 27.43 27.39 27.362 27.327 27.275 27.245 27.2 27.157 27.108 27.058 27.003 26.97 26.93 26.885 26.835 26.782 26.745 26.708 26.663 26.625 26.59 26.552 26.515 26.493 26.462 26.42 26.375 26.335 26.298 26.235 26.2 26.165 26.1 25.975 25.837 25.788 25.833 26.97 27.397 26.017 25.583 25.39 25.312 25.245 25.182 25.18 25.595 26.27 25.82 25.423 25.395 25.38 25.378 25.312 25.325 25.302 25.278 25.275 25.292 25.302 25.305 25.325 25.342 25.328 25.312 25.27 25.245 25.195 25.157 25.122 25.085 25.022 24.978 24.938 24.895 24.87 24.833 24.788 24.757 24.735 24.708 24.673 24.65 24.628 24.608 24.587 24.577 24.55 24.535 24.497 24.475 24.46 24.438 24.403 24.368 24.315 24.335 24.275 24.257 24.365 24.503 24.85 24.99 25.323 24.685 24.945 24.253 24.015 23.765 23.74 23.74 23.725 23.69 23.655 23.615 23.552 23.528 23.503 23.465 23.405 23.5 24.962 25.177 23.417 23.378 23.312 23.388 23.4 23.465 23.503 23.545 23.58 23.54 23.532 23.552 23.548 23.568 23.585 23.583 23.573 23.61 23.555 23.528 23.532 23.53 23.458 23.44 23.395 23.362 23.337 23.325 23.225 23.173 23.138 22.943 22.847 23.425 23.897 22.573 22.663 24.112 23.452 23.295 23.24 23.237 23.245 23.235 23.173 23.103 23.06 22.983 22.885 22.8 22.675 23.035 23.37 23.083 23.075 23.112 23.135 23.147 23.165 23.192 23.218 23.247 23.26 23.305 23.33 23.362 23.362 23.39 23.413 23.432 23.46 23.493 23.49 23.513 23.515 23.522 23.552 23.538 23.638 23.342 22.983 22.125 22.08 22.618 21.775 21.533 22.03 22.405 22.772 23.077 23.392 23.61 23.465 23.618 23.388 23.382 23.448 23.928 24.18 23.54 23.932 23.3 23.25 23.23 23.295 23.565 23.665 23.667 23.605 23.568 23.515 23.487 23.575 23.507 23.46 23.493 23.525 23.737 24.285 23.493 23.935 23.9 23.86 23.515 23.112 22.785 22.743 22.805 22.73 22.722 22.725 22.733 22.743 22.728 22.773 22.778 22.755 22.858 23.448 19.807 19.36 19.733 22.878 23.012 22.745 22.753 22.733 22.805 22.698 22.71 22.682 22.677 22.665 22.67 22.65 22.608 22.615 22.625 22.658 22.71 22.735 22.747 22.773 22.795 22.82 22.865 22.88 22.897 22.927 22.985 23.045 23.042 23.15 23.215 23.235 23.285 23.302 23.318 23.388 23.46 23.528 23.605 23.69 23.798 23.853 23.923 24.007 24.097 24.167 24.225 24.278 24.337 24.382 24.427 24.48 24.55 24.603 24.677 24.73 24.825 24.917 24.987 25.042 25.02 25.068 25.112 25.112 25.208 25.263 25.295 25.325 25.37 25.405 25.39 25.423 25.783 26.07 26.495 25.673 25.57 25.755 25.843 26.688 26.405 26.057 26.097 26.14 26.205 26.292 26.365 26.44 26.515 26.525 26.583 26.63 26.67 26.71 26.747 26.802 26.835 26.892 26.917 26.965 27.003 27.052 27.087 27.12 27.16 27.19 27.267 27.292 27.318 27.365 27.405 27.458 27.53 27.597 27.658 27.71 27.77 27.812 27.88 27.945 28.005 28.075 28.12 28.13 28.145 28.155 28.24 28.895 29.462 29.472 29.138 28.86 28.935 29.005 29.087 29.19 29.265 29.327 29.395 29.462 29.53 29.593 29.67 29.75 29.83 29.915 29.978 30.045 30.108 30.177 30.24 30.32 30.368 30.445 30.528 30.603 30.673 30.76 30.818 30.892 30.955 31.03 31.105 31.185 31.275 31.36 31.452 31.533 31.61 31.708 31.79 31.88 31.972 32.055 32.135 32.213 32.292 32.377 32.475 32.565
27.538 27.503 27.46 27.417 27.375 27.327 27.272 27.215 27.19 27.148 27.112 27.08 27.045 26.995 26.945 26.882 26.837 26.795 26.762 26.71 26.67 26.618 26.575 26.525 26.49 26.448 26.427 26.392 26.355 26.337 26.3 26.263 26.21 26.177 26.14 26.105 26.042 25.995 25.925 25.932 26.412 25.948 25.682 26.593 25.698 25.47 25.368 25.325 25.278 25.217 25.14 25.048 25.632 25.85 25.968 25.468 25.272 25.248 25.27 25.233 25.195 25.173 25.155 25.138 25.148 25.158 25.163 25.18 25.18 25.17 25.145 25.118 25.097 25.062 25.007 24.972 24.915 24.862 24.812 24.765 24.72 24.68 24.648 24.622 24.597 24.56 24.528 24.488 24.445 24.427 24.413 24.38 24.34 24.31 24.298 24.283 24.25 24.202 24.215 24.298 24.43 24.485 24.583 24.737 24.98 24.812 25.087 25.155 24.85 23.903 23.88 23.67 23.67 23.673 23.642 23.628 23.602 23.568 23.542 23.515 23.485 23.462 23.442 23.4 23.36 23.288 23.25 24.855 24.895 24.132 23.247 23.228 23.225 23.245 23.295 23.36 23.398 23.42 23.395 23.39 23.392 23.407 23.42 23.458 23.462 23.46 23.408 23.425 23.413 23.392 23.388 23.32 23.32 23.275 23.243 23.22 23.182 23.115 23.05 23.055 22.913 22.775 22.71 24.097 22.67 22.417 23.76 23.575 23.19 23.102 23.092 23.09 23.068 23.04 23 22.935 22.845 22.767 22.698 22.577 22.595 23.305 23.077 22.975 22.99 23.01 23.04 23.075 23.085 23.105 23.128 23.15 23.205 23.237 23.257 23.263 23.288 23.333 23.35 23.355 23.38 23.395 23.415 23.423 23.55 23.552 23.847 22.815 21.89 23.618 23.507 21.792 21.432 21.855 22.095 22.655 22.782 22.993 23.11 22.788 23.147 22.852 23.562 23.19 23.292 22.882 22.887 23.952 23.38 23.815 23.118 23.085 23.118 23.135 23.248 23.485 23.54 23.548 23.52 23.477 23.498 23.502 23.413 23.612 23.622 23.483 23.827 23.892 23.965 23.64 23.18 22.817 22.725 22.7 22.69 22.69 22.79 22.66 22.642 22.64 22.612 22.638 22.632 22.65 22.745 22.667 22.792 22.823 20.74 19.323 19.337 21.312 23.14 22.577 22.597 22.592 22.625 22.595 22.59 22.58 22.585 22.577 22.57 22.558 22.573 22.552 22.525 22.575 22.625 22.663 22.667 22.72 22.745 22.785 22.8 22.82 22.835 22.885 22.943 22.97 22.983 23.017 23.108 23.157 23.217 23.233 23.292 23.345 23.403 23.487 23.585 23.685 23.77 23.8 23.868 23.955 24.052 24.11 24.165 24.225 24.26 24.325 24.388 24.435 24.517 24.575 24.663 24.73 24.817 24.882 24.93 24.942 24.95 25.032 25.06 25.097 25.147 25.198 25.237 25.275 25.323 25.347 25.35 25.427 26.25 26.585 26.27 25.4 25.595 25.763 25.845 26.225 26.545 26.05 26.057 26.105 26.163 26.245 26.325 26.408 26.478 26.505 26.538 26.57 26.615 26.647 26.708 26.737 26.77 26.815 26.87 26.897 26.935 26.972 27.02 27.05 27.105 27.147 27.175 27.202 27.243 27.29 27.368 27.407 27.477 27.538 27.595 27.653 27.702 27.772 27.827 27.892 27.955 27.983 27.997 28 28.025 28.25 28.978 29.425 29.333 28.805 28.757 28.818 28.895 28.97 29.06 29.142 29.212 29.265 29.333 29.403 29.467 29.535 29.622 29.72 29.782 29.85 29.913 29.993 30.068 30.122 30.182 30.253 30.333 30.407 30.483 30.548 30.622 30.698 30.757 30.815 30.885 30.952 31.033 31.125 31.195 31.285 31.37 31.45 31.532 31.628 31.718 31.807 31.89 31.962 32.042 32.112 32.208 32.31 32.4 32.485
27.345 27.32 27.278 27.24 27.2 27.158 27.103 27.05 27.028 26.995 26.948 26.91 26.87 26.823 26.78 26.728 26.673 26.628 26.592 26.542 26.507 26.462 26.42 26.37 26.33 26.292 26.272 26.225 26.195 26.173 26.15 26.11 26.062 26.02 25.98 25.93 25.858 25.86 26.135 26.782 26.478 25.722 25.432 25.378 25.38 25.33 25.298 25.257 25.198 25.118 25.06 24.983 24.945 25.955 25.923 25.42 25.083 25.085 25.097 25.095 25.095 25.077 25.028 24.99 24.975 24.972 24.98 24.993 24.987 24.96 24.943 24.917 24.88 24.833 24.763 24.702 24.638 24.568 24.542 24.51 24.493 24.5 24.452 24.395 24.352 24.318 24.305 24.323 24.317 24.35 24.288 24.255 24.337 24.425 24.423 24.68 24.608 24.805 24.97 24.997 25.193 25.068 24.79 24.792 24.573 24.033 23.835 23.702 23.57 23.575 23.577 23.568 23.54 23.502 23.495 23.495 23.45 23.413 23.415 23.413 23.368 23.33 23.308 23.295 23.267 23.195 23.122 23.23 23.535 23.63 23.295 23.108 23.062 23.087 23.135 23.215 23.257 23.312 23.248 23.25 23.267 23.278 23.28 23.288 23.337 23.35 23.302 23.29 23.285 23.257 23.255 23.222 23.19 23.138 23.115 23.108 23.057 23.052 22.96 22.94 22.82 22.715 22.605 23.385 23.182 22.323 22.847 23.965 23.125 22.978 22.95 22.927 22.915 22.89 22.84 22.77 22.733 22.657 22.565 22.483 22.385 22.688 23.073 22.852 22.878 22.917 22.948 22.98 22.995 23.017 23.058 23.07 23.092 23.122 23.16 23.193 23.205 23.212 23.23 23.225 23.253 23.265 23.54 24.305 24.158 23.483 22.667 23.83 23.72 24.07 21.815 22.72 23.035 23.32 22.86 23.225 22.932 22.688 22.608 22.59 22.68 23.015 22.903 22.933 23.02 23.185 22.833 24.255 23.823 23.052 23 22.993 23.013 23.015 23.003 23.095 23.452 23.487 23.452 23.42 23.42 23.415 23.365 23.71 23.952 23.85 23.688 23.118 22.827 22.702 22.688 22.667 22.665 22.64 22.625 22.597 22.608 22.565 22.528 22.515 22.525 22.59 22.603 22.495 22.705 22.595 22.702 22.717 21.96 19.303 19.285 20.343 22.62 22.413 22.423 22.423 22.5 22.478 22.45 22.46 22.49 22.497 22.467 22.448 22.51 22.462 22.438 22.468 22.545 22.608 22.612 22.658 22.733 22.745 22.755 22.753 22.785 22.845 22.897 22.952 22.975 22.955 23.083 23.108 23.15 23.19 23.257 23.31 23.38 23.47 23.58 23.667 23.722 23.767 23.85 23.942 24.04 24.087 24.112 24.163 24.202 24.265 24.325 24.37 24.45 24.507 24.587 24.712 24.77 24.823 24.858 24.868 24.92 25 25.033 25.055 25.087 25.145 25.188 25.245 25.275 25.292 25.325 25.535 25.795 26.257 25.427 25.44 25.618 25.743 25.807 26.175 26.845 26.073 26 26.05 26.128 26.215 26.295 26.368 26.445 26.47 26.478 26.5 26.555 26.603 26.65 26.673 26.717 26.76 26.795 26.833 26.87 26.913 26.95 26.98 27.06 27.075 27.1 27.145 27.19 27.25 27.31 27.355 27.423 27.472 27.53 27.58 27.655 27.728 27.78 27.83 27.85 27.862 27.868 27.913 28.362 29.042 29.06 29.155 28.573 28.642 28.717 28.778 28.865 28.95 29.017 29.085 29.15 29.205 29.278 29.34 29.413 29.503 29.585 29.667 29.73 29.8 29.86 29.925 30 30.068 30.14 30.205 30.255 30.353 30.413 30.487 30.548 30.625 30.673 30.74 30.812 30.882 30.962 31.052 31.138 31.22 31.29 31.368 31.462 31.545 31.63 31.72 31.79 31.875 31.948 32.048 32.14 32.225 32.315 32.4
27.167 27.14 27.102 27.075 27.032 26.995 26.952 26.9 26.852 26.815 26.782 26.745 26.712 26.665 26.62 26.58 26.517 26.468 26.432 26.403 26.34 26.315 26.26 26.222 26.173 26.13 26.105 26.065 26.04 26.015 25.99 25.948 25.903 25.858 25.798 25.825 26.153 26.587 26.505 25.595 25.375 25.335 25.315 25.295 25.24 25.24 25.18 25.125 25.055 24.985 24.925 24.875 24.807 24.892 25.538 25.597 25.035 24.925 24.89 24.87 24.897 24.865 24.805 24.767 24.755 24.76 24.757 24.745 24.728 24.708 24.695 24.677 24.688 24.685 24.67 24.73 24.778 24.812 24.818 24.892 24.888 24.805 24.745 24.728 24.827 24.917 24.99 25.028 24.905 24.923 25.085 25.12 25.032 24.788 24.573 24.685 24.445 24.36 24.557 23.975 24.228 25.015 24.1 23.57 23.535 23.55 23.542 23.503 23.487 23.465 23.415 23.398 23.378 23.36 23.36 23.323 23.327 23.32 23.307 23.267 23.243 23.237 23.208 23.19 23.147 23.095 23.038 22.975 23.148 24.248 23.112 23 22.96 22.935 22.985 23.042 23.092 23.17 23.14 23.14 23.132 23.132 23.145 23.138 23.205 23.19 23.175 23.167 23.155 23.145 23.145 23.11 23.065 23.025 22.997 23.022 22.993 22.96 22.858 22.78 22.737 22.59 22.525 22.605 23.493 22.255 22.253 23.792 23.095 22.87 22.8 22.785 22.757 22.733 22.695 22.64 22.59 22.533 22.467 22.392 22.315 22.253 23.045 23.007 22.78 22.812 22.855 22.89 22.905 22.92 22.958 22.972 22.997 23.03 23.065 23.062 23.113 23.138 23.145 23.007 22.923 22.562 24.265 24.01 23.55 23.645 22.81 22.225 21.882 23.07 23.155 23.745 23.243 23.302 22.535 22.6 22.51 22.48 22.478 22.483 22.497 22.55 22.618 22.595 22.642 22.64 22.66 22.87 24.562 23.2 22.923 22.91 22.9 22.875 22.847 22.82 23.288 23.352 23.318 23.395 23.647 23.737 23.745 23.528 23.048 22.802 22.612 22.608 22.638 22.622 22.587 22.555 22.528 22.513 22.597 22.575 22.528 22.452 22.435 22.462 22.495 22.517 22.522 22.438 22.522 22.533 22.573 22.605 22.208 19.335 19.275 19.78 21.877 22.325 22.272 22.305 22.372 22.358 22.33 22.347 22.382 22.405 22.388 22.397 22.398 22.372 22.347 22.375 22.478 22.548 22.548 22.573 22.675 22.688 22.695 22.698 22.74 22.83 22.897 22.938 22.895 22.948 23.017 23.05 23.09 23.155 23.215 23.302 23.39 23.455 23.555 23.632 23.7 23.753 23.83 23.938 24.025 24.055 24.077 24.115 24.153 24.208 24.272 24.318 24.39 24.445 24.542 24.635 24.695 24.74 24.773 24.825 24.885 24.948 24.977 24.997 25.028 25.093 25.142 25.188 25.218 25.237 25.507 25.83 26.077 25.552 25.325 25.49 25.608 25.7 25.78 26.137 26.632 26.142 25.93 26.003 26.095 26.185 26.26 26.323 26.395 26.45 26.44 26.443 26.505 26.55 26.59 26.625 26.645 26.693 26.737 26.77 26.82 26.847 26.903 26.92 26.945 27.003 27.025 27.068 27.13 27.198 27.243 27.288 27.37 27.4 27.47 27.54 27.605 27.665 27.7 27.73 27.745 27.745 27.87 28.728 28.94 28.802 28.423 28.432 28.517 28.585 28.665 28.737 28.823 28.895 28.952 29.015 29.09 29.158 29.217 29.283 29.37 29.465 29.535 29.615 29.68 29.745 29.802 29.86 29.94 30.01 30.08 30.145 30.225 30.278 30.358 30.423 30.487 30.545 30.603 30.673 30.745 30.807 30.892 30.975 31.062 31.142 31.222 31.3 31.388 31.46 31.558 31.632 31.705 31.783 31.888 31.962 32.06 32.143 32.243 32.327
26.99 26.965 26.94 26.908 26.87 26.83 26.79 26.733 26.69 26.658 26.62 26.575 26.542 26.505 26.455 26.417 26.368 26.31 26.255 26.23 26.185 26.145 26.1 26.062 26.017 25.968 25.93 25.915 25.89 25.87 25.825 25.772 25.715 25.752 26.193 26.733 26.495 25.54 25.272 25.235 25.222 25.243 25.233 25.192 25.137 25.073 25.012 24.985 24.905 24.845 24.802 24.778 24.695 24.632 25.002 25.52 25.327 24.945 24.972 25.202 25.045 25.392 25.5 25.37 25.23 25.237 25.188 25.493 25.263 25.312 25.278 25.38 25.267 25.147 25.302 25.365 25.285 25.243 25.235 25.212 25.062 25.195 25.073 25.188 24.823 24.763 24.49 24.568 24.458 24.522 24.403 24.075 23.92 24.96 23.693 23.562 23.53 23.425 23.4 23.378 23.365 23.39 23.395 23.41 23.39 23.38 23.36 23.353 23.32 23.302 23.27 23.243 23.235 23.245 23.25 23.22 23.2 23.192 23.188 23.173 23.132 23.095 23.092 23.083 23.05 23.01 22.93 22.875 22.842 23.753 23.153 22.88 22.86 22.79 22.837 22.897 22.955 23.01 23.005 22.99 23 23.017 23.015 22.997 23.032 23.06 23.07 23.032 23.04 23.017 23.015 22.975 22.962 22.913 22.868 22.895 22.878 22.815 22.775 22.658 22.645 22.565 22.465 22.32 23.525 22.465 22.05 23.108 23.365 22.802 22.675 22.63 22.62 22.592 22.575 22.533 22.478 22.415 22.353 22.272 22.243 22.16 22.307 23.055 22.865 22.755 22.775 22.812 22.84 22.86 22.87 22.882 22.88 22.955 22.958 22.993 23.307 23.325 23.125 22.093 22.575 24.272 23.67 23.022 23.878 23.112 24.325 24.302 23.56 23.083 23.208 22.798 22.55 22.403 22.347 22.382 22.397 22.372 22.362 22.35 22.305 22.32 22.34 22.347 22.42 22.485 22.538 22.635 24 23.57 22.87 22.84 22.788 22.737 22.7 22.698 23.13 23.392 23.792 23.792 23.67 23.427 22.785 22.557 22.53 22.54 22.575 22.587 22.552 22.483 22.478 22.495 22.455 22.442 22.42 22.423 22.417 22.407 22.392 22.365 22.382 22.435 22.42 22.345 22.415 22.47 22.452 22.53 22.23 19.45 19.193 19.345 21.77 22.118 22.132 22.185 22.25 22.26 22.247 22.257 22.292 22.312 22.308 22.298 22.295 22.292 22.245 22.28 22.37 22.438 22.43 22.478 22.577 22.595 22.62 22.655 22.712 22.798 22.845 22.86 22.84 22.897 22.97 23.04 23.115 23.177 23.225 23.298 23.372 23.435 23.507 23.575 23.65 23.702 23.8 23.882 23.96 24 24.028 24.073 24.112 24.155 24.217 24.285 24.355 24.435 24.48 24.528 24.592 24.655 24.72 24.782 24.843 24.888 24.905 24.927 24.967 25.033 25.085 25.132 25.145 25.192 25.577 25.792 25.855 25.202 25.35 25.443 25.562 25.638 25.72 25.897 26.93 26.353 25.913 25.96 26.05 26.155 26.22 26.272 26.323 26.392 26.388 26.423 26.452 26.47 26.52 26.555 26.58 26.635 26.663 26.702 26.772 26.81 26.825 26.853 26.89 26.92 26.958 27.017 27.085 27.13 27.18 27.237 27.278 27.35 27.425 27.485 27.54 27.577 27.59 27.59 27.62 27.987 28.605 29.035 28.478 28.253 28.305 28.39 28.465 28.55 28.628 28.698 28.757 28.823 28.89 28.96 29.02 29.087 29.158 29.255 29.343 29.413 29.493 29.538 29.62 29.675 29.74 29.805 29.885 29.962 30.033 30.105 30.16 30.217 30.292 30.342 30.405 30.465 30.522 30.595 30.675 30.753 30.837 30.923 31 31.073 31.155 31.235 31.305 31.382 31.458 31.545 31.612 31.71 31.812 31.895 31.983 32.07 32.153 32.248
26.823 26.795 26.78 26.743 26.718 26.67 26.63 26.57 26.515 26.483 26.448 26.405 26.372 26.345 26.295 26.262 26.21 26.155 26.105 26.062 26.038 25.99 25.95 25.898 25.865 25.837 25.808 25.76 25.722 25.685 25.635 25.692 26.657 26.68 26.458 25.935 25.237 25.165 25.155 25.163 25.153 25.125 25.102 25.055 24.972 24.903 24.858 24.83 24.795 24.735 24.69 24.658 24.565 24.48 24.478 25.077 25.58 25.323 25.24 25.522 25.673 25.645 25.1 25.155 25.015 24.983 25.042 25.335 25.315 24.95 24.94 25.375 24.755 24.535 24.618 24.325 24.347 24.69 24.24 24.388 23.875 23.818 23.843 23.69 23.593 23.542 23.535 23.532 23.535 23.47 23.408 23.407 23.392 23.382 23.368 23.337 23.32 23.305 23.298 23.263 23.247 23.255 23.24 23.248 23.243 23.233 23.215 23.208 23.195 23.18 23.158 23.132 23.13 23.122 23.115 23.087 23.092 23.095 23.07 23.06 23.035 23.045 23.015 22.955 22.915 22.892 22.847 22.755 22.72 23.195 23.47 22.797 22.743 22.68 22.698 22.735 22.788 22.833 22.94 22.872 22.85 22.858 22.882 22.915 22.972 22.935 22.927 22.9 22.915 22.882 22.858 22.855 22.842 22.8 22.75 22.733 22.76 22.693 22.66 22.568 22.517 22.425 22.382 22.22 22.827 22.855 21.955 22.153 23.875 22.772 22.552 22.485 22.48 22.462 22.438 22.39 22.353 22.29 22.25 22.177 22.142 22.1 22.028 22.66 22.837 22.655 22.72 22.717 22.755 22.743 22.75 22.772 22.82 22.913 22.702 22.305 22.67 23.705 22.77 22.948 20.695 20.895 21.565 22.755 22.63 23.01 23.55 23.802 23.263 22.618 22.378 22.315 22.28 22.24 22.21 22.215 22.237 22.243 22.22 22.22 22.23 22.218 22.202 22.175 22.26 22.342 22.41 22.48 23.427 23.673 22.805 22.745 22.677 22.75 22.952 23.37 23.763 23.612 23.608 22.917 22.632 22.528 22.517 22.54 22.462 22.455 22.427 22.43 22.435 22.438 22.455 22.46 22.38 22.375 22.42 22.39 22.362 22.342 22.307 22.29 22.295 22.333 22.333 22.28 22.233 22.455 22.355 22.43 22.91 19.565 19.105 19.102 20.555 22.042 22.023 22.022 22.075 22.153 22.188 22.205 22.225 22.243 22.222 22.202 22.222 22.212 22.165 22.202 22.267 22.318 22.35 22.39 22.448 22.49 22.535 22.593 22.665 22.733 22.755 22.773 22.78 22.837 22.94 23.048 23.132 23.173 23.22 23.275 23.327 23.382 23.443 23.5 23.568 23.647 23.722 23.81 23.878 23.917 23.967 24.023 24.065 24.13 24.185 24.272 24.36 24.413 24.44 24.467 24.513 24.585 24.69 24.743 24.8 24.84 24.87 24.905 24.933 24.983 25.02 25.052 25.097 25.272 25.132 25.91 25.225 25.192 25.312 25.395 25.495 25.573 25.65 25.665 26.667 26.438 25.895 25.895 25.995 26.11 26.155 26.202 26.263 26.325 26.335 26.347 26.372 26.403 26.445 26.485 26.528 26.565 26.59 26.645 26.688 26.72 26.733 26.778 26.807 26.86 26.913 26.97 27.01 27.08 27.118 27.155 27.235 27.3 27.358 27.4 27.435 27.458 27.45 27.517 28.068 28.702 28.725 28.25 28.122 28.193 28.267 28.342 28.417 28.513 28.58 28.647 28.7 28.77 28.835 28.895 28.965 29.042 29.13 29.21 29.28 29.36 29.42 29.48 29.542 29.612 29.675 29.747 29.835 29.9 29.975 30.04 30.105 30.153 30.215 30.265 30.337 30.39 30.465 30.533 30.618 30.7 30.763 30.843 30.913 30.995 31.07 31.153 31.228 31.302 31.37 31.47 31.548 31.638 31.712 31.807 31.895 31.99 32.08 32.17
26.653 26.63 26.605 26.568 26.535 26.493 26.458 26.403 26.345 26.312 26.282 26.247 26.205 26.177 26.135 26.102 26.062 26.015 25.955 25.913 25.882 25.845 25.808 25.763 25.728 25.69 25.635 25.577 25.53 25.65 26.12 26.718 26.202 25.448 25.145 25.105 25.077 25.077 25.083 25.052 25.013 24.965 24.938 24.903 24.825 24.748 24.71 24.688 24.657 24.603 24.54 24.495 24.438 24.352 24.265 24.227 24.23 24.225 24.185 24.378 24.14 24.535 24.302 24.663 24.263 24.142 24.257 24.075 23.927 23.882 23.865 23.81 23.755 23.708 23.663 23.663 23.618 23.635 23.642 23.585 23.542 23.522 23.478 23.478 23.43 23.392 23.365 23.35 23.365 23.345 23.308 23.288 23.28 23.252 23.222 23.2 23.182 23.185 23.157 23.125 23.07 23.075 23.065 23.078 23.068 23.083 23.09 23.092 23.073 23.078 23.052 23.033 22.993 23.002 23.007 22.987 22.972 22.955 22.955 22.958 22.935 22.903 22.862 22.837 22.815 22.78 22.728 22.65 22.595 22.693 24.345 23.307 22.61 22.555 22.528 22.585 22.65 22.67 22.743 22.81 22.753 22.733 22.738 22.753 22.802 22.823 22.827 22.785 22.767 22.792 22.798 22.73 22.718 22.685 22.65 22.615 22.602 22.568 22.538 22.517 22.392 22.302 22.267 22.132 22.212 23.108 21.915 21.833 23.21 22.868 22.493 22.372 22.34 22.34 22.31 22.288 22.237 22.188 22.128 22.083 22.05 22.013 21.962 21.93 22.685 22.57 22.597 22.66 22.67 22.657 22.603 22.702 23.173 22.99 22.46 21.71 22.32 22.995 21.583 20.538 21.317 23.06 23.712 24.023 24.325 23.975 22.99 22.368 22.167 22.17 22.18 22.167 22.155 22.13 22.1 22.065 22.04 22.06 22.052 22.06 22.08 22.1 22.09 22.045 22.118 22.19 22.29 22.358 22.978 23.865 22.917 22.685 22.92 23.903 23.892 23.585 23.105 22.712 22.48 22.458 22.59 22.49 22.452 22.35 22.32 22.368 22.365 22.385 22.335 22.26 22.305 22.315 22.318 22.302 22.298 22.325 22.292 22.267 22.23 22.2 22.202 22.237 22.23 22.215 22.138 22.337 22.3 22.275 22.158 20.533 19.038 19.083 19.775 21.73 21.92 21.812 21.89 22.007 22.087 22.1 22.15 22.18 22.153 22.153 22.155 22.153 22.108 22.142 22.177 22.225 22.29 22.312 22.368 22.423 22.487 22.653 22.587 22.632 22.673 22.717 22.745 22.802 22.908 23.03 23.105 23.142 23.185 23.257 23.315 23.368 23.413 23.433 23.507 23.603 23.695 23.753 23.8 23.833 23.897 23.96 24.038 24.097 24.17 24.253 24.345 24.405 24.407 24.41 24.455 24.542 24.635 24.69 24.745 24.8 24.855 24.89 24.91 24.915 24.955 24.985 25.065 25.195 25.573 25.647 25.042 25.18 25.253 25.337 25.435 25.51 25.575 25.608 26.255 26.403 25.858 25.85 25.935 26.05 26.097 26.14 26.21 26.263 26.283 26.3 26.32 26.353 26.392 26.427 26.46 26.485 26.525 26.565 26.603 26.63 26.655 26.69 26.745 26.795 26.843 26.892 26.952 26.997 27.05 27.115 27.182 27.237 27.278 27.298 27.325 27.33 27.48 28.353 28.542 28.513 27.97 27.993 28.07 28.14 28.22 28.298 28.375 28.44 28.507 28.577 28.645 28.708 28.775 28.833 28.925 28.997 29.083 29.15 29.225 29.285 29.345 29.423 29.475 29.555 29.628 29.71 29.77 29.85 29.91 29.978 30.02 30.09 30.135 30.193 30.263 30.327 30.403 30.478 30.552 30.615 30.698 30.77 30.84 30.913 30.987 31.062 31.138 31.222 31.312 31.39 31.478 31.557 31.657 31.722 31.815 31.91 31.993 32.068
26.472 26.455 26.435 26.398 26.37 26.333 26.292 26.237 26.19 26.142 26.125 26.09 26.052 26.022 25.995 25.955 25.917 25.872 25.82 25.767 25.728 25.7 25.673 25.625 25.568 25.517 25.47 25.79 26.235 26.335 26.175 25.245 25.12 25.013 25.015 25.025 25.01 24.975 24.94 24.915 24.878 24.833 24.79 24.755 24.702 24.628 24.585 24.552 24.503 24.46 24.395 24.333 24.275 24.205 24.103 24.005 23.962 23.935 23.913 23.875 23.847 23.82 23.8 23.8 23.772 23.785 23.79 23.763 23.743 23.728 23.675 23.638 23.608 23.578 23.552 23.522 23.495 23.49 23.49 23.45 23.41 23.39 23.365 23.327 23.285 23.267 23.247 23.22 23.192 23.188 23.17 23.135 23.11 23.085 23.062 23.035 23.015 23.013 23 22.987 22.955 22.938 22.958 22.97 22.97 22.97 22.987 22.985 22.975 22.945 22.938 22.925 22.897 22.878 22.875 22.858 22.858 22.858 22.833 22.815 22.805 22.792 22.75 22.708 22.677 22.645 22.62 22.548 22.49 22.46 23.395 23.53 22.515 22.458 22.368 22.42 22.45 22.522 22.608 22.647 22.625 22.595 22.618 22.615 22.67 22.66 22.68 22.725 22.7 22.72 22.665 22.645 22.593 22.575 22.542 22.503 22.5 22.458 22.425 22.38 22.295 22.22 22.12 22.058 21.913 22.78 22.205 21.705 21.985 23.058 22.445 22.257 22.21 22.21 22.2 22.165 22.115 22.062 22.035 21.995 21.958 21.93 21.88 21.875 21.983 22.615 22.285 22.485 22.485 22.37 23.147 23.538 23.625 21.655 21.115 20.972 22.142 24.673 23.812 23.365 22.983 22.302 22.355 22.333 22.8 22.192 22.147 22.05 22.038 22.062 22.108 22.08 22.068 22.07 21.997 21.915 21.872 21.88 21.913 21.935 21.94 21.955 21.97 21.96 22.01 22.052 22.17 22.28 22.368 23.16 23.15 22.632 23.035 23.577 22.81 22.525 22.407 22.378 22.468 22.4 22.34 22.308 22.27 22.29 22.312 22.263 22.283 22.253 22.217 22.208 22.198 22.18 22.17 22.198 22.182 22.208 22.188 22.167 22.138 22.12 22.11 22.138 22.138 22.115 22.065 22.185 22.185 22.202 22.435 21.007 19.005 19.065 19.267 21.542 21.765 21.632 21.712 21.85 21.96 22 22.032 22.073 22.097 22.085 22.083 22.08 22.08 22.113 22.108 22.145 22.2 22.22 22.298 22.36 22.417 22.458 22.487 22.533 22.612 22.667 22.7 22.782 22.913 23.013 23.085 23.15 23.208 23.265 23.32 23.365 23.397 23.423 23.493 23.595 23.67 23.717 23.76 23.78 23.83 23.913 23.997 24.07 24.135 24.212 24.318 24.362 24.362 24.378 24.427 24.505 24.573 24.627 24.69 24.753 24.81 24.835 24.835 24.85 24.875 24.952 25.28 25.335 26.045 25.058 25.06 25.15 25.205 25.278 25.375 25.445 25.5 25.568 25.932 26.375 25.885 25.78 25.872 25.98 26.038 26.09 26.14 26.198 26.235 26.24 26.26 26.292 26.337 26.368 26.392 26.438 26.465 26.49 26.53 26.545 26.575 26.628 26.685 26.73 26.778 26.825 26.87 26.925 27.005 27.065 27.105 27.155 27.173 27.192 27.21 27.495 28.263 28.513 27.945 27.805 27.865 27.932 27.997 28.085 28.175 28.245 28.32 28.37 28.443 28.517 28.583 28.647 28.715 28.807 28.888 28.95 29.025 29.097 29.17 29.222 29.29 29.378 29.443 29.507 29.585 29.647 29.725 29.778 29.845 29.89 29.948 30.005 30.068 30.135 30.195 30.278 30.35 30.41 30.478 30.55 30.62 30.69 30.765 30.83 30.908 30.99 31.065 31.138 31.222 31.312 31.397 31.48 31.573 31.655 31.743 31.835 31.92 31.993
26.308 26.285 26.267 26.23 26.205 26.17 26.13 26.09 26.038 25.987 25.965 25.935 25.9 25.865 25.837 25.808 25.77 25.72 25.675 25.63 25.595 25.56 25.51 25.455 25.417 25.597 25.945 26.272 25.83 25.485 24.995 24.952 24.938 24.945 24.938 24.905 24.858 24.812 24.778 24.755 24.74 24.702 24.66 24.605 24.573 24.495 24.458 24.398 24.355 24.302 24.25 24.165 24.105 24.05 23.943 23.843 23.782 23.75 23.733 23.708 23.68 23.665 23.653 23.642 23.628 23.618 23.587 23.575 23.558 23.53 23.5 23.47 23.438 23.4 23.372 23.33 23.31 23.3 23.292 23.28 23.24 23.225 23.202 23.19 23.15 23.115 23.093 23.075 23.068 23.035 23.03 23.015 22.978 22.97 22.945 22.93 22.923 22.913 22.897 22.903 22.868 22.843 22.845 22.855 22.862 22.88 22.86 22.855 22.855 22.86 22.837 22.805 22.767 22.762 22.767 22.747 22.728 22.72 22.705 22.69 22.667 22.64 22.622 22.597 22.558 22.515 22.497 22.46 22.375 22.327 22.827 23.397 22.498 22.292 22.257 22.253 22.305 22.358 22.4 22.5 22.507 22.465 22.472 22.48 22.542 22.515 22.542 22.532 22.56 22.555 22.542 22.51 22.51 22.475 22.455 22.417 22.36 22.362 22.285 22.267 22.205 22.12 22.02 21.978 21.825 22.468 22.642 21.618 21.587 22.952 22.7 22.217 22.085 22.07 22.055 22.05 21.983 21.972 21.915 21.89 21.88 21.84 21.815 21.805 21.75 21.962 22.132 22.19 22.25 22.275 23.32 22.167 21.913 21.298 21.565 21.37 22.14 22.595 22.188 22.407 22.05 22.065 22.5 21.985 21.935 21.9 21.965 22.017 22.013 22.03 22.01 21.987 21.997 21.965 21.875 21.82 21.778 21.785 21.827 21.882 21.81 21.805 21.835 21.823 21.885 21.93 22.033 22.13 22.21 22.79 23.415 22.57 22.575 23.388 22.368 22.282 22.272 22.272 22.267 22.243 22.198 22.202 22.215 22.195 22.19 22.202 22.19 22.158 22.163 22.142 22.105 22.103 22.07 22.07 22.09 22.07 22.075 22.058 22.048 22.015 22.02 22.02 22.03 22.025 21.985 22.015 22.167 22.068 22.083 21.81 19.062 18.985 19.045 21.112 21.475 21.495 21.562 21.68 21.8 21.868 21.892 21.962 22.01 22.022 22 22.015 22.038 22.048 22.065 22.077 22.075 22.132 22.235 22.282 22.34 22.37 22.417 22.47 22.535 22.612 22.683 22.785 22.905 23.028 23.065 23.167 23.22 23.275 23.305 23.333 23.353 23.403 23.5 23.6 23.65 23.693 23.727 23.73 23.79 23.872 23.962 24.028 24.075 24.17 24.257 24.295 24.317 24.372 24.413 24.46 24.515 24.557 24.622 24.69 24.728 24.745 24.75 24.778 24.812 24.925 25.36 25.853 25.485 24.913 25.035 25.115 25.153 25.235 25.31 25.38 25.425 25.485 25.555 26.255 25.915 25.728 25.802 25.917 25.98 26.038 26.083 26.125 26.177 26.183 26.19 26.24 26.278 26.31 26.34 26.355 26.392 26.41 26.433 26.472 26.53 26.59 26.63 26.667 26.712 26.743 26.81 26.882 26.945 26.997 27.022 27.04 27.038 27.077 27.763 28.263 28.29 27.688 27.675 27.74 27.815 27.882 27.955 28.038 28.108 28.177 28.245 28.307 28.385 28.452 28.513 28.587 28.67 28.76 28.837 28.903 28.972 29.03 29.09 29.188 29.247 29.323 29.392 29.448 29.52 29.59 29.65 29.705 29.75 29.802 29.862 29.93 30.003 30.073 30.15 30.217 30.283 30.337 30.413 30.487 30.552 30.608 30.68 30.757 30.837 30.915 30.995 31.083 31.163 31.255 31.323 31.413 31.493 31.583 31.667 31.755 31.837 31.897
26.132 26.115 26.095 26.065 26.042 26.02 25.978 25.942 25.895 25.845 25.798 25.778 25.745 25.71 25.695 25.655 25.62 25.58 25.535 25.483 25.44 25.39 25.365 25.562 26.015 26.265 25.788 25.125 24.875 24.865 24.868 24.88 24.862 24.833 24.788 24.745 24.705 24.665 24.628 24.608 24.597 24.583 24.53 24.472 24.438 24.382 24.305 24.275 24.208 24.153 24.092 24 23.935 23.89 23.795 23.68 23.61 23.577 23.54 23.51 23.488 23.472 23.46 23.448 23.442 23.435 23.423 23.405 23.392 23.368 23.345 23.327 23.298 23.255 23.23 23.195 23.173 23.16 23.155 23.15 23.125 23.105 23.09 23.058 23.03 23.017 22.985 22.97 22.96 22.955 22.915 22.898 22.897 22.885 22.865 22.84 22.823 22.798 22.795 22.788 22.767 22.735 22.738 22.725 22.722 22.735 22.735 22.745 22.718 22.71 22.708 22.7 22.67 22.63 22.618 22.622 22.602 22.58 22.56 22.538 22.535 22.517 22.483 22.462 22.44 22.403 22.365 22.342 22.288 22.228 22.16 22.753 22.728 22.183 22.158 22.097 22.12 22.19 22.26 22.308 22.34 22.338 22.318 22.36 22.378 22.392 22.4 22.433 22.425 22.42 22.478 22.423 22.37 22.368 22.333 22.292 22.253 22.218 22.182 22.153 22.095 22.013 21.938 21.875 21.792 21.743 22.87 21.715 21.438 21.892 22.9 22.173 22.005 21.958 21.938 21.905 21.862 21.847 21.827 21.81 21.792 21.747 21.77 21.795 21.692 21.433 21.558 21.942 22.235 22.255 21.955 21.485 21.877 23.312 21.948 22 22.17 22.177 22.353 22.325 22.095 21.833 21.795 21.72 21.737 21.798 21.935 21.997 21.983 21.965 21.903 21.892 21.88 21.86 21.795 21.735 21.698 21.705 21.72 21.735 21.733 21.715 21.73 21.718 21.755 21.837 21.96 22.013 22.087 22.382 23.12 22.632 22.345 22.45 22.368 22.222 22.15 22.167 22.205 22.19 22.122 22.135 22.12 22.112 22.122 22.095 22.08 22.052 22.06 22.05 22.05 22.03 22 22.183 21.952 21.965 21.972 21.945 21.943 21.948 21.92 21.938 21.942 21.932 21.925 21.847 22.042 21.95 21.99 21.97 19.205 18.895 18.968 20.142 21.625 21.468 21.452 21.545 21.618 21.705 21.788 21.85 21.94 21.888 21.923 21.968 21.98 21.987 22.005 22.013 22.038 22.085 22.132 22.182 22.222 22.278 22.353 22.405 22.462 22.555 22.663 22.785 22.89 22.952 23.03 23.158 23.228 23.263 23.28 23.32 23.362 23.415 23.5 23.587 23.638 23.66 23.673 23.677 23.748 23.827 23.91 23.955 24.015 24.115 24.175 24.217 24.28 24.358 24.395 24.423 24.45 24.49 24.562 24.625 24.655 24.673 24.705 24.71 24.77 24.772 25.478 25.858 24.93 24.923 24.995 25.055 25.097 25.177 25.243 25.325 25.36 25.4 25.397 26.04 26.033 25.705 25.737 25.845 25.915 25.967 26 26.042 26.115 26.125 26.12 26.177 26.208 26.235 26.26 26.278 26.3 26.323 26.368 26.43 26.47 26.52 26.55 26.595 26.638 26.7 26.76 26.812 26.868 26.897 26.915 26.91 27.022 27.503 28.208 27.92 27.523 27.535 27.622 27.685 27.745 27.84 27.907 27.975 28.052 28.11 28.185 28.247 28.307 28.38 28.452 28.533 28.622 28.7 28.767 28.85 28.905 28.965 29.042 29.128 29.195 29.267 29.335 29.392 29.458 29.528 29.587 29.625 29.67 29.743 29.81 29.882 29.95 30.01 30.077 30.142 30.212 30.29 30.34 30.425 30.483 30.545 30.615 30.695 30.77 30.858 30.93 31.013 31.105 31.18 31.255 31.34 31.423 31.505 31.595 31.66 31.728 31.807
25.965 25.948 25.932 25.91 25.89 25.86 25.825 25.795 25.747 25.7 25.65 25.62 25.59 25.562 25.532 25.515 25.48 25.435 25.385 25.327 25.32 25.69 26.41 26.362 26.087 25.233 24.858 24.825 24.81 24.82 24.8 24.767 24.712 24.677 24.635 24.6 24.555 24.53 24.49 24.472 24.452 24.442 24.398 24.335 24.29 24.263 24.17 24.128 24.06 24.005 23.94 23.855 23.778 23.708 23.642 23.528 23.452 23.43 23.4 23.365 23.335 23.312 23.3 23.3 23.292 23.28 23.267 23.27 23.255 23.24 23.225 23.208 23.177 23.142 23.095 23.075 23.042 23.03 23.028 23.04 23.007 22.978 22.972 22.965 22.942 22.915 22.89 22.868 22.862 22.85 22.84 22.837 22.82 22.792 22.767 22.745 22.72 22.7 22.695 22.685 22.675 22.638 22.61 22.615 22.62 22.61 22.595 22.587 22.597 22.583 22.562 22.552 22.53 22.502 22.475 22.465 22.455 22.448 22.423 22.41 22.388 22.375 22.358 22.337 22.305 22.275 22.263 22.225 22.17 22.112 22.065 22.897 23.04 22.315 22.015 21.98 21.955 22.007 22.085 22.14 22.2 22.222 22.188 22.215 22.212 22.255 22.257 22.275 22.298 22.32 22.295 22.275 22.292 22.312 22.25 22.19 22.128 22.103 22.077 22.022 21.972 21.93 21.878 21.785 21.728 21.57 22.308 22.193 21.292 21.333 22.83 22.37 21.978 21.84 21.815 21.808 21.77 21.75 21.722 21.708 21.705 21.708 21.737 21.715 21.58 21.3 21.792 22.003 20.103 21.097 21.085 21.99 22.11 21.882 21.667 22.605 21.842 22.24 22.443 22.522 21.915 21.645 21.61 21.65 21.66 21.717 21.827 21.892 21.89 21.868 21.833 21.805 21.78 21.767 21.71 21.657 21.642 21.622 21.595 21.608 21.64 21.605 21.618 21.625 21.663 21.752 21.84 21.892 21.983 22.042 22.79 23.045 22.218 22.265 22.397 22.327 22.153 22.118 22.08 22.052 22.015 22.025 22.013 22.013 21.995 22 21.997 22.005 21.998 21.962 21.943 21.93 22.32 22.85 21.835 21.855 21.858 21.84 21.83 21.845 21.835 21.84 21.825 21.83 21.818 21.745 21.927 21.853 21.83 22.128 19.708 18.84 18.95 20.358 21.698 21.358 21.365 21.45 21.487 21.585 21.69 21.865 21.778 21.798 21.853 21.89 21.892 21.927 21.945 21.97 22.005 22.085 22.118 22.112 22.118 22.175 22.267 22.325 22.405 22.51 22.622 22.753 22.862 22.915 23.022 23.118 23.173 23.215 23.257 23.315 23.39 23.425 23.487 23.542 23.57 23.6 23.608 23.622 23.7 23.767 23.84 23.885 23.943 24.02 24.095 24.167 24.248 24.302 24.345 24.368 24.392 24.445 24.503 24.542 24.587 24.615 24.63 24.653 24.91 25.337 25.638 25.077 24.782 24.892 24.945 24.987 25.045 25.118 25.198 25.255 25.302 25.343 25.24 25.785 26.025 25.698 25.69 25.767 25.862 25.885 25.935 25.99 26.028 26.048 26.067 26.103 26.145 26.15 26.185 26.208 26.225 26.26 26.32 26.362 26.403 26.442 26.49 26.535 26.587 26.635 26.692 26.737 26.763 26.782 26.785 26.905 27.677 28.167 27.708 27.388 27.427 27.51 27.56 27.632 27.708 27.772 27.847 27.913 27.98 28.05 28.108 28.177 28.245 28.325 28.405 28.487 28.565 28.64 28.702 28.775 28.853 28.907 28.983 29.05 29.135 29.21 29.282 29.33 29.39 29.448 29.5 29.55 29.61 29.685 29.755 29.83 29.882 29.95 30.022 30.08 30.138 30.217 30.28 30.34 30.408 30.483 30.552 30.635 30.717 30.792 30.878 30.965 31.032 31.103 31.182 31.27 31.353 31.425 31.513 31.575 31.645 31.73
25.792 25.785 25.772 25.748 25.725 25.698 25.663 25.63 25.597 25.555 25.505 25.46 25.425 25.403 25.375 25.355 25.308 25.257 25.28 25.493 26.362 26.64 25.745 24.99 24.778 24.747 24.753 24.77 24.763 24.73 24.67 24.61 24.56 24.532 24.495 24.46 24.423 24.398 24.355 24.333 24.31 24.292 24.247 24.19 24.138 24.118 24.03 23.962 23.915 23.85 23.795 23.725 23.635 23.557 23.503 23.405 23.307 23.262 23.253 23.233 23.192 23.18 23.158 23.16 23.155 23.14 23.132 23.135 23.125 23.115 23.102 23.085 23.058 23.028 22.993 22.965 22.942 22.917 22.9 22.905 22.913 22.885 22.858 22.852 22.86 22.835 22.795 22.778 22.757 22.743 22.73 22.72 22.705 22.688 22.673 22.635 22.622 22.608 22.59 22.565 22.55 22.525 22.495 22.468 22.458 22.462 22.46 22.458 22.442 22.445 22.445 22.427 22.395 22.37 22.345 22.335 22.327 22.305 22.295 22.292 22.267 22.247 22.24 22.225 22.2 22.173 22.132 22.108 22.077 22.017 21.952 22.127 23.48 22.767 21.85 21.84 21.805 21.84 21.93 21.99 22.04 22.083 22.068 22.077 22.09 22.095 22.132 22.14 22.17 22.155 22.153 22.15 22.14 22.18 22.142 22.108 22.073 22.01 21.993 22 21.897 21.855 21.798 21.708 21.642 21.517 21.835 22.538 21.343 21.115 21.79 22.443 21.923 21.775 21.725 21.685 21.67 21.648 21.64 21.623 21.64 21.665 21.688 21.632 21.478 21.498 21.212 20.08 20.755 21.855 21.965 22.385 21.903 21.675 21.612 22.577 21.91 22.198 22.323 22.103 21.865 21.56 21.58 21.575 21.58 21.628 21.695 21.772 21.8 21.735 21.72 21.702 21.658 21.642 21.63 21.597 21.583 21.56 21.517 21.51 21.515 21.515 21.52 21.532 21.58 21.655 21.735 21.753 21.827 21.872 22.353 23.495 22.603 22.135 22.237 22.23 22.142 22.05 22.015 21.962 21.958 21.92 21.952 21.932 21.907 21.915 21.913 21.895 21.862 21.83 21.85 21.833 21.858 22.85 21.958 21.74 21.752 21.755 21.71 21.722 21.722 21.73 21.722 21.725 21.72 21.692 21.753 21.743 21.733 21.96 20.772 18.812 18.872 18.89 21.32 21.22 21.285 21.34 21.392 21.483 21.57 21.61 21.647 21.715 21.763 21.788 21.837 21.87 21.892 21.913 21.978 22.052 22.095 22.057 22.052 22.122 22.212 22.307 22.378 22.458 22.57 22.685 22.802 22.898 22.983 23.038 23.092 23.155 23.228 23.323 23.36 23.407 23.45 23.485 23.487 23.513 23.55 23.6 23.655 23.71 23.77 23.818 23.882 23.958 24.017 24.103 24.19 24.24 24.27 24.29 24.32 24.375 24.415 24.465 24.507 24.545 24.565 24.615 25.103 25.44 25.46 24.632 24.788 24.858 24.907 24.927 24.975 25.038 25.128 25.19 25.227 25.263 25.205 25.663 25.99 25.68 25.642 25.715 25.778 25.817 25.858 25.91 25.97 25.995 26 26.013 26.038 26.077 26.102 26.122 26.17 26.21 26.243 26.3 26.335 26.378 26.43 26.483 26.515 26.565 26.6 26.628 26.645 26.665 26.798 27.423 27.948 27.487 27.237 27.307 27.375 27.448 27.52 27.595 27.655 27.712 27.778 27.845 27.915 27.98 28.038 28.11 28.177 28.27 28.355 28.43 28.515 28.577 28.635 28.725 28.795 28.86 28.93 29.015 29.09 29.155 29.215 29.263 29.323 29.37 29.415 29.485 29.565 29.628 29.693 29.757 29.82 29.88 29.94 29.995 30.065 30.135 30.208 30.275 30.337 30.41 30.493 30.568 30.658 30.737 30.81 30.88 30.96 31.03 31.118 31.198 31.272 31.335 31.41 31.483 31.562 31.642
25.642 25.632 25.61 25.59 25.562 25.545 25.512 25.48 25.448 25.41 25.368 25.323 25.278 25.238 25.198 25.165 25.212 25.365 25.747 26.103 25.74 25.013 24.72 24.68 24.685 24.702 24.698 24.667 24.625 24.587 24.53 24.485 24.423 24.39 24.358 24.318 24.292 24.255 24.218 24.18 24.148 24.13 24.112 24.045 23.978 23.94 23.89 23.805 23.767 23.71 23.64 23.58 23.505 23.438 23.38 23.305 23.202 23.128 23.105 23.07 23.052 23.042 23.017 23.02 23.017 23.005 23.005 23.007 23.003 22.987 22.987 22.968 22.942 22.913 22.885 22.852 22.825 22.805 22.808 22.785 22.792 22.778 22.763 22.747 22.743 22.718 22.698 22.675 22.66 22.642 22.625 22.622 22.597 22.58 22.558 22.54 22.507 22.487 22.472 22.452 22.438 22.41 22.368 22.347 22.33 22.31 22.308 22.302 22.302 22.305 22.295 22.28 22.265 22.255 22.22 22.195 22.188 22.167 22.167 22.138 22.13 22.125 22.105 22.093 22.075 22.058 22.035 21.993 21.952 21.92 21.847 21.788 22.575 23.065 21.923 21.728 21.67 21.667 21.75 21.83 21.895 21.945 21.95 21.942 21.968 21.962 21.995 21.995 22.012 22.02 22.02 22.022 22.013 22.003 22.033 21.985 21.993 21.97 21.885 21.88 21.845 21.823 21.712 21.622 21.545 21.46 21.368 22.36 21.665 20.987 21.038 22.38 22.04 21.705 21.632 21.59 21.587 21.548 21.538 21.56 21.6 21.638 21.615 21.5 21.693 22.48 20.77 19.87 21.14 21.882 21.74 21.653 21.583 21.56 21.577 21.995 23.265 22.603 21.943 22.07 21.978 21.493 21.497 21.493 21.52 21.557 21.62 21.682 21.728 21.655 21.612 21.59 21.555 21.54 21.533 21.528 21.513 21.478 21.435 21.423 21.423 21.423 21.432 21.478 21.52 21.555 21.605 21.657 21.688 21.735 21.88 22.408 23.142 22.122 22.062 22.215 22.15 22.06 21.993 21.895 21.89 21.885 21.872 21.855 21.81 21.788 21.767 21.802 21.775 21.757 21.74 21.993 21.81 21.695 21.655 21.63 21.63 21.625 21.605 21.6 21.587 21.58 21.585 21.597 21.635 21.618 21.593 21.705 21.638 21.667 21.335 18.875 18.74 18.77 20.573 20.923 21.235 21.24 21.302 21.405 21.478 21.505 21.54 21.612 21.685 21.733 21.79 21.825 21.835 21.885 21.943 21.983 22.017 21.99 22.02 22.09 22.182 22.29 22.337 22.395 22.513 22.625 22.753 22.872 22.923 22.95 23.022 23.1 23.175 23.275 23.347 23.368 23.4 23.41 23.413 23.448 23.51 23.567 23.625 23.655 23.693 23.757 23.805 23.885 23.97 24.058 24.12 24.165 24.182 24.217 24.265 24.308 24.347 24.392 24.448 24.472 24.52 24.642 25.188 25.6 24.833 24.65 24.783 24.82 24.853 24.878 24.908 24.993 25.052 25.12 25.173 25.2 25.212 25.528 25.943 25.657 25.58 25.647 25.715 25.755 25.795 25.843 25.92 25.948 25.93 25.948 25.97 25.983 26.015 26.065 26.115 26.15 26.19 26.228 26.275 26.323 26.377 26.425 26.452 26.478 26.497 26.528 26.535 26.983 27.628 27.655 27.173 27.163 27.195 27.255 27.323 27.4 27.483 27.535 27.595 27.663 27.72 27.778 27.845 27.908 27.987 28.05 28.132 28.208 28.302 28.373 28.455 28.505 28.585 28.66 28.737 28.805 28.89 28.965 29.04 29.087 29.15 29.195 29.245 29.302 29.372 29.432 29.505 29.56 29.62 29.682 29.74 29.792 29.865 29.92 29.985 30.048 30.125 30.2 30.28 30.355 30.43 30.517 30.593 30.663 30.74 30.815 30.882 30.958 31.038 31.112 31.175 31.243 31.315 31.397 31.485 31.565
25.488 25.462 25.45 25.435 25.41 25.385 25.365 25.335 25.292 25.257 25.218 25.175 25.112 25.083 25.243 25.71 25.878 25.913 25.378 24.852 24.663 24.63 24.61 24.625 24.638 24.612 24.555 24.515 24.465 24.432 24.382 24.352 24.318 24.267 24.228 24.188 24.153 24.112 24.073 24.042 24.007 23.978 23.948 23.897 23.827 23.772 23.74 23.653 23.618 23.552 23.483 23.423 23.36 23.298 23.235 23.185 23.103 23.022 22.995 22.952 22.922 22.903 22.878 22.88 22.872 22.872 22.878 22.882 22.88 22.862 22.858 22.84 22.83 22.795 22.767 22.73 22.705 22.688 22.667 22.665 22.688 22.66 22.632 22.628 22.628 22.618 22.583 22.57 22.555 22.53 22.517 22.495 22.49 22.49 22.45 22.427 22.405 22.385 22.342 22.318 22.302 22.298 22.25 22.2 22.165 22.167 22.167 22.16 22.147 22.15 22.158 22.165 22.142 22.12 22.092 22.075 22.055 22.05 22.04 22.025 22.013 21.995 21.993 21.965 21.95 21.923 21.913 21.875 21.86 21.818 21.73 21.67 22.26 23.24 22.372 21.57 21.548 21.51 21.593 21.675 21.725 21.8 21.853 21.818 21.827 21.837 21.875 21.917 21.952 21.925 21.913 21.895 21.895 21.882 21.892 21.898 21.87 21.83 21.808 21.815 21.728 21.75 21.608 21.545 21.475 21.4 21.272 21.798 22.057 20.925 20.82 21.21 21.753 21.64 21.552 21.483 21.483 21.493 21.513 21.523 21.548 21.54 21.465 21.385 21.132 22.905 20.397 20.31 21.272 21.67 21.502 21.513 21.5 21.538 21.55 21.55 23.592 22.195 22.45 21.737 22.54 21.5 21.432 21.427 21.465 21.533 21.573 21.587 21.603 21.597 21.5 21.493 21.497 21.47 21.445 21.432 21.38 21.337 21.343 21.35 21.347 21.342 21.35 21.403 21.425 21.43 21.47 21.532 21.545 21.645 22.048 21.85 23.438 22.462 21.985 22.032 22 22.057 21.847 21.868 21.825 21.785 21.753 21.792 21.695 21.69 21.68 21.658 21.657 21.682 21.682 22.103 21.647 21.595 21.55 21.522 21.513 21.522 21.493 21.49 21.498 21.462 21.48 21.478 21.528 21.513 21.425 21.658 21.52 21.485 22.15 19.013 18.675 18.817 19.245 21.955 21.125 21.145 21.167 21.27 21.368 21.432 21.448 21.51 21.592 21.675 21.725 21.757 21.773 21.81 21.837 21.897 21.948 21.95 21.997 22.065 22.16 22.25 22.307 22.358 22.468 22.575 22.695 22.802 22.853 22.892 22.967 23.025 23.108 23.21 23.29 23.315 23.327 23.36 23.375 23.42 23.485 23.542 23.587 23.595 23.653 23.71 23.773 23.845 23.938 24.017 24.073 24.097 24.108 24.155 24.19 24.228 24.28 24.34 24.375 24.407 24.522 25.445 25.55 25.205 24.483 24.632 24.712 24.77 24.79 24.823 24.865 24.935 24.993 25.07 25.103 25.14 25.165 25.387 26.057 25.635 25.56 25.59 25.647 25.69 25.728 25.778 25.853 25.88 25.865 25.892 25.892 25.927 25.967 26.013 26.04 26.077 26.125 26.177 26.22 26.275 26.312 26.345 26.362 26.368 26.4 26.435 26.853 27.685 27.743 27.193 26.993 27.065 27.125 27.2 27.265 27.35 27.415 27.465 27.528 27.595 27.66 27.717 27.783 27.87 27.92 27.993 28.083 28.173 28.248 28.307 28.388 28.448 28.53 28.605 28.685 28.75 28.825 28.897 28.958 29.015 29.057 29.11 29.175 29.24 29.307 29.378 29.43 29.495 29.54 29.605 29.645 29.717 29.78 29.847 29.923 29.98 30.062 30.138 30.21 30.29 30.362 30.445 30.517 30.593 30.67 30.743 30.818 30.892 30.958 31.013 31.105 31.173 31.25 31.333 31.41 31.485
25.342 25.318 25.295 25.278 25.26 25.245 25.225 25.188 25.135 25.085 25.045 24.993 25.06 25.823 26.442 26.188 25.195 24.965 24.575 24.555 24.56 24.567 24.565 24.535 24.495 24.46 24.403 24.355 24.312 24.282 24.245 24.228 24.208 24.142 24.097 24.062 24.028 23.987 23.938 23.897 23.85 23.818 23.788 23.747 23.677 23.61 23.578 23.525 23.45 23.405 23.34 23.275 23.233 23.163 23.102 23.062 22.997 22.913 22.855 22.827 22.798 22.772 22.755 22.73 22.73 22.743 22.745 22.748 22.753 22.745 22.74 22.725 22.71 22.677 22.66 22.63 22.592 22.565 22.552 22.528 22.528 22.542 22.515 22.495 22.495 22.507 22.487 22.455 22.442 22.423 22.417 22.398 22.375 22.362 22.342 22.318 22.283 22.252 22.23 22.205 22.167 22.15 22.103 22.062 22.032 22.005 22.005 22.002 22.007 22.005 22.01 22.022 22.01 21.998 21.972 21.952 21.932 21.927 21.91 21.898 21.898 21.888 21.847 21.83 21.837 21.81 21.805 21.772 21.733 21.7 21.65 21.562 21.513 22.165 21.752 21.47 21.44 21.378 21.413 21.517 21.57 21.64 21.712 21.715 21.692 21.715 21.725 21.855 21.858 21.765 21.778 21.765 21.782 21.74 21.788 21.785 21.705 21.695 21.715 21.632 21.655 21.608 21.555 21.417 21.362 21.298 21.195 21.138 22.285 21.167 20.655 20.663 21.635 21.96 21.493 21.423 21.39 21.415 21.455 21.47 21.455 21.378 21.265 21.257 20.283 20.138 20.108 21.115 21.468 21.443 21.445 21.427 21.458 21.52 21.528 21.475 23.515 22.662 21.76 22.14 22.35 21.895 21.365 21.392 21.43 21.448 21.483 21.493 21.478 21.465 21.43 21.405 21.397 21.37 21.355 21.35 21.305 21.228 21.21 21.233 21.265 21.25 21.283 21.295 21.305 21.327 21.337 21.403 21.45 21.455 21.515 21.61 22.2 22.757 21.92 21.858 22.02 22.005 21.798 21.77 21.737 21.682 21.68 21.665 21.618 21.562 21.583 21.575 21.56 21.56 21.577 21.542 21.498 21.495 21.472 21.435 21.405 21.382 21.395 21.43 21.39 21.365 21.38 21.392 21.407 21.355 21.265 21.507 21.407 21.32 22.007 19.29 18.645 18.735 19.51 20.927 20.975 20.983 21.04 21.15 21.267 21.365 21.425 21.487 21.545 21.585 21.63 21.658 21.68 21.7 21.71 21.823 21.885 21.933 21.972 22.05 22.112 22.208 22.285 22.353 22.448 22.538 22.635 22.71 22.775 22.83 22.903 22.993 23.06 23.15 23.208 23.237 23.28 23.323 23.347 23.407 23.47 23.528 23.53 23.57 23.645 23.7 23.757 23.82 23.913 23.975 24.015 24.025 24.052 24.085 24.11 24.16 24.22 24.267 24.298 24.34 24.337 25.275 25.225 24.44 24.503 24.603 24.66 24.698 24.737 24.783 24.825 24.885 24.943 25 25.035 25.075 25.115 25.333 25.967 25.588 25.565 25.528 25.575 25.635 25.66 25.713 25.765 25.81 25.8 25.795 25.84 25.878 25.932 25.948 25.99 26.04 26.075 26.108 26.153 26.195 26.237 26.247 26.247 26.267 26.298 26.435 27.372 27.862 27.38 26.905 26.952 27.003 27.083 27.163 27.217 27.3 27.358 27.405 27.47 27.525 27.61 27.682 27.755 27.815 27.882 27.962 28.033 28.108 28.193 28.265 28.335 28.403 28.478 28.552 28.622 28.698 28.755 28.823 28.892 28.94 28.987 29.057 29.14 29.205 29.263 29.31 29.372 29.427 29.483 29.528 29.59 29.657 29.715 29.788 29.853 29.92 29.995 30.077 30.147 30.222 30.305 30.388 30.467 30.54 30.608 30.69 30.753 30.812 30.878 30.938 31.028 31.103 31.18 31.25 31.327 31.405
25.18 25.177 25.16 25.153 25.118 25.105 25.062 25.005 24.943 24.928 25.038 25.445 25.653 26.272 25.625 24.57 24.485 24.483 24.48 24.49 24.487 24.45 24.415 24.372 24.337 24.3 24.25 24.212 24.175 24.153 24.125 24.105 24.075 24.03 23.97 23.938 23.888 23.843 23.79 23.743 23.688 23.648 23.612 23.597 23.538 23.465 23.42 23.385 23.288 23.247 23.19 23.13 23.083 23.04 22.983 22.945 22.89 22.788 22.718 22.702 22.667 22.65 22.65 22.638 22.615 22.615 22.618 22.62 22.615 22.618 22.622 22.597 22.595 22.565 22.538 22.52 22.485 22.455 22.435 22.415 22.41 22.427 22.405 22.398 22.375 22.375 22.368 22.34 22.333 22.318 22.29 22.278 22.263 22.24 22.212 22.192 22.16 22.13 22.092 22.062 22.032 22.013 21.972 21.923 21.888 21.868 21.858 21.842 21.855 21.855 21.872 21.88 21.88 21.87 21.862 21.84 21.805 21.815 21.8 21.795 21.767 21.75 21.738 21.733 21.708 21.7 21.675 21.638 21.618 21.58 21.533 21.465 21.405 21.853 22.255 21.517 21.308 21.267 21.24 21.355 21.427 21.485 21.552 21.605 21.565 21.583 21.585 21.632 21.645 21.673 21.66 21.64 21.698 21.665 21.68 21.653 21.647 21.587 21.593 21.538 21.558 21.477 21.407 21.323 21.26 21.193 21.09 20.948 21.325 20.87 20.568 20.435 20.842 22.335 21.525 21.388 21.333 21.362 21.405 21.405 21.295 21.167 21.007 20.448 20.308 20.562 21.11 21.217 21.29 21.375 21.368 21.327 21.36 21.435 21.445 21.397 21.75 21.51 21.68 22.555 22.868 22.302 21.353 21.35 21.37 21.392 21.375 21.32 21.305 21.35 21.368 21.298 21.325 21.307 21.272 21.28 21.24 21.167 21.138 21.15 21.173 21.165 21.165 21.185 21.188 21.218 21.245 21.275 21.315 21.33 21.432 21.505 22.042 23.448 22.248 21.757 21.847 21.837 21.782 21.66 21.695 21.603 21.587 21.562 21.552 21.487 21.465 21.477 21.445 21.455 21.673 21.755 21.47 21.395 21.372 21.34 21.31 21.282 21.285 21.323 21.292 21.28 21.298 21.248 21.215 21.105 21.077 21.452 21.263 21.44 21.908 20.33 18.612 18.538 18.673 19.775 20.72 20.837 20.978 21.09 21.212 21.285 21.353 21.455 21.5 21.497 21.525 21.568 21.605 21.638 21.68 21.775 21.882 21.955 21.972 22.025 22.095 22.185 22.255 22.32 22.397 22.49 22.575 22.628 22.69 22.772 22.85 22.92 22.975 23.07 23.13 23.175 23.235 23.285 23.307 23.36 23.427 23.452 23.483 23.56 23.612 23.667 23.733 23.79 23.87 23.913 23.943 23.962 24 24.013 24.04 24.092 24.167 24.195 24.233 24.465 24.557 25.38 24.667 24.365 24.483 24.555 24.587 24.645 24.673 24.712 24.763 24.82 24.885 24.943 24.98 25.003 25.067 25.097 25.897 25.583 25.505 25.495 25.507 25.592 25.62 25.653 25.698 25.733 25.727 25.73 25.778 25.82 25.85 25.89 25.93 25.972 25.997 26.048 26.085 26.122 26.132 26.128 26.158 26.185 26.56 27.353 27.45 27.235 26.78 26.835 26.885 26.95 27.038 27.11 27.165 27.23 27.302 27.358 27.423 27.47 27.552 27.625 27.693 27.772 27.84 27.913 27.99 28.055 28.142 28.205 28.278 28.358 28.415 28.495 28.562 28.635 28.695 28.76 28.815 28.87 28.94 29.015 29.083 29.142 29.198 29.248 29.302 29.36 29.408 29.467 29.52 29.577 29.64 29.718 29.798 29.862 29.935 30.015 30.087 30.162 30.237 30.325 30.392 30.46 30.54 30.615 30.68 30.74 30.802 30.878 30.958 31.033 31.1 31.188 31.25 31.312
25.045 25.04 25.028 24.995 24.96 24.907 24.855 24.845 24.998 25.315 25.495 25.397 25.09 24.85 24.403 24.375 24.403 24.417 24.413 24.375 24.345 24.305 24.26 24.222 24.185 24.14 24.125 24.087 24.055 24.025 23.993 23.978 23.932 23.91 23.833 23.788 23.75 23.695 23.638 23.577 23.532 23.487 23.46 23.42 23.385 23.32 23.272 23.24 23.165 23.102 23.058 23 22.96 22.93 22.88 22.837 22.792 22.698 22.618 22.573 22.555 22.542 22.525 22.515 22.5 22.495 22.49 22.49 22.495 22.495 22.487 22.465 22.468 22.46 22.438 22.4 22.375 22.342 22.305 22.298 22.282 22.29 22.295 22.263 22.25 22.25 22.245 22.228 22.218 22.202 22.165 22.145 22.132 22.115 22.095 22.06 22.028 22.002 21.98 21.94 21.892 21.858 21.842 21.792 21.752 21.722 21.695 21.702 21.71 21.718 21.733 21.745 21.743 21.753 21.73 21.722 21.692 21.667 21.673 21.66 21.65 21.632 21.618 21.587 21.585 21.585 21.558 21.517 21.49 21.468 21.42 21.37 21.302 21.26 21.94 21.837 21.202 21.173 21.12 21.193 21.27 21.33 21.41 21.487 21.443 21.442 21.455 21.497 21.562 21.515 21.528 21.528 21.577 21.542 21.507 21.545 21.557 21.54 21.448 21.417 21.372 21.377 21.298 21.215 21.138 21.065 20.96 20.845 20.785 20.72 20.542 20.378 20.28 21.243 22 21.368 21.278 21.31 21.292 21.21 21.163 21.075 19.722 19.93 20.548 20.965 21.065 21.005 21.162 21.325 21.288 21.292 21.28 21.31 21.318 21.305 21.347 21.372 21.562 22.243 22.188 21.26 21.558 21.275 21.26 21.19 21.148 21.157 21.182 21.215 21.255 21.23 21.208 21.243 21.182 21.167 21.147 21.12 21.088 21.07 21.097 21.062 21.042 21.068 21.087 21.11 21.14 21.167 21.202 21.253 21.333 21.38 21.532 22.89 22.82 21.71 21.63 21.842 21.712 21.63 21.558 21.517 21.475 21.468 21.44 21.42 21.372 21.392 21.37 21.358 21.715 22.022 21.577 21.29 21.307 21.28 21.243 21.23 21.205 21.23 21.24 21.188 21.15 21.092 20.998 20.86 20.93 20.97 21.31 21.42 21.625 21.318 18.685 18.448 18.718 18.993 20.545 21 21.408 21.077 21.17 21.235 21.285 21.362 21.427 21.435 21.455 21.478 21.5 21.57 21.655 21.725 21.807 21.913 21.948 21.995 22.075 22.153 22.217 22.253 22.337 22.43 22.515 22.552 22.63 22.702 22.79 22.837 22.913 23.007 23.067 23.123 23.195 23.228 23.272 23.33 23.37 23.392 23.458 23.515 23.557 23.618 23.673 23.745 23.82 23.855 23.87 23.917 23.923 23.94 23.99 24.048 24.093 24.12 24.218 24.438 24.583 24.833 24.2 24.353 24.443 24.505 24.535 24.557 24.602 24.667 24.728 24.772 24.825 24.88 24.927 24.945 25.007 25.052 25.757 25.87 25.455 25.462 25.472 25.54 25.573 25.608 25.635 25.655 25.685 25.7 25.72 25.743 25.795 25.84 25.89 25.915 25.935 25.972 26.005 26.02 26.022 26.04 26.062 26.41 27.395 27.237 27.11 26.66 26.715 26.778 26.845 26.913 26.983 27.038 27.11 27.18 27.235 27.3 27.36 27.435 27.522 27.58 27.642 27.72 27.798 27.865 27.93 27.993 28.073 28.147 28.222 28.29 28.362 28.427 28.493 28.562 28.62 28.673 28.747 28.81 28.885 28.96 29.02 29.07 29.125 29.173 29.21 29.283 29.342 29.388 29.423 29.503 29.565 29.647 29.737 29.82 29.878 29.948 30.013 30.108 30.18 30.247 30.32 30.395 30.462 30.538 30.597 30.667 30.725 30.812 30.888 30.98 31.042 31.097 31.175 31.235
24.938 24.903 24.858 24.795 24.76 24.753 25.075 25.555 25.355 25.028 24.64 24.355 24.315 24.315 24.318 24.327 24.33 24.31 24.27 24.233 24.192 24.158 24.11 24.095 24.048 24.017 24.003 23.965 23.93 23.892 23.865 23.825 23.795 23.765 23.695 23.638 23.592 23.542 23.495 23.435 23.38 23.33 23.29 23.26 23.235 23.173 23.12 23.083 23.048 22.958 22.935 22.882 22.855 22.82 22.772 22.712 22.66 22.595 22.513 22.448 22.448 22.42 22.41 22.39 22.38 22.372 22.372 22.36 22.372 22.378 22.375 22.36 22.34 22.335 22.323 22.285 22.253 22.21 22.215 22.185 22.16 22.15 22.175 22.145 22.14 22.125 22.118 22.115 22.08 22.062 22.042 22.02 21.998 21.975 21.952 21.93 21.907 21.862 21.827 21.792 21.767 21.73 21.69 21.66 21.62 21.58 21.562 21.55 21.568 21.592 21.59 21.61 21.615 21.625 21.628 21.595 21.575 21.552 21.558 21.542 21.515 21.503 21.497 21.478 21.465 21.448 21.427 21.413 21.388 21.327 21.312 21.272 21.208 21.135 21.67 22.41 21.245 21.057 21.02 21.028 21.108 21.19 21.24 21.347 21.34 21.335 21.335 21.335 21.37 21.41 21.417 21.405 21.41 21.405 21.423 21.46 21.412 21.39 21.34 21.333 21.292 21.26 21.182 21.13 21.048 20.965 20.868 20.82 20.677 20.878 20.94 20.272 20.13 20.183 22.013 21.522 21.147 21.142 21.125 21.26 21.345 22.26 20.165 22.875 20.862 20.89 20.837 20.923 21.135 21.535 21.27 21.253 21.233 21.208 21.217 21.25 21.318 21.337 21.438 21.99 22.655 21.085 21.558 21.065 20.997 21.028 21.045 21.083 21.07 21.08 21.122 21.155 21.1 21.115 21.103 21.087 21.042 21.035 20.975 20.945 20.987 20.965 20.962 20.96 20.995 21.02 21.073 21.135 21.13 21.16 21.25 21.343 21.385 21.548 23.097 22.095 21.538 21.64 21.673 21.605 21.47 21.432 21.368 21.34 21.345 21.335 21.285 21.288 21.28 21.257 21.373 21.5 21.333 21.235 21.198 21.182 21.192 21.16 21.125 21.153 21.118 21.06 20.983 20.89 20.807 20.872 20.983 20.95 21.46 21.35 21.14 21.01 19.447 18.392 18.562 18.525 19.892 21.733 22.17 21.423 21.507 21.19 21.252 21.335 21.355 21.41 21.455 21.472 21.48 21.507 21.62 21.667 21.718 21.81 21.888 21.962 22.042 22.097 22.138 22.195 22.27 22.37 22.448 22.5 22.59 22.673 22.733 22.788 22.875 22.958 23.022 23.077 23.13 23.193 23.233 23.278 23.312 23.372 23.445 23.48 23.513 23.545 23.615 23.67 23.745 23.782 23.8 23.837 23.858 23.885 23.94 23.987 24.02 24.087 24.16 24.28 25.052 24.19 24.198 24.317 24.405 24.465 24.487 24.517 24.565 24.6 24.658 24.715 24.765 24.835 24.86 24.89 24.945 25.015 25.475 26.167 25.337 25.385 25.435 25.487 25.523 25.555 25.583 25.618 25.657 25.645 25.667 25.69 25.743 25.79 25.82 25.823 25.865 25.89 25.923 25.925 25.92 25.94 26.347 27.138 26.948 26.75 26.552 26.605 26.653 26.72 26.8 26.847 26.917 26.987 27.065 27.12 27.19 27.25 27.327 27.408 27.467 27.528 27.595 27.665 27.725 27.805 27.878 27.955 28.033 28.095 28.177 28.24 28.292 28.36 28.417 28.493 28.56 28.63 28.702 28.767 28.84 28.897 28.942 29.007 29.048 29.095 29.157 29.215 29.263 29.315 29.368 29.44 29.513 29.597 29.67 29.73 29.798 29.87 29.955 30.04 30.108 30.177 30.257 30.323 30.392 30.458 30.517 30.6 30.677 30.745 30.835 30.91 30.965 31.02 31.087 31.16
24.815 24.735 24.693 24.89 25.057 25.34 25.452 24.675 24.375 24.19 24.205 24.21 24.25 24.247 24.235 24.208 24.175 24.132 24.12 24.09 24.058 24.02 23.983 23.942 23.917 23.892 23.872 23.835 23.805 23.757 23.722 23.685 23.655 23.605 23.567 23.49 23.442 23.4 23.33 23.278 23.225 23.167 23.132 23.095 23.078 23.038 22.983 22.932 22.913 22.853 22.81 22.772 22.725 22.677 22.638 22.58 22.525 22.478 22.407 22.342 22.312 22.308 22.278 22.27 22.247 22.24 22.24 22.233 22.247 22.253 22.247 22.235 22.228 22.218 22.212 22.177 22.147 22.108 22.077 22.055 22.03 22.003 22.03 22.032 22.013 21.995 21.983 21.978 21.958 21.935 21.903 21.875 21.858 21.845 21.802 21.782 21.767 21.728 21.69 21.658 21.63 21.59 21.562 21.542 21.488 21.445 21.423 21.415 21.427 21.438 21.448 21.472 21.493 21.485 21.495 21.488 21.472 21.44 21.42 21.423 21.417 21.388 21.37 21.355 21.335 21.335 21.312 21.292 21.26 21.233 21.215 21.173 21.112 21.038 21.028 21.455 21.345 20.955 20.925 20.87 20.923 21.02 21.097 21.163 21.237 21.198 21.21 21.212 21.247 21.275 21.28 21.292 21.292 21.292 21.298 21.265 21.272 21.237 21.235 21.173 21.17 21.14 21.085 21.052 21.26 20.913 20.877 20.795 20.693 21.118 21.653 20.48 19.998 19.925 20.847 21.915 20.983 20.935 20.965 20.88 22.398 21.608 20.317 21.188 20.903 20.782 20.898 20.872 20.888 21.225 21.382 21.177 21.208 21.185 21.157 21.185 21.185 21.245 21.193 21.325 21.737 23.76 21.94 21.253 20.897 20.96 20.975 20.972 20.962 20.948 20.99 21.035 21.003 21 21.038 21.022 20.938 20.885 20.872 20.872 20.892 20.86 20.86 20.875 20.91 20.95 20.995 21.03 21.05 21.083 21.18 21.218 21.288 21.327 22.533 22.485 21.46 21.435 21.608 21.562 21.423 21.347 21.3 21.265 21.25 21.24 21.215 21.17 21.177 21.185 21.17 21.432 21.635 21.245 21.145 21.122 21.18 21.128 21.095 21.057 21.025 20.89 20.792 20.868 20.84 20.757 20.568 20.663 21.038 21.085 21.08 20.835 19.43 18.403 18.413 18.538 19.05 20.438 21.1 21.352 21.955 23.015 21.165 21.26 21.292 21.347 21.427 21.49 21.493 21.522 21.597 21.585 21.595 21.675 21.785 21.88 21.96 22.035 22.075 22.147 22.23 22.327 22.403 22.475 22.56 22.64 22.7 22.775 22.85 22.917 22.96 23.013 23.085 23.163 23.19 23.24 23.288 23.365 23.425 23.452 23.462 23.48 23.548 23.603 23.647 23.68 23.717 23.753 23.772 23.823 23.877 23.917 23.96 24.177 23.903 25.007 24.542 24.058 24.2 24.292 24.362 24.405 24.443 24.483 24.507 24.568 24.62 24.68 24.715 24.76 24.8 24.827 24.877 24.945 25.16 25.915 25.032 25.333 25.413 25.458 25.495 25.53 25.55 25.583 25.61 25.608 25.615 25.647 25.698 25.733 25.737 25.77 25.798 25.82 25.81 25.818 25.812 25.96 26.69 26.79 26.362 26.44 26.487 26.532 26.61 26.67 26.728 26.79 26.862 26.938 26.997 27.065 27.122 27.2 27.283 27.347 27.415 27.48 27.548 27.6 27.685 27.76 27.837 27.905 27.97 28.038 28.105 28.177 28.237 28.29 28.345 28.425 28.503 28.577 28.645 28.72 28.765 28.812 28.872 28.927 28.962 29.03 29.087 29.128 29.193 29.255 29.318 29.385 29.455 29.53 29.597 29.673 29.74 29.82 29.897 29.967 30.045 30.118 30.18 30.25 30.312 30.375 30.452 30.522 30.608 30.688 30.765 30.825 30.888 30.942 31.013 31.048
24.78 25.005 25.467 25.087 25.142 25.05 25.215 24.285 24.05 24.06 24.09 24.135 24.15 24.128 24.095 24.042 24.01 23.99 23.968 23.97 23.93 23.892 23.862 23.825 23.792 23.76 23.73 23.698 23.663 23.62 23.565 23.532 23.495 23.455 23.427 23.343 23.288 23.243 23.185 23.122 23.068 23.017 22.97 22.938 22.913 22.888 22.853 22.802 22.788 22.75 22.663 22.63 22.577 22.54 22.505 22.465 22.417 22.36 22.318 22.235 22.175 22.185 22.173 22.155 22.132 22.115 22.118 22.118 22.118 22.12 22.122 22.115 22.115 22.102 22.095 22.062 22.035 22.005 21.958 21.93 21.905 21.878 21.875 21.895 21.87 21.847 21.852 21.842 21.815 21.785 21.775 21.745 21.72 21.688 21.677 21.658 21.62 21.587 21.555 21.525 21.487 21.455 21.423 21.407 21.375 21.325 21.292 21.28 21.29 21.31 21.315 21.33 21.36 21.372 21.375 21.362 21.345 21.335 21.315 21.298 21.27 21.257 21.252 21.245 21.21 21.192 21.19 21.175 21.15 21.122 21.085 21.062 21.028 20.962 20.89 21.325 21.493 21.04 20.788 20.735 20.765 20.872 20.938 21 21.09 21.07 21.077 21.08 21.108 21.147 21.17 21.15 21.153 21.173 21.175 21.165 21.153 21.128 21.125 21.093 21.042 20.998 21.013 20.93 20.915 20.833 20.805 20.783 20.688 20.698 21.427 20.81 20.1 19.802 19.833 21.087 21.78 21.915 22.903 21.228 21.688 21.035 20.72 20.872 20.72 20.753 20.785 20.778 20.798 20.94 21.362 21.13 21.153 21.15 21.118 21.095 21.087 21.077 21.062 20.987 21.095 21.48 21.443 21.43 20.837 20.842 20.923 20.915 20.903 20.843 20.85 20.935 20.945 20.905 20.913 20.895 20.837 20.845 20.858 20.817 20.807 20.782 20.77 20.78 20.802 20.87 20.93 20.967 20.997 21.007 21.02 21.075 21.135 21.202 21.475 22.495 21.712 21.342 21.413 21.485 21.355 21.253 21.24 21.183 21.147 21.138 21.158 21.103 21.075 21.077 21.115 21.875 22.225 21.33 21.06 21.042 21.065 21.132 21.052 21.025 20.875 20.72 20.795 21.028 20.833 20.592 20.233 20.41 20.8 20.91 21.372 21.65 20.88 18.67 18.327 18.57 18.552 20.483 20.952 21.555 22.095 21.96 21.677 21.15 21.125 21.255 21.33 21.432 21.497 21.642 21.655 21.593 21.573 21.618 21.688 21.808 21.903 21.955 22.022 22.1 22.188 22.29 22.382 22.455 22.517 22.593 22.657 22.733 23.78 22.972 22.903 22.955 23.05 23.105 23.163 23.208 23.278 23.355 23.397 23.41 23.41 23.425 23.483 23.52 23.558 23.59 23.638 23.677 23.717 23.757 23.825 23.858 23.92 24.205 24.755 24.897 23.963 24.058 24.18 24.24 24.307 24.353 24.388 24.417 24.472 24.517 24.57 24.632 24.667 24.705 24.75 24.775 24.815 24.862 24.908 26.087 24.997 25.188 25.372 25.41 25.46 25.478 25.505 25.538 25.583 25.568 25.583 25.61 25.63 25.655 25.66 25.685 25.722 25.705 25.71 25.708 25.825 26.51 26.763 26.325 26.31 26.362 26.41 26.493 26.542 26.608 26.653 26.743 26.812 26.87 26.935 27.017 27.093 27.163 27.228 27.292 27.358 27.423 27.49 27.565 27.655 27.725 27.792 27.858 27.92 27.978 28.04 28.115 28.155 28.222 28.298 28.377 28.45 28.52 28.575 28.632 28.688 28.745 28.798 28.847 28.907 28.962 29.02 29.077 29.13 29.188 29.272 29.33 29.392 29.458 29.538 29.608 29.68 29.755 29.827 29.897 29.967 30.045 30.105 30.165 30.24 30.318 30.392 30.472 30.55 30.6 30.673 30.733 30.8 30.86 30.915 30.972
