ncols 396
nrows 31
xllcorner    246094
yllcorner    140076
cellsize     2
NODATA_value -9999
109.365 109.35 109.315 109.312 109.312 109.265 109.25 109.232 109.21 109.205 109.14 109.165 109.145 109.145 109.127 109.17 109.115 109.092 109.092 109.07 109.027 109.02 108.96 108.952 108.94 108.925 108.917 108.892 108.835 108.792 108.76 108.86 109.762 110.417 110.66 110.702 109.77 109.03 109.042 109.085 109.125 109.125 109.17 109.165 109.122 109.152 109.155 109.117 109.06 109.067 109.085 109.057 109.035 109.052 109.072 109.047 109.012 108.982 108.947 108.925 108.91 108.86 108.842 108.857 108.837 108.8 108.812 108.812 108.767 108.742 108.732 108.72 108.62 108.477 108.782 109.362 108.68 108.642 108.67 108.665 108.705 108.725 108.68 108.807 108.595 108.497 108.482 108.487 108.48 108.53 108.552 108.515 108.43 108.387 108.31 108.265 108.247 108.265 108.282 108.285 108.297 108.307 108.285 108.255 108.197 108.18 108.142 108.165 108.167 108.19 108.185 108.16 108.057 107.95 107.91 107.842 107.775 107.772 107.715 107.655 107.612 107.595 107.537 107.43 107.357 107.352 107.292 107.27 107.287 107.232 107.185 107.122 107.037 106.972 106.905 106.827 106.762 106.702 106.647 106.587 106.537 106.462 106.4 106.305 106.187 106.082 105.935 105.767 105.61 105.447 105.32 105.207 105.095 104.952 104.715 105.307 105.24 104.242 104.172 103.715 103.517 103.327 103.195 103.092 102.895 102.61 102.24 101.962 101.772 101.58 101.397 101.352 101.15 100.947 100.722 100.562 100.315 100.102 99.9 99.642 99.43 99.25 99.087 98.952 98.785 98.58 98.327 98.032 97.772 97.497 97.205 96.852 96.572 96.205 95.862 95.545 95.21 94.812 94.562 94.237 93.82 93.23 92.602 92.02 91.327 90.79 90.382 90.07 89.862 89.722 89.652 89.595 89.64 89.977 90.475 90.282 88.855 88.312 88.777 91.535 90.567 90.237 90.262 91.552 91.817 93.897 91.857 90.767 90.755 90.89 92.635 98.642 100.98 100.775 102.022 97.172 94.775 93.275 93.292 93.907 94.582 94.14 93.567 93.7 94.017 94.502 94.765 94.595 94.507 94.905 97.802 98.177 96.385 94.682 94.655 94.802 95.242 95.482 95.3 95.347 95.395 95.407 95.392 95.377 95.377 95.427 95.575 95.634 95.727 95.807 95.937 96.142 96.42 96.885 97.022 97.082 97.135 97.215 97.317 97.382 97.457 97.522 97.607 97.66 97.745 97.812 97.895 97.995 98.092 98.149 98.195 98.259 98.345 98.408 98.456 98.527 98.584 98.652 98.693 98.761 98.861 98.924 98.976 99.047 99.108 99.172 99.216 99.272 99.315 99.358 99.41 99.452 99.496 99.552 99.652 99.73 99.813 99.875 99.94 99.983 100.038 100.109 100.211 100.364 100.477 100.49 100.503 100.568 100.68 100.83 100.933 101 101.07 101.132 101.145 101.163 101.23 101.302 101.378 101.43 101.525 101.658 101.74 101.795 101.87 101.95 102.065 102.175 102.253 102.33 102.42 102.518 102.618 102.675 102.755 102.845 102.938 103.01 103.088 103.153 103.188 103.232 103.305 103.395 103.518 103.693 103.785 103.792 103.815 103.952 104.058 104.15 104.235 104.335 104.455 104.55 104.647 104.725 104.793 104.915 105.012 105.11 105.175 105.25 105.375 105.522 105.683 107.265 106.695 105.95 106.1 106.223 106.345 106.482 106.6 106.7
109.233 109.205 109.208 109.19 109.172 109.127 109.112 109.097 109.077 109.05 109.032 109.01 109.007 108.98 108.985 108.992 108.967 109 108.945 108.937 108.92 108.887 108.842 108.815 108.792 108.772 108.767 108.76 108.74 108.7 108.69 108.627 108.597 108.715 109.435 109.98 110.38 110.297 109.722 108.947 108.915 108.952 108.982 108.992 109.007 109.027 109.012 108.975 108.942 108.94 108.922 108.917 108.93 108.91 108.932 108.912 108.915 108.862 108.855 108.832 108.807 108.767 108.75 108.75 108.73 108.727 108.725 108.7 108.675 108.672 108.687 108.622 108.525 108.457 109.007 109.082 108.577 108.587 108.612 108.615 108.635 108.71 108.812 109.01 108.752 108.462 108.427 108.427 108.452 108.502 108.515 108.49 108.385 108.337 108.267 108.237 108.225 108.242 108.252 108.27 108.29 108.28 108.262 108.21 108.17 108.135 108.132 108.155 108.167 108.185 108.182 108.125 108.077 108.02 107.945 107.882 107.805 107.757 107.737 107.687 107.627 107.592 107.582 107.535 107.455 107.41 107.335 107.325 107.327 107.275 107.217 107.18 107.077 107.012 106.935 106.857 106.815 106.765 106.727 106.695 106.62 106.557 106.502 106.42 106.31 106.167 106.022 105.87 105.715 105.562 105.43 105.302 105.197 105.055 104.915 105.462 106.075 104.42 103.99 103.822 103.63 103.415 103.29 103.195 102.967 102.655 102.352 102.027 101.825 101.687 101.505 101.407 101.267 101.02 100.825 100.632 100.427 100.212 100 99.73 99.525 99.357 99.152 99.055 98.867 98.637 98.367 98.157 97.837 97.567 97.305 96.995 96.655 96.31 95.915 95.58 95.262 94.84 94.582 94.255 93.905 93.44 92.857 92.217 91.477 90.977 90.547 90.102 89.975 89.837 89.7 89.567 89.515 89.62 89.92 90.195 89.21 88.305 88.195 90.17 90.767 90.16 90.162 90.392 91.015 90.58 90.285 90.505 90.912 91.095 93.07 99.705 103.472 104.675 105.357 103.352 98.555 93.602 93.862 93.7 92.922 93.112 93.262 93.435 93.855 94.295 95.132 94.87 94.477 94.512 97.16 98.247 97.615 95.002 94.872 95.312 95.479 95.555 95.475 95.42 95.397 95.345 95.367 95.397 95.4 95.407 95.58 95.682 95.865 95.982 96.145 96.3 96.507 96.825 96.927 97.012 97.05 97.119 97.202 97.249 97.327 97.408 97.477 97.56 97.656 97.744 97.811 97.899 97.99 98.061 98.11 98.193 98.264 98.323 98.388 98.436 98.527 98.582 98.622 98.667 98.757 98.822 98.892 98.939 99.024 99.08 99.137 99.183 99.234 99.288 99.347 99.381 99.444 99.504 99.563 99.651 99.736 99.794 99.855 99.916 99.965 100.022 100.131 100.282 100.382 100.417 100.443 100.493 100.613 100.762 100.868 100.95 101.007 101.067 101.088 101.092 101.175 101.232 101.287 101.37 101.475 101.595 101.662 101.728 101.795 101.865 101.97 102.08 102.175 102.255 102.353 102.46 102.548 102.61 102.693 102.79 102.882 102.938 103.02 103.077 103.107 103.17 103.238 103.323 103.463 103.63 103.707 103.72 103.757 103.887 103.995 104.083 104.16 104.265 104.387 104.493 104.565 104.63 104.707 104.802 104.923 105.012 105.08 105.158 105.293 105.463 105.702 107.375 106.545 105.863 106.027 106.14 106.268 106.393 106.522 106.622
109.125 109.105 109.078 109.085 109.052 109.03 109.025 108.947 108.937 108.927 108.892 108.895 108.865 108.86 108.83 108.812 108.817 108.827 108.785 108.83 108.777 108.722 108.72 108.73 108.645 108.652 108.607 108.567 108.562 108.555 108.587 108.552 108.505 108.475 108.477 108.557 109.222 109.872 110.37 110.157 109.455 108.767 108.76 108.777 108.832 108.847 108.845 108.837 108.822 108.82 108.792 108.787 108.785 108.802 108.817 108.815 108.772 108.74 108.747 108.73 108.69 108.67 108.657 108.642 108.62 108.625 108.647 108.625 108.597 108.597 108.6 108.552 108.42 108.462 109.155 108.907 108.555 108.527 108.557 108.572 108.562 108.555 108.65 108.615 108.492 108.43 108.415 108.402 108.422 108.48 108.48 108.415 108.342 108.267 108.217 108.202 108.195 108.205 108.215 108.242 108.255 108.247 108.23 108.19 108.16 108.125 108.125 108.172 108.167 108.19 108.175 108.12 108.052 107.997 107.94 107.915 107.857 107.795 107.73 107.752 107.702 107.7 107.712 107.565 107.49 107.45 107.41 107.377 107.377 107.33 107.29 107.207 107.127 107.08 106.972 106.895 106.865 106.81 106.782 106.747 106.692 106.645 106.61 106.495 106.387 106.262 106.127 105.975 105.83 105.672 105.55 105.425 105.317 105.175 105.082 105.36 104.707 104.275 104.005 103.847 103.677 103.505 103.37 103.245 103.017 102.715 102.4 102.137 101.965 101.822 101.637 101.555 101.35 101.14 100.892 100.712 100.487 100.27 100.05 99.797 99.615 99.44 99.262 99.127 98.967 98.71 98.47 98.2 97.907 97.627 97.365 97.08 96.68 96.355 95.977 95.622 95.325 94.905 94.63 94.215 93.847 93.547 93.027 92.295 91.692 91.132 90.652 90.235 90.035 89.862 89.702 89.522 89.41 89.307 89.162 89.937 89.667 88.267 88.15 89.517 90.822 90.075 90.035 89.952 89.957 89.972 90.157 90.817 92.77 91.432 93.187 98.575 103.75 105.637 106.01 104.185 96.572 92.48 92.592 93.627 95.307 95.837 93.96 92.927 93.455 93.817 93.905 93.962 94.435 94.497 95.922 98.052 98.007 96.262 95.007 95.435 95.392 95.417 95.44 95.392 95.387 95.362 95.33 95.382 95.382 95.412 95.51 95.677 95.88 96.142 96.455 96.34 96.542 96.785 96.824 96.875 96.92 97.008 97.101 97.155 97.224 97.322 97.408 97.481 97.568 97.661 97.744 97.835 97.914 97.975 98.03 98.11 98.182 98.24 98.297 98.345 98.419 98.486 98.517 98.579 98.664 98.736 98.794 98.861 98.956 99.008 99.068 99.126 99.165 99.212 99.266 99.318 99.368 99.418 99.484 99.563 99.655 99.725 99.786 99.834 99.897 99.944 100.042 100.198 100.317 100.342 100.348 100.435 100.555 100.69 100.77 100.85 100.925 101.003 101.022 101.045 101.13 101.188 101.25 101.332 101.44 101.552 101.618 101.667 101.73 101.8 101.893 101.997 102.103 102.2 102.277 102.365 102.46 102.518 102.6 102.71 102.808 102.875 102.952 103.015 103.055 103.105 103.183 103.26 103.402 103.573 103.643 103.64 103.685 103.832 103.923 104.01 104.073 104.193 104.29 104.397 104.475 104.548 104.625 104.723 104.825 104.915 104.993 105.068 105.21 105.38 105.827 107.198 105.838 105.798 105.967 106.072 106.195 106.32 106.45 106.54
108.995 108.995 108.953 108.962 108.945 108.912 108.882 108.857 108.807 108.8 108.767 108.76 108.737 108.712 108.645 108.682 108.65 108.665 108.657 108.642 108.587 108.65 108.612 108.585 108.555 108.522 108.507 108.492 108.437 108.41 108.435 108.412 108.43 108.392 108.385 108.337 108.305 108.38 109.092 109.892 110.157 109.86 108.675 108.595 108.627 108.645 108.655 108.685 108.69 108.687 108.655 108.665 108.677 108.68 108.682 108.67 108.655 108.635 108.645 108.635 108.58 108.56 108.542 108.542 108.525 108.54 108.555 108.537 108.507 108.53 108.517 108.452 108.322 108.355 109.15 108.702 108.507 108.487 108.495 108.52 108.522 108.48 108.46 108.425 108.375 108.352 108.37 108.357 108.42 108.475 108.432 108.357 108.3 108.23 108.185 108.162 108.162 108.19 108.2 108.237 108.222 108.22 108.175 108.16 108.11 108.09 108.11 108.137 108.15 108.177 108.165 108.107 108.065 108.022 107.967 107.905 107.872 107.837 107.772 107.777 107.825 107.737 107.697 107.635 107.552 107.53 107.452 107.425 107.417 107.36 107.337 107.262 107.165 107.117 107.037 106.97 106.93 106.89 106.862 106.805 106.735 106.687 106.66 106.57 106.47 106.327 106.212 106.072 105.925 105.772 105.655 105.552 105.432 105.25 105.37 105.572 104.52 104.3 104.14 103.957 103.76 103.625 103.487 103.325 103.08 102.77 102.457 102.257 102.095 101.9 101.757 101.66 101.457 101.212 101.012 100.765 100.555 100.347 100.122 99.877 99.687 99.545 99.382 99.202 99.062 98.84 98.565 98.302 97.985 97.7 97.427 97.137 96.815 96.407 96.07 95.677 95.372 94.947 94.65 94.3 93.94 93.535 93.065 92.35 91.895 91.265 90.73 90.432 90.15 89.952 89.645 89.455 89.3 89.097 88.945 89.392 89.91 88.377 88.107 88.03 91.072 90.152 90.035 89.887 89.725 89.752 90.675 91.277 91.07 94.245 96.075 97.562 102.78 102.307 104.607 102.4 94.74 92.31 92.587 93.867 96.895 97.615 94.715 93.182 94.217 94.782 95.965 96.767 94.56 94.467 94.615 97.627 98.267 96.979 94.707 95.38 95.38 95.412 95.372 95.335 95.335 95.34 95.322 95.315 95.337 95.332 95.427 95.597 95.809 96.068 96.216 96.277 96.423 96.674 96.694 96.778 96.841 96.905 97.002 97.08 97.146 97.186 97.305 97.41 97.489 97.548 97.639 97.738 97.812 97.872 97.936 98.027 98.083 98.146 98.203 98.238 98.333 98.406 98.442 98.509 98.591 98.682 98.719 98.785 98.872 98.927 98.988 99.042 99.09 99.134 99.196 99.253 99.304 99.376 99.431 99.511 99.6 99.67 99.725 99.794 99.853 99.898 99.969 100.114 100.234 100.255 100.283 100.372 100.497 100.637 100.717 100.798 100.857 100.933 100.955 100.993 101.083 101.132 101.2 101.272 101.387 101.495 101.552 101.615 101.67 101.747 101.85 101.958 102.055 102.143 102.225 102.315 102.382 102.452 102.537 102.625 102.702 102.783 102.875 102.927 102.965 103.03 103.115 103.19 103.345 103.495 103.542 103.55 103.618 103.753 103.86 103.938 104.025 104.135 104.245 104.35 104.42 104.488 104.55 104.658 104.753 104.83 104.915 105.01 105.137 105.302 106.193 107.07 106.113 105.74 105.88 106.005 106.113 106.247 106.37 106.457
108.91 108.893 108.848 108.84 108.82 108.805 108.777 108.755 108.715 108.682 108.655 108.635 108.62 108.597 108.562 108.535 108.525 108.5 108.517 108.487 108.432 108.452 108.447 108.482 108.465 108.442 108.425 108.38 108.327 108.295 108.312 108.28 108.257 108.265 108.297 108.26 108.23 108.19 108.142 108.162 108.937 109.532 109.735 108.992 108.49 108.437 108.47 108.485 108.53 108.517 108.547 108.54 108.55 108.542 108.545 108.53 108.52 108.507 108.51 108.507 108.457 108.442 108.43 108.43 108.432 108.437 108.442 108.432 108.405 108.442 108.412 108.347 108.255 108.577 109.1 108.982 108.45 108.452 108.475 108.467 108.457 108.425 108.385 108.377 108.347 108.3 108.31 108.337 108.407 108.447 108.407 108.337 108.285 108.22 108.147 108.145 108.165 108.172 108.172 108.197 108.21 108.17 108.152 108.127 108.087 108.08 108.107 108.11 108.137 108.18 108.142 108.102 108.052 108.02 107.965 107.922 107.887 107.837 107.802 110.5 108.745 107.745 107.72 107.655 107.575 107.55 107.487 107.502 107.512 107.422 107.397 107.315 107.227 107.17 107.075 107.045 106.995 106.935 106.922 106.902 106.795 106.77 106.722 106.637 106.525 106.402 106.265 106.125 105.985 105.88 105.772 105.64 105.505 105.32 105.657 105.5 104.927 104.417 104.242 104.06 103.885 103.73 103.59 103.415 103.142 102.802 102.572 102.347 102.21 102.052 101.925 101.782 101.61 101.312 101.132 100.9 100.625 100.432 100.205 100.012 99.767 99.615 99.465 99.305 99.135 98.905 98.63 98.382 98.11 97.832 97.515 97.232 96.882 96.487 96.15 95.767 95.455 95.027 94.697 94.34 94.017 93.552 93.07 92.632 92.062 91.422 90.902 90.647 90.257 89.985 89.652 89.417 89.227 88.975 88.867 88.915 89.53 88.712 88.052 88.025 90.482 90.765 90.257 90.11 89.582 89.67 90.617 90.997 93.872 96.792 91.997 92.445 93.885 92.337 100.062 98.312 92.347 92.335 92.507 92.915 96.49 97.597 97.122 97.39 98.252 98.787 98.925 99.19 95.925 94.43 94.472 97.072 98.182 97.752 95.542 95.53 95.377 95.387 95.33 95.352 95.322 95.315 95.293 95.297 95.295 95.343 95.368 95.537 95.735 95.937 96.102 96.196 96.312 96.536 96.63 96.677 96.758 96.835 96.925 97.001 97.059 97.074 97.175 97.329 97.397 97.475 97.551 97.646 97.723 97.799 97.862 97.952 98.003 98.058 98.105 98.171 98.252 98.324 98.38 98.434 98.525 98.603 98.641 98.707 98.792 98.853 98.915 98.982 99.03 99.067 99.109 99.171 99.248 99.307 99.356 99.434 99.521 99.594 99.646 99.714 99.758 99.817 99.937 100.057 100.147 100.175 100.235 100.325 100.465 100.583 100.655 100.747 100.818 100.897 100.923 100.967 101.04 101.087 101.155 101.22 101.31 101.417 101.473 101.537 101.6 101.677 101.783 101.9 101.995 102.083 102.175 102.268 102.338 102.397 102.488 102.567 102.655 102.73 102.81 102.86 102.897 102.967 103.04 103.118 103.265 103.402 103.443 103.46 103.542 103.675 103.78 103.86 103.95 104.07 104.195 104.308 104.38 104.445 104.52 104.613 104.715 104.783 104.835 104.933 105.09 105.22 106.58 107.245 105.7 105.675 105.798 105.915 106.033 106.185 106.3 106.38
108.77 108.768 108.735 108.722 108.712 108.692 108.665 108.675 108.637 108.58 108.555 108.515 108.5 108.485 108.465 108.427 108.397 108.392 108.35 108.322 108.305 108.322 108.3 108.302 108.302 108.307 108.287 108.27 108.177 108.205 108.17 108.157 108.117 108.152 108.122 108.12 108.122 108.11 108.08 108.045 107.975 107.97 108.665 109.297 109.202 109.105 108.327 108.455 108.347 108.347 108.362 108.387 108.432 108.437 108.412 108.402 108.405 108.375 108.37 108.367 108.33 108.325 108.312 108.307 108.32 108.342 108.337 108.302 108.31 108.36 108.33 108.232 108.192 108.66 109.125 109.955 108.67 108.372 108.425 108.402 108.41 108.375 108.352 108.327 108.275 108.287 108.297 108.33 108.382 108.412 108.357 108.287 108.262 108.21 108.16 108.18 108.167 108.17 108.16 108.16 108.182 108.18 108.152 108.125 108.055 108.057 108.107 108.127 108.142 108.16 108.13 108.1 108.047 107.992 107.965 107.93 107.877 107.83 107.907 108.765 108.5 107.902 107.75 107.642 107.587 107.555 107.527 107.55 107.525 107.477 107.427 107.37 107.302 107.22 107.105 107.072 107.055 107.027 106.985 106.94 106.87 106.827 106.79 106.707 106.61 106.475 106.342 106.197 106.07 105.962 105.857 105.73 105.602 105.397 106.175 105.527 104.97 104.55 104.392 104.232 103.99 103.9 103.75 103.525 103.197 102.872 102.68 102.47 102.322 102.127 102.025 101.882 101.67 101.422 101.21 100.967 100.737 100.53 100.322 100.105 99.967 99.78 99.61 99.432 99.262 99.005 98.725 98.452 98.192 97.905 97.602 97.277 96.97 96.587 96.21 95.795 95.437 95.08 94.747 94.407 94.01 93.65 93.207 92.762 92.18 91.565 91.142 90.857 90.415 89.992 89.687 89.402 89.212 89 88.872 88.785 89.267 89.002 88.002 87.99 88.472 90.512 90.6 93.062 90.512 89.437 90.542 92.492 101.42 102.3 99.277 98.372 92.9 91.402 92.372 92.15 92.082 92.282 92.417 92.76 95.83 97.63 97.887 99.36 99.6 99.742 99.527 99.305 96.227 94.385 94.44 95.027 97.875 98.155 96.722 94.985 95.409 95.378 95.357 95.303 95.304 95.277 95.244 95.27 95.291 95.315 95.33 95.523 95.666 95.831 96.002 96.156 96.326 96.47 96.527 96.599 96.681 96.757 96.839 96.921 96.981 97.06 97.162 97.234 97.292 97.376 97.456 97.553 97.656 97.712 97.783 97.845 97.92 97.981 98.039 98.103 98.185 98.231 98.283 98.357 98.456 98.521 98.565 98.637 98.712 98.759 98.822 98.914 98.941 98.979 99.012 99.064 99.144 99.213 99.274 99.335 99.43 99.503 99.561 99.617 99.672 99.742 99.812 99.965 100.05 100.122 100.177 100.26 100.41 100.522 100.73 100.688 100.768 100.835 100.86 100.908 100.98 101.018 101.1 101.155 101.265 101.368 101.435 101.47 101.535 101.59 101.72 101.835 101.915 102.042 102.09 102.195 102.268 102.33 102.4 102.495 102.585 102.667 102.747 102.795 102.847 102.925 102.997 103.077 103.215 103.323 103.363 103.39 103.47 103.585 103.705 103.777 103.878 104.007 104.125 104.24 104.312 104.375 104.467 104.555 104.652 104.705 104.772 104.865 105.04 105.165 106.033 107.712 105.435 105.592 105.71 105.827 105.95 106.107 106.213 106.293
108.635 108.625 108.613 108.622 108.59 108.6 108.552 108.545 108.537 108.497 108.47 108.427 108.41 108.362 108.335 108.305 108.277 108.277 108.24 108.222 108.22 108.202 108.167 108.172 108.16 108.17 108.152 108.132 108.13 108.107 108.06 108.07 108.037 108.02 108.015 107.99 107.992 107.992 107.985 107.94 107.937 107.875 107.837 107.925 108.68 109.525 109.077 108.307 108.137 108.155 108.177 108.2 108.237 108.275 108.287 108.307 108.287 108.265 108.257 108.237 108.185 108.197 108.19 108.182 108.205 108.212 108.207 108.19 108.21 108.24 108.225 108.1 108.112 108.727 109.335 108.982 108.297 108.305 108.327 108.315 108.32 108.3 108.282 108.267 108.235 108.235 108.265 108.3 108.37 108.37 108.327 108.252 108.21 108.17 108.13 108.13 108.162 108.202 108.185 108.185 108.167 108.157 108.11 108.08 108.047 108.047 108.095 108.127 108.157 108.195 108.147 108.087 108.047 107.987 107.957 107.92 107.892 107.867 108.355 110.78 110.632 110.392 110.057 109.667 109.232 108.82 108.297 107.825 107.61 107.53 107.56 107.385 107.34 107.27 107.165 107.16 107.09 107.072 107.037 106.995 106.922 106.897 106.85 106.747 106.662 106.542 106.43 106.29 106.16 106.06 105.957 105.832 105.695 105.485 106.632 106.135 104.785 104.692 104.502 104.35 104.14 104 103.875 103.647 103.332 102.975 102.757 102.62 102.467 102.245 102.125 101.987 101.797 101.55 101.29 101.062 100.852 100.637 100.445 100.267 100.07 99.885 99.692 99.532 99.362 99.062 98.805 98.522 98.295 98 97.705 97.402 97.047 96.692 96.355 95.917 95.535 95.162 94.775 94.467 94.077 93.722 93.335 92.872 92.27 91.632 91.34 90.945 90.635 90.055 89.732 89.46 89.242 89.04 88.825 88.76 89.265 89.382 88.08 87.942 87.992 91.282 92.425 92.202 89.245 89.01 90.11 97.062 102.472 104.342 103.317 100.022 96.092 90.875 93.907 95.897 92.025 92.217 92.36 92.53 95.165 97.422 97.947 98.947 98.837 98.307 98.067 97.685 95.17 94.45 94.514 94.496 97.295 98.251 97.564 95.309 95.361 95.368 95.343 95.299 95.259 95.274 95.255 95.249 95.241 95.289 95.296 95.378 95.575 95.775 96.084 96.237 96.324 96.374 96.421 96.491 96.566 96.649 96.726 96.801 96.875 96.954 97.045 97.141 97.209 97.285 97.383 97.453 97.552 97.624 97.685 97.744 97.822 97.874 97.924 97.99 98.08 98.141 98.188 98.256 98.335 98.412 98.471 98.524 98.618 98.652 98.706 98.785 98.836 98.865 98.9 98.968 99.035 99.108 99.174 99.244 99.338 99.414 99.464 99.526 99.591 99.674 99.737 99.881 99.985 100.057 100.092 100.175 100.325 100.433 100.515 100.618 100.69 100.757 100.78 100.84 100.913 100.965 101.043 101.118 101.208 101.31 101.37 101.408 101.448 101.533 101.647 101.765 101.853 101.935 102.03 102.113 102.177 102.245 102.32 102.42 102.507 102.6 102.665 102.708 102.77 102.853 102.915 103.005 103.147 103.247 103.287 103.312 103.427 103.535 103.65 103.723 103.833 103.963 104.062 104.16 104.243 104.305 104.385 104.478 104.573 104.63 104.69 104.81 104.98 105.482 107.192 107.283 105.355 105.515 105.635 105.74 105.878 106.033 106.132 106.207
108.505 108.495 108.5 108.48 108.455 108.45 108.452 108.435 108.39 108.372 108.362 108.335 108.312 108.262 108.237 108.222 108.217 108.197 108.162 108.13 108.112 108.08 108.057 108.032 108.002 108.01 108.007 108.012 108.007 107.992 107.965 107.977 107.952 107.927 107.875 107.885 107.86 107.845 107.845 107.857 107.812 107.81 107.767 107.722 107.692 107.872 109.29 109.422 109.09 108.402 108.022 108.447 108.047 108.1 108.13 108.132 108.165 108.16 108.165 108.127 108.087 108.097 108.087 108.07 108.095 108.08 108.09 108.08 108.117 108.122 108.087 107.982 108.077 108.772 108.58 108.267 108.222 108.227 108.237 108.232 108.205 108.215 108.217 108.205 108.18 108.192 108.255 108.3 108.362 108.327 108.267 108.235 108.195 108.165 108.127 108.127 108.137 108.155 108.16 108.16 108.18 108.15 108.082 108.067 108.047 108.075 108.11 108.142 108.182 108.192 108.155 108.09 107.992 107.975 107.96 107.937 107.93 107.887 108.167 110.522 110.64 110.695 110.69 110.727 110.647 110.517 110.43 110.27 110.032 109.547 109.165 108.472 107.947 107.302 107.237 107.2 107.165 107.127 107.105 107.03 106.99 106.932 106.902 106.792 106.727 106.622 106.495 106.362 106.225 106.115 106.055 105.965 105.785 105.63 106.407 105.377 104.93 104.872 104.62 104.482 104.29 104.195 103.987 103.755 103.402 103.087 102.875 102.732 102.59 102.405 102.272 102.097 101.925 101.665 101.4 101.172 100.98 100.747 100.565 100.362 100.182 100.015 99.805 99.655 99.427 99.185 98.862 98.595 98.29 98.04 97.772 97.472 97.102 96.81 96.405 96 95.605 95.225 94.815 94.495 94.162 93.725 93.4 92.972 92.42 91.812 91.482 90.977 90.662 90.17 89.74 89.527 89.302 89.132 88.95 88.88 89.052 89.402 88.347 87.907 87.912 89.012 90.802 89.927 88.65 88.732 90.637 93.005 102.637 104.007 102.917 100.967 98.695 90.857 92.257 94.15 92.19 92.632 92.487 92.475 94.417 97.022 96.207 95.84 95.927 93.971 93.736 93.213 93.169 94.529 94.688 94.428 96 98.088 97.984 96.229 95.384 95.345 95.311 95.271 95.246 95.255 95.208 95.233 95.231 95.25 95.278 95.279 95.557 95.742 96.098 96.223 96.27 96.323 96.313 96.372 96.446 96.537 96.624 96.673 96.751 96.847 96.938 97.002 97.082 97.175 97.263 97.36 97.433 97.493 97.57 97.638 97.702 97.757 97.816 97.873 97.957 98.02 98.068 98.135 98.233 98.292 98.341 98.41 98.495 98.541 98.603 98.69 98.748 98.782 98.816 98.869 98.95 99.032 99.1 99.167 99.271 99.349 99.41 99.47 99.549 99.613 99.665 99.775 99.905 99.985 100.012 100.072 100.223 100.342 100.473 100.54 100.63 100.698 100.713 100.77 100.835 100.89 100.975 101.062 101.152 101.235 101.298 101.353 101.405 101.467 101.577 101.682 101.783 101.847 101.965 102.03 102.098 102.173 102.243 102.32 102.402 102.505 102.577 102.605 102.673 102.76 102.833 102.905 103.053 103.165 103.202 103.232 103.353 103.482 103.575 103.655 103.783 103.908 104.015 104.113 104.183 104.257 104.342 104.42 104.518 104.577 104.632 104.76 104.903 105.647 107.065 105.827 105.285 105.442 105.548 105.673 105.82 105.943 106.04 106.107
108.355 108.363 108.338 108.327 108.332 108.355 108.307 108.33 108.285 108.28 108.255 108.227 108.197 108.165 108.132 108.107 108.085 108.042 108.04 108.027 108.03 107.99 107.977 107.93 107.89 107.905 107.89 107.87 107.87 107.885 107.88 107.837 107.85 107.867 107.772 107.79 107.782 107.75 107.73 107.717 107.705 107.697 107.7 107.682 107.622 107.59 107.567 107.757 108.652 109.587 109.725 108.417 108.577 107.84 107.93 107.952 107.985 107.992 108.025 108.017 108.002 107.997 107.995 107.972 107.962 107.96 107.967 107.96 107.992 108.005 107.95 107.85 108.185 108.635 108.142 108.117 108.14 108.147 108.145 108.122 108.145 108.147 108.152 108.145 108.145 108.167 108.215 108.282 108.332 108.31 108.24 108.2 108.17 108.122 108.097 108.12 108.137 108.13 108.157 108.16 108.175 108.155 108.102 108.092 108.07 108.075 108.125 108.15 108.225 108.205 108.15 108.092 108.012 107.995 107.957 107.957 107.957 107.99 108.08 108.125 108.437 108.942 109.182 109.755 110.122 110.3 110.502 110.605 110.605 110.637 110.607 110.465 108.365 107.375 107.302 107.262 107.215 107.205 107.185 107.1 107.087 107.052 106.977 106.895 106.785 106.697 106.565 106.452 106.325 106.22 106.132 106.042 105.867 105.775 106.587 106.91 105 104.905 104.715 104.555 104.367 104.265 104.095 103.837 103.52 103.235 103.047 102.885 102.702 102.532 102.412 102.227 102.01 101.742 101.53 101.29 101.072 100.887 100.672 100.485 100.327 100.12 99.957 99.795 99.555 99.267 98.935 98.692 98.415 98.092 97.83 97.532 97.175 96.855 96.462 96.055 95.677 95.287 94.847 94.577 94.2 93.805 93.412 93.015 92.505 91.955 91.56 91.065 90.645 90.162 89.75 89.465 89.3 89.202 89.107 88.987 88.907 89.342 89.165 87.882 87.855 87.85 88.182 89.28 91.632 90.627 99.71 99.62 101.86 101.54 101.535 100.412 95.13 90.575 90.73 91.222 91.87 92.815 92.356 93.319 93.217 93.083 92.932 92.913 93.182 93.13 93.152 93.125 93.123 94.396 94.609 94.389 94.835 97.561 98.201 96.866 95.071 95.348 95.316 95.267 95.234 95.217 95.22 95.233 95.226 95.258 95.285 95.276 95.489 95.657 96.022 96.179 96.224 96.257 96.196 96.242 96.338 96.44 96.503 96.561 96.632 96.724 96.825 96.892 96.978 97.074 97.159 97.238 97.324 97.397 97.476 97.54 97.607 97.659 97.72 97.775 97.854 97.93 97.975 98.05 98.134 98.203 98.245 98.311 98.42 98.479 98.522 98.616 98.689 98.726 98.769 98.817 98.891 98.972 99.05 99.124 99.215 99.294 99.362 99.414 99.472 99.519 99.569 99.695 99.845 99.915 99.932 99.988 100.14 100.257 100.34 100.455 100.55 100.618 100.65 100.717 100.78 100.84 100.915 101.005 101.103 101.188 101.243 101.292 101.353 101.423 101.52 101.618 101.723 101.8 101.902 101.963 102.025 102.198 102.17 102.237 102.332 102.445 102.495 102.525 102.587 102.677 102.717 102.81 102.955 103.075 103.12 103.165 103.287 103.41 103.51 103.592 103.72 103.837 103.945 104.05 104.132 104.21 104.298 104.385 104.46 104.527 104.592 104.708 104.817 105.83 106.035 105.673 105.238 105.375 105.503 105.615 105.76 105.878 105.955 106.022
108.21 108.175 108.198 108.22 108.182 108.202 108.197 108.195 108.172 108.17 108.147 108.117 108.09 108.07 108.02 107.992 107.99 107.985 107.935 107.915 107.897 107.885 107.822 107.8 107.815 107.77 107.77 107.757 107.747 107.755 107.765 107.737 107.727 107.705 107.717 107.7 107.687 107.682 107.622 107.615 107.622 107.582 107.582 107.61 107.57 107.542 107.502 107.47 107.502 107.612 108.767 109.832 110.74 109.402 109.007 108.035 107.792 107.81 107.835 107.857 107.88 107.89 107.847 107.882 107.87 107.872 107.837 107.857 107.88 107.882 107.817 107.76 108.212 108.315 107.997 108.02 108.062 108.06 108.06 108.09 108.09 108.097 108.087 108.082 108.095 108.115 108.167 108.24 108.287 108.255 108.197 108.172 108.13 108.107 108.087 108.102 108.12 108.145 108.172 108.165 108.185 108.147 108.09 108.072 108.08 108.117 108.147 108.235 108.26 108.22 108.13 108.085 108.045 107.995 107.997 107.945 107.942 107.942 107.92 107.937 107.867 107.825 107.8 107.842 107.737 108.145 108.415 108.812 109.31 109.732 109.992 110.207 108.577 107.402 107.355 107.335 107.317 107.277 107.255 107.16 107.167 107.147 107.057 106.987 106.89 106.792 106.632 106.535 106.427 106.317 106.217 106.15 105.965 106.182 106.74 105.337 105.54 105.322 104.865 104.662 104.505 104.385 104.187 103.902 103.595 103.325 103.165 102.972 102.835 102.71 102.57 102.362 102.137 101.877 101.64 101.4 101.195 101.007 100.82 100.585 100.402 100.235 100.075 99.89 99.672 99.337 99.067 98.757 98.502 98.172 97.907 97.647 97.235 96.912 96.507 96.142 95.735 95.385 94.99 94.607 94.257 93.807 93.412 93.045 92.557 92.137 91.615 91.155 90.697 90.297 89.825 89.56 89.367 89.255 89.13 88.972 88.827 88.985 89.367 87.782 87.8 87.782 89.895 96.907 98.802 99.735 102.137 102.257 94.567 98.545 97.857 94.43 90.995 90.491 91.163 91.266 91.59 92.273 95.734 99.723 98.269 93.891 92.876 92.98 93.154 93.145 93.148 93.149 93.305 96.055 94.837 94.412 94.537 97.079 98.199 97.75 95.316 95.327 95.3 95.266 95.227 95.195 95.221 95.248 95.246 95.242 95.251 95.275 95.404 95.55 95.91 96.215 96.171 96.151 96.088 96.142 96.242 96.338 96.422 96.473 96.546 96.655 96.739 96.824 96.924 97.018 97.093 97.176 97.26 97.329 97.403 97.475 97.536 97.586 97.626 97.704 97.782 97.843 97.892 97.957 98.058 98.123 98.151 98.239 98.353 98.406 98.449 98.548 98.625 98.667 98.702 98.745 98.809 98.872 98.949 99.021 99.107 99.184 99.26 99.316 99.387 99.42 99.493 99.632 99.785 99.84 99.85 99.925 100.072 100.17 100.265 100.393 100.482 100.533 100.573 100.647 100.71 100.785 100.868 100.965 101.048 101.125 101.195 101.245 101.317 101.393 101.497 101.585 101.66 101.745 101.852 101.912 101.965 102.03 102.095 102.177 102.27 102.39 102.425 102.462 102.52 102.615 102.66 102.743 102.87 102.997 103.037 103.095 103.222 103.335 103.433 103.52 103.65 103.772 103.882 103.985 104.07 104.128 104.232 104.31 104.378 104.435 104.52 104.64 104.747 105.82 107.235 105.107 105.165 105.295 105.425 105.545 105.692 105.795 105.865 105.93
108.055 108.04 108.05 108.055 108.085 108.075 108.057 108.052 108.042 108.035 108.025 108.002 108.005 107.952 107.942 107.927 107.887 107.857 107.835 107.805 107.8 107.775 107.755 107.71 107.682 107.667 107.677 107.645 107.655 107.64 107.645 107.615 107.625 107.622 107.617 107.615 107.61 107.602 107.54 107.527 107.51 107.497 107.482 107.427 107.47 107.46 107.462 107.445 107.395 107.367 107.37 107.622 108.32 109.697 110.585 110.532 108.39 107.717 107.615 107.625 107.68 107.727 107.742 107.745 107.757 107.77 107.76 107.77 107.745 107.755 107.667 107.772 108.277 108.052 107.925 107.925 107.952 107.947 107.987 108.017 108.005 108.012 108.02 108.017 108.032 108.067 108.145 108.25 108.242 108.205 108.162 108.137 108.097 108.092 108.08 108.135 108.125 108.165 108.162 108.177 108.182 108.15 108.137 108.1 108.11 108.145 108.17 108.197 108.262 108.235 108.17 108.107 108.08 108.027 108.03 108.01 108.005 107.95 107.952 107.945 107.902 107.86 107.825 107.777 107.702 107.722 107.745 107.785 107.76 107.74 107.707 107.972 107.807 107.485 107.452 107.437 107.397 107.377 107.34 107.272 107.245 107.217 107.135 107.077 106.987 106.867 106.755 106.642 106.542 106.452 106.307 106.222 106.087 106.652 107.255 105.885 105.52 105.432 105.055 104.775 104.61 104.477 104.285 103.952 103.687 103.422 103.305 103.112 102.947 102.825 102.66 102.452 102.285 102.025 101.792 101.555 101.345 101.152 100.932 100.732 100.515 100.372 100.205 100.035 99.745 99.44 99.15 98.86 98.552 98.232 97.952 97.645 97.28 96.91 96.535 96.125 95.772 95.39 94.995 94.615 94.242 93.852 93.43 93.06 92.565 92.25 91.732 91.25 90.795 90.475 90.065 89.735 89.475 89.29 89.165 88.992 88.855 88.86 89.38 88.062 87.757 87.785 91.067 96.44 99.902 102.04 103.032 101.809 99.321 92.275 91.038 91.138 90.344 90.513 90.769 91.79 90.909 98.25 102.765 101.428 103.537 98.348 93.803 93.065 93.133 93.146 93.172 93.161 93.146 95.488 95.991 94.316 94.338 96.395 97.068 95.595 95.131 95.264 95.28 95.245 95.233 95.202 95.201 95.218 95.22 95.225 95.251 95.251 95.337 95.501 95.927 96.643 96.326 96.092 96.038 96.077 96.181 96.29 96.369 96.426 96.508 96.613 96.698 96.771 96.862 96.962 97.038 97.109 97.179 97.239 97.319 97.383 97.458 97.503 97.539 97.622 97.708 97.769 97.809 97.86 97.964 98.037 98.085 98.164 98.262 98.302 98.358 98.457 98.515 98.561 98.607 98.65 98.705 98.768 98.845 98.923 99.015 99.092 99.162 99.238 99.305 99.355 99.425 99.545 99.693 99.83 99.783 99.865 100.003 100.09 100.188 100.312 100.408 100.45 100.505 100.573 100.632 100.702 100.79 100.88 100.967 101.04 101.098 101.15 101.228 101.32 101.42 101.54 101.613 101.698 101.79 101.863 101.933 102 102.06 102.155 102.23 102.33 102.363 102.393 102.473 102.55 102.59 102.665 102.812 102.928 102.96 103.042 103.143 103.287 103.342 103.445 103.56 103.673 103.785 103.88 103.965 104.03 104.145 104.232 104.287 104.338 104.435 104.555 104.688 105.978 107.232 104.948 105.092 105.228 105.345 105.473 105.618 105.717 105.78 105.855
107.863 107.878 107.903 107.897 107.912 107.895 107.905 107.912 107.912 107.917 107.88 107.9 107.847 107.847 107.84 107.812 107.782 107.757 107.732 107.73 107.677 107.65 107.635 107.622 107.585 107.567 107.585 107.55 107.54 107.512 107.525 107.512 107.532 107.512 107.487 107.507 107.512 107.49 107.512 107.457 107.407 107.43 107.402 107.377 107.357 107.332 107.335 107.335 107.342 107.337 107.292 107.27 107.265 107.3 107.782 108.802 109.64 109.36 108.832 107.535 107.51 107.532 107.59 107.612 107.615 107.652 107.655 107.652 107.645 107.555 107.525 107.72 108.145 107.892 107.825 107.85 107.887 107.905 107.905 107.915 107.9 107.935 107.945 107.952 107.987 108.037 108.095 108.172 108.19 108.157 108.122 108.115 108.085 108.065 108.092 108.12 108.122 108.167 108.182 108.19 108.157 108.15 108.117 108.112 108.1 108.16 108.185 108.24 108.275 108.215 108.16 108.13 108.087 108.062 108.065 108.027 108.05 108.015 108.01 107.985 107.96 107.917 107.87 107.825 107.815 107.802 107.857 107.825 107.782 107.792 107.705 107.637 107.597 107.547 107.515 107.475 107.472 107.455 107.437 107.337 107.34 107.287 107.232 107.15 107.05 106.967 106.855 106.715 106.62 106.532 106.422 106.325 106.162 107.082 107.69 106.147 105.372 105.245 105.107 104.867 104.742 104.62 104.402 104.045 103.787 103.577 103.4 103.277 103.107 103.055 102.82 102.595 102.38 102.135 101.927 101.7 101.482 101.245 101.072 100.912 100.697 100.552 100.347 100.117 99.875 99.547 99.262 98.98 98.665 98.345 98.037 97.727 97.34 96.957 96.595 96.197 95.82 95.42 95.01 94.605 94.217 93.852 93.442 93.065 92.625 92.285 91.807 91.345 90.95 90.62 90.24 89.862 89.582 89.355 89.172 88.992 88.875 88.84 89.332 88.415 87.722 87.751 90.226 98.961 100.739 101.633 102.929 99.417 97.997 90.592 90.265 90.653 90.358 90.425 90.547 90.684 92.624 100.817 102.824 104.096 104.151 98.252 93.065 93.018 93.115 93.16 93.186 93.196 93.241 94.513 95.064 94.192 94.265 94.45 94.578 94.762 95.062 95.361 95.283 95.219 95.204 95.182 95.191 95.197 95.202 95.205 95.227 95.236 95.262 95.533 95.797 96.599 96.41 96.025 95.989 96.003 96.116 96.219 96.312 96.362 96.426 96.54 96.609 96.689 96.771 96.873 96.944 97.029 97.078 97.131 97.204 97.289 97.369 97.408 97.432 97.515 97.621 97.688 97.71 97.767 97.877 97.947 97.99 98.058 98.163 98.211 98.26 98.351 98.423 98.47 98.52 98.55 98.607 98.683 98.76 98.833 98.91 99.027 99.08 99.155 99.23 99.295 99.355 99.463 99.59 99.675 99.702 99.79 99.933 100.015 100.11 100.232 100.335 100.365 100.43 100.515 100.555 100.615 100.708 100.805 100.882 100.945 101.015 101.065 101.15 101.228 101.338 101.443 101.525 101.61 101.693 101.768 101.857 101.92 101.99 102.077 102.195 102.283 102.315 102.357 102.425 102.5 102.545 102.615 102.777 102.88 102.915 102.98 103.075 103.18 103.257 103.368 103.488 103.598 103.71 103.79 103.87 103.938 104.035 104.137 104.188 104.23 104.327 104.49 104.645 105.658 107.47 105.298 105.018 105.138 105.255 105.39 105.515 105.615 105.698 105.783
107.735 107.708 107.73 107.737 107.765 107.73 107.732 107.732 107.77 107.747 107.755 107.74 107.722 107.72 107.707 107.677 107.682 107.652 107.622 107.595 107.565 107.545 107.532 107.515 107.492 107.48 107.457 107.447 107.455 107.43 107.452 107.427 107.435 107.425 107.407 107.395 107.395 107.372 107.362 107.36 107.362 107.325 107.31 107.26 107.315 107.255 107.27 107.217 107.232 107.235 107.237 107.202 107.217 107.142 107.132 107.142 107.382 108.077 108.857 109.332 108.522 107.622 107.377 107.41 107.465 107.512 107.557 107.53 107.515 107.412 107.377 107.665 107.872 107.627 107.695 107.747 107.762 107.802 107.83 107.847 107.852 107.857 107.857 107.862 107.912 107.98 108.082 108.147 108.125 108.092 108.082 108.047 108.02 108.035 108.072 108.117 108.137 108.175 108.17 108.185 108.177 108.117 108.125 108.105 108.137 108.202 108.227 108.292 108.295 108.22 108.172 108.137 108.077 108.052 108.06 108.07 108.1 108.075 108.067 108.055 108.007 107.98 107.917 107.905 107.877 107.877 107.91 107.887 107.872 107.832 107.73 107.702 107.65 107.607 107.582 107.532 107.535 107.502 107.46 107.44 107.427 107.357 107.285 107.237 107.135 107.052 106.922 106.825 106.72 106.64 106.535 106.43 106.515 107.965 107.08 106.307 105.525 105.312 105.21 104.962 104.84 104.677 104.477 104.13 103.912 103.707 103.56 103.437 103.29 103.172 102.985 102.752 102.565 102.31 102.12 101.845 101.587 101.382 101.222 101.022 100.817 100.657 100.435 100.197 99.962 99.662 99.347 99.107 98.735 98.42 98.11 97.752 97.4 97.05 96.655 96.285 95.91 95.47 95.057 94.635 94.227 93.84 93.512 93.085 92.727 92.262 91.9 91.51 91.097 90.667 90.287 89.887 89.62 89.412 89.205 89.062 88.927 88.824 89.355 90.204 87.712 87.707 88.58 95.629 98.915 99.921 100.429 99.803 96.104 90.586 90.448 90.825 92.036 91.692 90.548 92.585 97.007 100.699 103.229 102.905 99.693 94.854 92.961 93.074 93.047 93.079 93.157 93.191 93.193 93.62 94.698 94.078 94.22 94.244 94.337 94.888 95.53 95.381 95.322 95.214 95.182 95.157 95.159 95.182 95.182 95.213 95.218 95.222 95.248 95.385 95.612 96.291 96.234 95.922 95.867 95.903 96.018 96.126 96.221 96.262 96.321 96.424 96.512 96.584 96.663 96.754 96.843 96.921 96.99 97.04 97.109 97.196 97.272 97.323 97.343 97.432 97.528 97.593 97.625 97.669 97.762 97.868 97.9 97.963 98.055 98.11 98.167 98.265 98.338 98.385 98.45 98.488 98.537 98.6 98.682 98.77 98.848 98.947 99.01 99.103 99.167 99.215 99.292 99.382 99.503 99.577 99.632 99.713 99.86 99.935 100.052 100.152 100.247 100.298 100.37 100.438 100.473 100.545 100.62 100.732 100.817 100.872 100.95 101.005 101.075 101.15 101.26 101.353 101.445 101.533 101.605 101.665 101.755 101.817 101.882 101.975 102.077 102.185 102.22 102.255 102.337 102.427 102.473 102.565 102.738 102.827 102.868 102.945 103.065 103.158 103.24 103.33 103.448 103.552 103.647 103.732 103.795 103.88 103.973 104.083 104.13 104.165 104.265 104.423 104.94 106.228 106.16 104.805 104.945 105.06 105.193 105.325 105.452 105.555 105.628 105.715
107.528 107.535 107.553 107.557 107.582 107.547 107.592 107.587 107.615 107.605 107.61 107.597 107.557 107.592 107.582 107.567 107.54 107.535 107.497 107.482 107.477 107.447 107.43 107.4 107.377 107.36 107.345 107.332 107.315 107.325 107.36 107.325 107.332 107.317 107.31 107.307 107.277 107.297 107.277 107.262 107.245 107.222 107.235 107.192 107.212 107.137 107.175 107.142 107.145 107.12 107.092 107.132 107.15 107.105 107.085 107.047 107.06 107.025 107.142 107.652 108.212 109.2 109.35 108.252 107.38 107.345 107.347 107.39 107.33 107.272 107.302 107.49 107.542 107.437 107.53 107.652 107.677 107.69 107.722 107.755 107.777 107.792 107.797 107.802 107.87 107.932 108.02 108.09 108.082 108.052 108.05 108.04 108 108.017 108.06 108.097 108.137 108.175 108.185 108.192 108.172 108.127 108.092 108.122 108.157 108.207 108.287 108.342 108.32 108.242 108.185 108.177 108.12 108.077 108.097 108.1 108.127 108.11 108.117 108.097 108.075 108.03 107.965 107.967 107.925 107.94 107.975 107.955 107.917 107.86 107.817 107.735 107.732 107.66 107.652 107.605 107.615 107.57 107.522 107.507 107.482 107.425 107.392 107.31 107.225 107.14 107.032 106.925 106.84 106.765 106.647 106.52 106.84 108.462 106.36 105.867 105.732 105.57 105.327 105.077 104.955 104.81 104.535 104.222 104.012 103.817 103.707 103.545 103.447 103.342 103.13 102.91 102.71 102.525 102.292 102.025 101.845 101.552 101.337 101.12 100.92 100.792 100.59 100.35 100.08 99.762 99.462 99.182 98.857 98.507 98.175 97.787 97.482 97.107 96.725 96.337 95.947 95.54 95.127 94.69 94.29 93.907 93.53 93.125 92.795 92.365 92.032 91.725 91.285 90.722 90.283 89.883 89.614 89.398 89.243 89.094 89.007 88.909 89.057 90.703 88.212 87.645 87.631 89.643 93.798 95.726 98.697 95.235 89.92 90.28 90.895 92.875 95.23 93.944 91.398 94.905 97.663 93.941 93.958 96.812 92.636 92.466 92.499 93.319 93.152 93.465 93.051 93.157 93.189 93.649 96.093 94.115 94.114 94.073 94.265 94.463 95.353 95.33 95.408 95.198 95.143 95.119 95.108 95.137 95.157 95.19 95.207 95.219 95.211 95.35 95.477 95.88 95.95 95.791 95.781 95.795 95.929 96.023 96.106 96.162 96.235 96.336 96.439 96.502 96.579 96.665 96.751 96.839 96.915 96.957 97.016 97.11 97.199 97.226 97.25 97.321 97.418 97.488 97.533 97.577 97.683 97.79 97.838 97.902 97.995 98.07 98.13 98.23 98.312 98.365 98.412 98.455 98.488 98.558 98.655 98.72 98.798 98.882 98.96 99.02 99.08 99.135 99.193 99.272 99.418 99.518 99.555 99.65 99.792 99.85 99.96 100.077 100.155 100.202 100.438 100.34 100.395 100.475 100.565 100.677 100.768 100.83 100.903 100.952 101.022 101.11 101.19 101.298 101.387 101.45 101.522 101.597 101.68 101.747 101.807 101.893 101.988 102.092 102.12 102.16 102.238 102.307 102.37 102.485 102.673 102.76 102.807 102.902 103.033 103.122 103.205 103.3 103.435 103.537 103.63 103.715 103.78 103.853 103.955 104.03 104.073 104.105 104.208 104.372 105.113 105.872 105.082 104.743 104.882 105.01 105.135 105.272 105.39 105.488 105.577 105.65
107.34 107.343 107.383 107.357 107.407 107.37 107.41 107.417 107.445 107.422 107.447 107.417 107.417 107.42 107.415 107.4 107.445 107.41 107.392 107.365 107.337 107.297 107.302 107.305 107.28 107.27 107.262 107.237 107.252 107.227 107.205 107.227 107.255 107.237 107.225 107.202 107.195 107.185 107.185 107.142 107.132 107.125 107.115 107.117 107.13 107.065 107.057 107.067 107.047 107.045 107.027 107.047 107.032 107.005 107.012 107.002 107.012 106.967 106.977 106.937 106.975 107.115 108.372 109.532 109.685 108.79 108.287 107.295 107.212 107.18 107.267 107.83 107.427 107.385 107.492 107.547 107.585 107.607 107.632 107.672 107.702 107.705 107.702 107.722 107.795 107.887 107.977 108.045 108.032 108.02 107.997 107.98 107.992 108.017 108.042 108.095 108.122 108.147 108.165 108.185 108.15 108.125 108.11 108.117 108.167 108.237 108.305 108.355 108.325 108.25 108.177 108.17 108.142 108.16 108.145 108.15 108.185 108.135 108.14 108.122 108.115 108.07 108.03 108.032 107.982 108.022 108.02 107.997 107.985 107.925 107.837 107.785 107.747 107.692 107.695 107.67 107.687 107.652 107.602 107.575 107.555 107.492 107.445 107.39 107.302 107.207 107.117 107.025 106.945 106.877 106.765 106.595 107.145 107.905 105.997 105.967 105.957 105.837 105.44 105.245 105.115 104.93 104.617 104.397 104.165 103.977 103.847 103.705 103.612 103.49 103.265 103.05 102.885 102.625 102.335 102.06 101.84 101.597 101.45 101.23 101.002 100.887 100.707 100.44 100.167 99.865 99.577 99.307 98.915 98.577 98.22 97.817 97.487 97.172 96.765 96.362 96.01 95.582 95.197 94.712 94.357 93.972 93.62 93.2 92.908 92.525 92.205 91.789 91.24 90.669 90.257 89.892 89.627 89.43 89.276 89.126 89.017 88.962 88.931 89.842 89.293 87.584 87.616 87.511 88.156 88.383 92.216 89.923 90.803 91.743 92.218 92.151 93.533 96.522 96.184 94.236 93.411 95.968 97.175 96.212 91.888 92.27 92.766 92.491 92.964 94.154 93.035 93.087 93.197 94.296 96.915 94.702 93.986 93.983 94.292 94.224 95.18 95.316 95.331 95.172 95.131 95.103 95.092 95.121 95.153 95.185 95.199 95.2 95.19 95.167 95.429 95.485 95.599 95.619 95.646 95.69 95.813 95.93 96.026 96.081 96.132 96.242 96.341 96.414 96.482 96.564 96.674 96.761 96.822 96.871 96.935 97.033 97.135 97.165 97.202 97.27 97.355 97.465 97.515 97.555 97.655 97.75 97.807 97.878 97.985 98.057 98.107 98.198 98.275 98.31 98.353 98.39 98.42 98.48 98.56 98.65 98.723 98.81 98.89 98.96 99.012 99.07 99.105 99.198 99.332 99.427 99.48 99.558 99.682 99.777 99.893 100.015 100.09 100.13 100.223 100.295 100.337 100.425 100.507 100.607 100.67 100.735 100.812 100.878 100.967 101.067 101.155 101.238 101.325 101.402 101.458 101.545 101.64 101.685 101.743 101.827 101.935 102.022 102.052 102.105 102.165 102.23 102.302 102.428 102.61 102.685 102.74 102.84 102.965 103.06 103.14 103.253 103.372 103.497 103.583 103.658 103.73 103.822 103.917 103.973 104.003 104.055 104.16 104.317 105.223 105.872 104.592 104.675 104.825 104.935 105.065 105.21 105.325 105.412 105.51 105.583
107.15 107.153 107.203 107.175 107.205 107.195 107.25 107.25 107.285 107.227 107.282 107.267 107.275 107.265 107.252 107.255 107.267 107.227 107.242 107.2 107.217 107.185 107.175 107.167 107.162 107.132 107.135 107.137 107.112 107.137 107.14 107.135 107.162 107.117 107.142 107.12 107.112 107.117 107.097 107.077 107.05 107.047 107 107.012 106.997 107.012 106.992 106.997 106.992 106.932 106.97 106.945 106.895 106.915 106.867 106.89 106.89 106.912 106.907 106.872 106.865 106.862 106.837 107.067 107.372 108.835 109.322 108.177 108.327 107.367 107.58 108.232 107.837 107.595 107.525 107.525 107.537 107.575 107.607 107.637 107.645 107.645 107.665 107.665 107.73 107.837 107.952 107.99 107.992 107.965 107.955 107.952 107.975 108.007 108.04 108.075 108.11 108.145 108.157 108.167 108.142 108.127 108.112 108.152 108.192 108.27 108.33 108.39 108.332 108.27 108.247 108.197 108.177 108.197 108.215 108.23 108.252 108.225 108.222 108.172 108.162 108.15 108.092 108.082 108.09 108.127 108.117 108.09 108.052 107.947 107.905 107.86 107.795 107.747 107.737 107.747 107.725 107.712 107.672 107.652 107.63 107.557 107.515 107.475 107.365 107.272 107.165 107.095 107.045 106.97 106.87 106.692 107.607 108.81 106.607 106.27 106.28 105.84 105.575 105.405 105.292 105.055 104.75 104.507 104.315 104.102 104 103.847 103.777 103.612 103.38 103.147 102.775 102.427 102.1 101.772 101.54 101.397 101.272 101.047 100.852 100.76 100.68 100.442 100.22 99.912 99.652 99.372 99.015 98.662 98.317 97.925 97.58 97.22 96.792 96.402 96.027 95.589 95.232 94.782 94.478 94.099 93.724 93.373 93.006 92.61 92.297 91.767 91.151 90.65 90.295 89.912 89.65 89.442 89.315 89.21 89.149 89.031 88.972 89.319 89.388 87.54 87.585 87.508 87.755 87.756 89.948 93.908 93.428 92.752 92.062 91.817 94.944 96.268 92.987 90.496 90.775 96.072 97.137 96.364 92.098 91.981 92.217 92.545 92.473 94.484 95.165 93.42 94.036 93.831 96.41 94.184 93.828 93.875 93.95 94.062 95.006 95.353 95.329 95.144 95.125 95.101 95.103 95.12 95.143 95.169 95.165 95.176 95.175 95.14 95.286 95.347 95.418 95.471 95.53 95.579 95.708 95.832 95.936 95.985 96.043 96.147 96.252 96.338 96.423 96.518 96.618 96.7 96.783 96.845 96.908 96.995 97.103 97.158 97.18 97.225 97.325 97.413 97.47 97.515 97.598 97.688 97.755 97.83 97.925 97.995 98.045 98.13 98.198 98.245 98.295 98.325 98.353 98.408 98.495 98.592 98.67 98.753 98.833 98.9 98.973 99.005 99.048 99.128 99.268 99.37 99.41 99.497 99.613 99.713 99.827 99.945 100.025 100.09 100.177 100.22 100.287 100.38 100.465 100.565 100.628 100.69 100.747 100.808 100.88 100.982 101.06 101.155 101.247 101.317 101.395 101.493 101.562 101.625 101.69 101.775 101.893 101.975 102.005 102.052 102.128 102.188 102.25 102.372 102.548 102.628 102.683 102.783 102.878 102.967 103.052 103.168 103.3 103.408 103.495 103.592 103.652 103.757 103.845 103.902 103.928 103.995 104.13 104.272 105.35 105.89 104.507 104.607 104.753 104.872 104.993 105.14 105.257 105.34 105.415 105.5
106.955 106.958 107.003 107.01 107.017 107.01 107.047 107.062 107.097 107.107 107.102 107.105 107.115 107.09 107.095 107.085 107.125 107.1 107.107 107.1 107.062 107.032 107.042 107.027 107.032 107.025 107.02 107.027 106.982 106.992 107.012 107.022 107.045 107.015 107.052 107.03 107.007 107.012 106.97 106.97 106.97 106.922 106.927 106.927 106.92 106.907 106.862 106.882 106.9 106.882 106.902 106.83 106.815 106.815 106.797 106.802 106.81 106.802 106.802 106.81 106.83 106.857 106.8 106.772 106.785 106.867 108.177 109.165 109.642 108.917 109.135 109.372 107.835 107.705 107.567 107.565 107.53 107.6 107.592 107.602 107.585 107.565 107.592 107.61 107.692 107.787 107.902 107.927 107.935 107.932 107.937 107.945 107.935 108 108.047 108.095 108.115 108.145 108.142 108.15 108.137 108.12 108.127 108.165 108.232 108.305 108.385 108.422 108.367 108.305 108.3 108.27 108.265 108.237 108.25 108.312 108.287 108.3 108.285 108.26 108.232 108.182 108.17 108.147 108.157 108.2 108.192 108.167 108.12 108.05 107.98 107.915 107.865 107.86 107.827 107.855 107.787 107.79 107.737 107.73 107.707 107.642 107.62 107.547 107.447 107.355 107.245 107.175 107.137 107.05 106.95 106.827 107.877 107.912 106.352 106.352 106.335 106.02 105.74 105.567 105.435 105.157 104.91 104.7 104.512 104.327 104.205 104.04 103.92 103.785 103.522 103.067 102.415 101.98 101.655 101.442 101.292 101.195 101.025 100.855 100.687 100.565 100.415 100.255 100.075 99.935 99.752 99.482 99.097 98.78 98.44 98.038 97.656 97.339 96.889 96.479 96.046 95.637 95.259 94.777 94.436 94.099 93.79 93.515 93.094 92.732 92.364 91.799 91.206 90.747 90.367 90.017 89.72 89.531 89.341 89.227 89.16 89.115 89.02 88.963 89.364 87.583 87.549 88.39 91.757 91.869 92.398 94.618 93.681 94.882 95.529 91.85 93.268 91.09 89.898 89.939 90.891 95.824 97.14 96.532 93.526 91.391 91.949 92.231 93.187 98.602 97.231 93.753 97.947 95.011 94.092 94.206 94.371 93.749 93.857 93.935 94.414 95.116 95.174 95.181 95.099 95.103 95.118 95.111 95.137 95.145 95.16 95.159 95.152 95.607 95.331 95.232 95.295 95.363 95.427 95.488 95.619 95.745 95.87 95.952 95.995 96.095 96.208 96.312 96.397 96.478 96.582 96.688 96.762 96.82 96.875 96.963 97.033 97.088 97.118 97.167 97.255 97.345 97.408 97.458 97.55 97.632 97.693 97.77 97.865 97.93 97.982 98.075 98.132 98.19 98.245 98.28 98.3 98.368 98.448 98.542 98.618 98.69 98.768 98.855 98.915 98.952 98.997 99.073 99.202 99.307 99.325 99.43 99.537 99.643 99.762 99.882 99.952 100.022 100.12 100.168 100.225 100.323 100.393 100.5 100.577 100.63 100.685 100.728 100.805 100.905 100.99 101.09 101.165 101.225 101.312 101.4 101.475 101.535 101.595 101.698 101.827 101.902 101.94 102.012 102.082 102.132 102.198 102.33 102.488 102.575 102.64 102.725 102.835 102.92 103.01 103.118 103.247 103.353 103.42 103.525 103.592 103.682 103.775 103.833 103.87 103.952 104.073 104.182 105.575 105.757 105.033 104.56 104.695 104.785 104.928 105.065 105.168 105.255 105.34 105.415
106.75 106.785 106.805 106.795 106.827 106.837 106.862 106.87 106.885 106.882 106.925 106.932 106.935 106.922 106.94 106.917 106.957 106.945 106.937 106.942 106.922 106.902 106.915 106.937 106.91 106.895 106.865 106.905 106.877 106.882 106.905 106.912 106.92 106.905 106.905 106.897 106.907 106.907 106.897 106.865 106.88 106.842 106.82 106.832 106.812 106.787 106.787 106.792 106.8 106.782 106.797 106.78 106.76 106.757 106.712 106.752 106.72 106.712 106.725 106.71 106.73 106.73 106.765 106.745 106.767 106.712 106.727 106.817 107.207 108.13 108.557 108.667 108.19 107.635 107.505 107.575 107.62 107.59 107.59 107.565 107.57 107.525 107.56 107.602 107.66 107.772 107.87 107.875 107.875 107.907 107.945 107.94 107.955 107.99 108.032 108.067 108.112 108.147 108.157 108.147 108.14 108.145 108.135 108.182 108.257 108.312 108.412 108.412 108.365 108.322 108.312 108.325 108.31 108.292 108.307 108.345 108.335 108.347 108.33 108.327 108.297 108.245 108.247 108.232 108.212 108.255 108.265 108.232 108.17 108.11 108.072 108.025 107.982 107.962 107.907 107.907 107.902 107.85 107.835 107.817 107.767 107.73 107.667 107.597 107.547 107.45 107.362 107.265 107.207 107.13 107.04 107.057 108.165 107.305 106.527 106.47 106.325 106.147 105.892 105.71 105.575 105.295 105.067 104.857 104.692 104.497 104.385 104.26 104.132 103.967 103.7 103.072 102.31 101.812 101.542 101.205 101.11 100.997 100.842 100.685 100.532 100.367 100.225 100.075 99.932 99.786 99.655 99.405 99.113 98.849 98.519 98.09 97.713 97.349 96.942 96.466 96.056 95.673 95.272 94.842 94.46 94.122 93.823 93.595 93.181 92.792 92.321 91.772 91.238 90.816 90.413 90.041 89.761 89.541 89.369 89.267 89.184 89.139 89.079 89 89.507 87.511 87.488 91.148 92.592 93.142 93.638 92.403 90.412 93.252 93.113 90.002 90.003 90.231 90.686 90.221 90.71 95.325 96.98 96.673 94.92 93.39 93.407 92.422 92.974 98.247 96.187 97.418 100.48 96.528 93.517 94.159 95.155 93.668 93.737 93.76 93.806 93.994 94.671 95.117 95.101 95.104 95.104 95.105 95.123 95.149 95.14 95.144 95.141 95.167 95.166 95.157 95.238 95.287 95.32 95.408 95.555 95.692 95.802 95.905 95.96 96.057 96.173 96.27 96.35 96.44 96.518 96.615 96.685 96.755 96.812 96.878 96.952 97.015 97.065 97.113 97.195 97.283 97.35 97.408 97.5 97.577 97.64 97.713 97.818 97.88 97.938 98.015 98.077 98.12 98.185 98.235 98.262 98.312 98.395 98.475 98.55 98.632 98.698 98.772 98.835 98.885 98.923 98.99 99.125 99.238 99.265 99.38 99.478 99.647 99.675 99.798 99.868 99.963 100.042 100.083 100.162 100.24 100.315 100.415 100.48 100.55 100.595 100.798 100.735 100.885 100.912 100.995 101.08 101.137 101.215 101.292 101.382 101.45 101.495 101.607 101.753 101.81 101.85 101.912 101.982 102.04 102.122 102.26 102.425 102.505 102.577 102.688 102.795 102.88 102.985 103.088 103.217 103.325 103.382 103.478 103.545 103.632 103.725 103.753 103.815 103.885 104.018 104.105 105.943 105.1 104.335 104.512 104.645 104.735 104.862 104.997 105.1 105.185 105.26 105.338
106.56 106.555 106.615 106.592 106.645 106.64 106.695 106.667 106.722 106.705 106.71 106.722 106.722 106.74 106.77 106.757 106.762 106.762 106.76 106.755 106.765 106.752 106.757 106.752 106.737 106.762 106.74 106.765 106.757 106.775 106.782 106.787 106.79 106.785 106.812 106.82 106.782 106.787 106.8 106.767 106.757 106.78 106.742 106.73 106.72 106.69 106.685 106.697 106.655 106.69 106.68 106.687 106.682 106.707 106.685 106.702 106.662 106.627 106.635 106.627 106.622 106.67 106.667 106.69 106.672 106.702 106.682 106.677 106.685 106.742 107.147 108.057 108.45 107.477 107.422 107.605 107.697 107.707 107.625 107.555 107.527 107.512 107.507 107.582 107.62 107.705 107.825 107.79 107.822 107.92 107.985 107.995 107.99 108.025 108.052 108.067 108.1 108.137 108.147 108.127 108.12 108.127 108.155 108.197 108.29 108.335 108.42 108.43 108.367 108.355 108.34 108.325 108.37 108.352 108.4 108.405 108.405 108.405 108.382 108.362 108.34 108.312 108.312 108.3 108.315 108.357 108.342 108.315 108.25 108.175 108.14 108.082 108.06 108.05 108.017 108.01 107.975 107.935 107.892 107.892 107.845 107.812 107.752 107.65 107.622 107.517 107.435 107.345 107.275 107.21 107.107 107.265 108.54 106.665 106.562 106.55 106.275 106.155 105.96 105.845 105.69 105.417 105.22 105.032 104.865 104.705 104.57 104.47 104.325 104.125 103.9 103.327 102.635 102.117 101.727 101.445 101.32 101.232 101.042 100.848 100.636 100.367 100.152 99.993 99.835 99.687 99.541 99.34 99.143 98.816 98.496 98.133 97.768 97.369 96.93 96.488 96.088 95.707 95.3 94.839 94.498 94.194 93.898 93.664 93.251 92.824 92.265 91.684 91.196 90.755 90.407 90.073 89.789 89.543 89.373 89.241 89.172 89.107 89.052 89.024 89.079 87.963 87.436 90.711 92.156 92.841 92.926 91.647 89.858 90.103 89.986 89.671 89.722 93.384 96.789 96.297 93.142 95.235 96.813 96.841 94.761 93.449 93.438 92.138 92.339 94.804 97.544 98.741 100.89 98.529 95.547 93.431 93.846 93.549 93.611 93.648 93.697 93.857 94.462 95.082 95.078 95.064 95.104 95.113 95.125 95.124 95.145 95.153 95.173 95.193 95.173 95.14 95.158 95.202 95.26 95.375 95.473 95.603 95.728 95.832 95.86 95.95 96.092 96.2 96.272 96.348 96.455 96.548 96.632 96.688 96.755 96.817 96.885 96.948 97.01 97.062 97.145 97.223 97.285 97.338 97.433 97.507 97.573 97.625 97.708 97.805 97.875 97.95 98.035 98.062 98.113 98.17 98.213 98.255 98.333 98.417 98.555 98.582 98.652 98.723 98.783 98.825 98.87 98.942 99.055 99.175 99.205 99.3 99.39 99.48 99.603 99.72 99.79 99.868 99.952 100.012 100.077 100.15 100.235 100.335 100.4 100.46 100.503 100.575 100.675 100.777 100.825 100.923 100.993 101.055 101.115 101.2 101.285 101.35 101.423 101.522 101.66 101.725 101.765 101.823 101.893 101.957 102.022 102.165 102.332 102.438 102.507 102.607 102.725 102.802 102.91 103.038 103.165 103.27 103.353 103.42 103.49 103.598 103.683 103.715 103.757 103.833 103.96 104.027 105.537 104.6 104.31 104.465 104.582 104.685 104.812 104.938 105.035 105.12 105.202 105.285
106.368 106.368 106.415 106.405 106.43 106.45 106.475 106.488 106.485 106.545 106.533 106.533 106.553 106.555 106.58 106.573 106.59 106.613 106.598 106.6 106.598 106.585 106.578 106.595 106.603 106.593 106.618 106.61 106.635 106.635 106.648 106.648 106.678 106.658 106.708 106.713 106.693 106.698 106.653 106.67 106.668 106.683 106.665 106.635 106.628 106.613 106.58 106.625 106.603 106.618 106.573 106.59 106.598 106.618 106.605 106.605 106.567 106.577 106.542 106.55 106.54 106.568 106.585 106.6 106.635 106.647 106.68 106.655 106.647 106.67 106.665 106.85 107.772 108.322 107.762 107.598 107.622 107.715 107.6 107.587 107.495 107.442 107.473 107.537 107.615 107.67 107.747 107.715 107.783 107.88 107.965 107.988 108.03 108.07 108.088 108.113 108.12 108.135 108.17 108.162 108.132 108.15 108.168 108.21 108.31 108.38 108.465 108.437 108.395 108.392 108.362 108.357 108.36 108.375 108.435 108.455 108.452 108.462 108.46 108.44 108.415 108.397 108.397 108.397 108.417 108.44 108.417 108.392 108.317 108.24 108.217 108.157 108.132 108.125 108.102 108.102 108.102 108.04 108.035 107.98 107.942 107.902 107.82 107.762 107.687 107.575 107.487 107.43 107.36 107.285 107.165 107.637 108.042 106.855 106.647 106.642 106.425 106.19 106.032 105.952 105.762 105.497 105.335 105.162 105.02 104.885 104.737 104.642 104.485 104.305 104.092 103.762 103.197 102.752 102.504 102.31 102.08 101.74 101.383 101.122 100.852 100.528 100.247 100.062 99.876 99.668 99.458 99.26 99.078 98.814 98.472 98.196 97.797 97.382 96.958 96.528 96.139 95.76 95.341 94.902 94.518 94.266 93.946 93.741 93.297 92.78 92.139 91.594 91.133 90.722 90.403 90.088 89.784 89.565 89.368 89.25 89.157 89.087 89.046 88.926 88.791 89.005 87.379 87.714 89.852 92.146 91.991 90.39 89.474 89.627 90.399 89.629 89.671 93.238 96.806 96.449 95.339 95.499 96.641 96.983 95.578 94.265 94.324 92.671 92.289 92.342 97.701 101.722 101.383 100.003 94.612 93.585 93.418 93.474 93.527 93.576 93.608 93.661 94.183 94.926 95.11 95.067 95.065 95.103 95.13 95.145 95.16 95.183 95.158 95.168 95.147 95.07 95.065 95.085 95.152 95.265 95.353 95.48 95.62 95.723 95.775 95.89 96.022 96.135 96.198 96.283 96.39 96.463 96.535 96.628 96.682 96.743 96.812 96.87 96.925 96.98 97.062 97.145 97.213 97.27 97.35 97.445 97.503 97.557 97.66 97.755 97.817 97.887 97.973 98.022 98.085 98.128 98.175 98.21 98.275 98.378 98.488 98.545 98.597 98.667 98.732 98.772 98.823 98.897 99.015 99.135 99.167 99.24 99.315 99.418 99.52 99.64 99.705 99.8 99.895 99.938 100.01 100.085 100.162 100.29 100.348 100.393 100.44 100.503 100.59 100.665 100.753 100.818 100.893 100.96 101.042 101.118 101.2 101.268 101.342 101.448 101.57 101.64 101.688 101.765 101.83 101.878 101.957 102.098 102.253 102.353 102.45 102.533 102.64 102.73 102.845 102.965 103.09 103.195 103.277 103.348 103.43 103.522 103.607 103.647 103.693 103.768 103.923 104.12 105.525 104.253 104.283 104.412 104.52 104.64 104.76 104.875 104.965 105.06 105.132 105.21
106.16 106.158 106.19 106.215 106.238 106.278 106.298 106.293 106.305 106.333 106.35 106.348 106.35 106.348 106.37 106.415 106.398 106.41 106.41 106.43 106.41 106.413 106.423 106.438 106.435 106.438 106.473 106.468 106.468 106.49 106.5 106.54 106.53 106.533 106.555 106.578 106.578 106.583 106.57 106.578 106.558 106.548 106.535 106.528 106.533 106.55 106.54 106.518 106.505 106.49 106.493 106.51 106.49 106.515 106.507 106.512 106.507 106.55 106.51 106.505 106.482 106.495 106.493 106.485 106.527 106.582 106.595 106.61 106.652 106.667 106.685 106.695 106.722 107.3 108.155 108.125 107.57 107.457 107.535 107.562 107.478 107.405 107.397 107.48 107.587 107.72 107.725 107.683 107.728 107.855 107.935 107.982 108.025 108.087 108.097 108.112 108.125 108.147 108.155 108.147 108.152 108.158 108.2 108.245 108.325 108.397 108.46 108.455 108.412 108.427 108.402 108.412 108.425 108.427 108.465 108.487 108.475 108.52 108.502 108.507 108.475 108.465 108.472 108.465 108.477 108.487 108.502 108.44 108.367 108.325 108.262 108.242 108.22 108.232 108.175 108.172 108.152 108.117 108.075 108.092 108.037 107.985 107.922 107.837 107.747 107.642 107.567 107.492 107.435 107.355 107.227 107.855 108.472 108.12 106.742 106.572 106.487 106.277 106.12 106.052 105.857 105.59 105.445 105.31 105.177 105.035 104.897 104.756 104.675 104.453 104.252 104.073 103.866 103.422 103.211 103.037 102.816 102.324 101.854 101.501 101.109 100.77 100.468 100.208 100.002 99.736 99.512 99.287 99.054 98.802 98.516 98.19 97.834 97.442 96.952 96.516 96.127 95.754 95.349 94.943 94.573 94.32 94.051 93.795 93.287 92.686 92.076 91.505 91.102 90.714 90.441 90.076 89.814 89.57 89.362 89.221 89.141 89.076 88.995 88.913 88.695 89.292 87.389 87.363 87.296 88.782 91.138 89.308 89.391 89.497 89.538 89.582 89.637 93.559 96.768 96.436 95.621 95.646 96.48 97.058 95.937 95.476 95.515 93.156 92.336 93.489 99.86 100.832 100.314 100.858 93.374 93.311 93.374 93.432 93.505 93.555 93.558 93.577 93.942 94.65 95.055 95.08 95.107 95.135 95.105 95.075 95.073 95.007 94.993 95 94.955 94.89 94.895 94.967 95.057 95.162 95.26 95.39 95.53 95.643 95.7 95.792 95.935 96.045 96.122 96.202 96.307 96.397 96.452 96.51 96.585 96.662 96.738 96.792 96.847 96.903 97 97.085 97.15 97.213 97.29 97.393 97.46 97.512 97.61 97.717 97.775 97.842 97.927 97.993 98.037 98.092 98.132 98.188 98.25 98.327 98.4 98.49 98.56 98.613 98.69 98.743 98.77 98.85 98.958 99.075 99.122 99.18 99.298 99.378 99.48 99.595 99.658 99.745 99.825 99.887 99.958 100.03 100.118 100.193 100.257 100.308 100.355 100.435 100.518 100.61 100.675 100.738 100.812 100.887 100.96 101.035 101.118 101.173 101.245 101.36 101.493 101.572 101.62 101.695 101.728 101.802 101.882 102.04 102.175 102.28 102.372 102.465 102.575 102.662 102.785 102.908 103.015 103.113 103.188 103.277 103.368 103.447 103.52 103.567 103.625 103.705 103.848 104.143 105.493 104.385 104.243 104.345 104.463 104.58 104.713 104.832 104.913 104.997 105.057 105.14
105.94 105.995 106.023 106.01 106.043 106.038 106.08 106.108 106.11 106.14 106.153 106.173 106.163 106.185 106.22 106.238 106.198 106.235 106.198 106.243 106.23 106.258 106.253 106.268 106.263 106.288 106.288 106.298 106.305 106.35 106.33 106.385 106.383 106.403 106.418 106.443 106.443 106.483 106.43 106.455 106.43 106.455 106.42 106.428 106.43 106.42 106.393 106.435 106.403 106.42 106.42 106.428 106.393 106.41 106.43 106.43 106.415 106.45 106.458 106.448 106.442 106.443 106.467 106.43 106.445 106.473 106.533 106.57 106.6 106.662 106.7 106.722 106.713 106.743 106.885 107.81 108.647 107.938 107.585 107.397 107.402 107.375 107.355 107.445 107.565 107.683 107.65 107.68 107.71 107.812 107.89 107.965 108.04 108.128 108.125 108.165 108.11 108.13 108.128 108.143 108.143 108.15 108.185 108.28 108.355 108.427 108.487 108.46 108.415 108.45 108.445 108.452 108.445 108.47 108.542 108.532 108.552 108.565 108.545 108.53 108.5 108.485 108.497 108.502 108.545 108.562 108.56 108.512 108.435 108.382 108.327 108.3 108.275 108.285 108.265 108.272 108.217 108.177 108.195 108.157 108.11 108.032 107.985 107.917 107.835 107.71 107.627 107.567 107.487 107.417 107.265 108.165 109.287 106.927 106.812 106.72 106.542 106.395 106.26 106.185 105.947 105.693 105.592 105.438 105.331 105.167 105.019 104.89 104.7 104.561 104.397 104.171 103.998 103.842 103.607 103.401 103.215 102.841 102.307 101.874 101.536 101.2 100.9 100.588 100.279 100 99.699 99.449 99.224 98.959 98.674 98.354 97.902 97.433 96.969 96.521 96.145 95.712 95.351 94.978 94.633 94.355 94.166 93.846 93.253 92.607 92.009 91.489 91.072 90.738 90.447 90.085 89.802 89.55 89.335 89.211 89.099 89.004 88.933 88.852 88.69 90.071 88.017 87.313 87.269 88.524 91.107 89.197 89.367 89.665 89.536 89.562 89.606 94.624 96.965 96.824 96.746 96.746 96.799 97.179 96.759 96.754 96.777 94.025 92.278 93.06 99.339 101.395 101.369 102.16 94.36 93.262 93.332 93.395 93.463 93.51 93.515 93.527 93.675 94.405 94.817 94.933 94.91 94.89 94.838 94.745 94.665 94.632 94.65 94.618 94.655 94.673 94.772 94.887 94.99 95.07 95.193 95.325 95.473 95.567 95.64 95.725 95.853 95.96 96.027 96.125 96.24 96.312 96.38 96.438 96.507 96.59 96.67 96.75 96.8 96.85 96.94 97.037 97.115 97.168 97.245 97.353 97.423 97.478 97.577 97.67 97.738 97.798 97.882 97.938 97.993 98.045 98.082 98.13 98.195 98.27 98.35 98.45 98.515 98.58 98.647 98.692 98.75 98.805 98.908 99.02 99.088 99.165 99.28 99.368 99.485 99.57 99.64 99.732 99.802 99.865 99.927 99.988 100.065 100.132 100.202 100.232 100.298 100.365 100.445 100.525 100.595 100.662 100.728 100.775 100.85 100.93 101.022 101.085 101.158 101.293 101.415 101.478 101.55 101.61 101.665 101.73 101.82 101.988 102.13 102.232 102.325 102.42 102.525 102.635 102.753 102.875 102.982 103.06 103.14 103.215 103.3 103.397 103.465 103.5 103.542 103.637 103.792 104.295 105.198 104.077 104.18 104.285 104.4 104.53 104.658 104.77 104.835 104.915 104.985 105.082
105.755 105.8 105.778 105.85 105.853 105.883 105.898 105.918 105.925 105.94 105.963 105.965 105.973 106.015 106 106.03 106.028 106.063 106.063 106.063 106.058 106.07 106.073 106.11 106.08 106.125 106.108 106.135 106.185 106.193 106.193 106.225 106.248 106.253 106.283 106.29 106.315 106.303 106.313 106.335 106.33 106.318 106.295 106.308 106.308 106.288 106.31 106.305 106.32 106.335 106.335 106.335 106.335 106.355 106.33 106.33 106.368 106.368 106.365 106.36 106.397 106.387 106.4 106.38 106.435 106.43 106.428 106.497 106.56 106.602 106.645 106.688 106.753 106.765 106.785 106.798 106.967 108.025 108.033 109.097 108.55 107.24 107.3 107.417 107.548 107.618 107.607 107.618 107.665 107.755 107.86 107.915 108.007 108.118 108.14 108.162 108.275 108.185 108.132 108.11 108.107 108.13 108.195 108.312 108.38 108.49 108.52 108.495 108.442 108.462 108.455 108.465 108.467 108.517 108.557 108.58 108.597 108.612 108.607 108.592 108.555 108.557 108.55 108.582 108.62 108.63 108.625 108.562 108.467 108.43 108.382 108.365 108.367 108.35 108.35 108.34 108.275 108.252 108.242 108.23 108.157 108.11 108.037 107.96 107.872 107.792 107.722 107.63 107.555 107.46 107.317 108.49 108.612 107.227 107.015 106.728 106.599 106.449 106.361 106.215 106.014 105.844 105.677 105.529 105.46 105.313 105.211 105.037 104.867 104.663 104.517 104.29 104.14 103.951 103.768 103.543 103.37 103.043 102.642 102.225 101.963 101.647 101.362 101.024 100.665 100.385 100.067 99.76 99.504 99.228 98.863 98.422 97.96 97.495 97.026 96.559 96.11 95.734 95.36 95.011 94.694 94.428 94.209 93.777 93.197 92.562 92.027 91.464 91.078 90.729 90.431 90.045 89.764 89.527 89.306 89.161 89.033 88.959 88.876 88.842 88.695 89.466 87.998 87.238 87.235 87.873 89.057 89.066 89.33 89.942 90.031 89.512 89.538 95.255 96.796 96.814 96.792 96.787 96.874 96.91 96.906 96.928 96.998 94.387 92.143 92.23 97.402 101.268 101.915 101.885 96.417 93.14 93.198 93.217 93.247 93.262 93.262 93.265 93.285 93.887 94.355 94.43 94.382 94.262 94.19 94.135 94.15 94.215 94.312 94.41 94.51 94.58 94.682 94.81 94.92 95.027 95.132 95.25 95.393 95.49 95.573 95.652 95.78 95.887 95.945 96.04 96.158 96.245 96.317 96.37 96.443 96.52 96.6 96.68 96.75 96.805 96.887 96.982 97.062 97.115 97.205 97.325 97.38 97.42 97.535 97.632 97.695 97.757 97.84 97.885 97.94 97.99 98.033 98.09 98.153 98.232 98.317 98.415 98.488 98.55 98.618 98.685 98.715 98.765 98.85 98.997 99.062 99.162 99.265 99.355 99.475 99.55 99.612 99.72 99.762 99.83 99.89 99.958 100.022 100.088 100.145 100.18 100.235 100.302 100.378 100.445 100.525 100.577 100.622 100.693 100.76 100.842 100.948 101.012 101.083 101.217 101.332 101.423 101.488 101.557 101.605 101.67 101.785 101.938 102.09 102.19 102.277 102.382 102.478 102.583 102.705 102.83 102.938 103.018 103.097 103.167 103.257 103.353 103.402 103.435 103.48 103.57 103.725 104.473 104.81 103.995 104.113 104.235 104.345 104.48 104.62 104.698 104.777 104.85 104.917 105.02
105.563 105.613 105.638 105.645 105.663 105.678 105.68 105.725 105.733 105.743 105.773 105.793 105.795 105.818 105.813 105.82 105.838 105.85 105.86 105.878 105.86 105.885 105.903 105.895 105.92 105.935 105.968 105.988 105.995 106.013 106.038 106.06 106.093 106.12 106.125 106.135 106.165 106.18 106.17 106.19 106.17 106.18 106.178 106.173 106.2 106.193 106.188 106.203 106.228 106.22 106.225 106.228 106.243 106.247 106.245 106.243 106.255 106.268 106.272 106.295 106.3 106.34 106.333 106.335 106.362 106.37 106.365 106.417 106.465 106.535 106.585 106.645 106.66 106.74 106.795 106.855 106.863 106.853 107.32 108.24 109.143 108.77 108.165 107.385 107.555 107.618 107.655 107.59 107.618 107.715 107.833 107.9 107.99 108.073 108.105 108.15 108.395 108.32 108.825 108.53 108.1 108.155 108.212 108.317 108.39 108.51 108.552 108.517 108.485 108.497 108.51 108.492 108.502 108.542 108.615 108.622 108.63 108.645 108.667 108.65 108.612 108.597 108.605 108.63 108.68 108.687 108.665 108.632 108.517 108.49 108.427 108.402 108.417 108.412 108.425 108.385 108.35 108.34 108.33 108.27 108.222 108.175 108.105 108.012 107.922 107.835 107.757 107.707 107.6 107.535 107.479 108.447 109.008 107.487 107.049 106.826 106.634 106.512 106.442 106.309 106.087 105.921 105.79 105.648 105.548 105.401 105.293 105.177 105.009 104.797 104.629 104.445 104.269 104.103 103.879 103.705 103.5 103.275 102.983 102.628 102.364 102.023 101.763 101.423 101.059 100.771 100.444 100.137 99.837 99.513 99.063 98.6 98.051 97.587 97.113 96.627 96.199 95.763 95.393 95.039 94.7 94.475 94.243 93.747 93.142 92.555 92.034 91.48 91.043 90.709 90.405 90.038 89.732 89.478 89.279 89.155 89.027 88.912 88.858 88.807 88.704 88.688 88.063 87.192 87.212 87.809 91.051 91.923 89.919 89.392 89.431 89.435 89.493 93.356 95.377 94.706 94.976 95.598 95.475 94.515 94.838 95.575 95.635 93.32 92.097 91.967 92.83 97 101.555 102.143 98.277 92.713 92.713 92.745 92.838 92.923 93.003 93.077 93.16 93.455 93.598 93.662 93.705 93.795 93.897 93.965 94.037 94.107 94.207 94.337 94.42 94.488 94.573 94.7 94.833 94.963 95.062 95.182 95.335 95.427 95.518 95.582 95.717 95.807 95.878 95.978 96.09 96.173 96.247 96.317 96.375 96.443 96.537 96.62 96.7 96.743 96.82 96.91 97.005 97.07 97.147 97.253 97.305 97.365 97.485 97.575 97.64 97.698 97.775 97.83 97.88 97.942 97.988 98.042 98.11 98.18 98.285 98.372 98.465 98.515 98.588 98.637 98.673 98.723 98.802 98.985 99.07 99.135 99.177 99.257 99.385 99.473 99.545 99.643 99.713 99.793 99.853 99.9 99.982 100.035 100.103 100.122 100.18 100.257 100.333 100.38 100.45 100.488 100.557 100.625 100.69 100.775 100.872 100.95 101.025 101.175 101.255 101.357 101.425 101.495 101.527 101.613 101.725 101.905 102.05 102.145 102.225 102.338 102.438 102.537 102.66 102.777 102.882 102.97 103.042 103.11 103.198 103.28 103.327 103.355 103.397 103.52 103.688 104.658 104.63 103.887 104.03 104.167 104.295 104.433 104.545 104.64 104.71 104.783 104.853 104.945
105.375 105.438 105.443 105.473 105.468 105.483 105.488 105.53 105.55 105.573 105.568 105.605 105.608 105.625 105.618 105.665 105.68 105.688 105.643 105.675 105.688 105.713 105.705 105.715 105.725 105.725 105.768 105.795 105.805 105.853 105.865 105.905 105.92 105.945 105.983 106.013 106.015 106.023 106.008 106.035 106.045 106.05 106.058 106.09 106.1 106.06 106.063 106.11 106.103 106.103 106.09 106.123 106.133 106.175 106.173 106.162 106.192 106.183 106.192 106.195 106.215 106.213 106.25 106.285 106.325 106.33 106.38 106.39 106.445 106.48 106.493 106.57 106.655 106.675 106.755 106.798 106.845 106.893 106.923 106.955 107.357 108.42 109.765 108.62 107.615 107.527 107.565 107.675 107.717 107.688 107.755 107.857 107.97 108.048 108.067 108.075 108.143 108.105 108.44 108.293 108.118 108.182 108.247 108.332 108.422 108.535 108.557 108.515 108.5 108.505 108.547 108.557 108.57 108.59 108.66 108.657 108.69 108.707 108.707 108.687 108.652 108.69 108.66 108.712 108.75 108.737 108.715 108.665 108.587 108.525 108.472 108.455 108.475 108.472 108.472 108.435 108.387 108.385 108.367 108.317 108.3 108.225 108.147 108.057 107.98 107.9 107.82 107.757 107.644 107.554 107.571 108.442 108.998 108.133 107.111 106.898 106.673 106.561 106.471 106.357 106.149 105.972 105.862 105.729 105.648 105.524 105.408 105.283 105.101 104.869 104.697 104.51 104.333 104.173 103.973 103.798 103.57 103.424 103.182 102.946 102.685 102.414 102.053 101.715 101.382 101.092 100.801 100.489 100.119 99.701 99.252 98.732 98.246 97.73 97.215 96.726 96.26 95.838 95.383 95.017 94.735 94.456 94.238 93.68 93.069 92.502 91.997 91.506 91.048 90.718 90.374 90.026 89.728 89.467 89.294 89.145 89.018 88.908 88.812 88.771 88.708 88.978 90.062 87.515 87.422 90.059 94.4 96.004 91.162 89.317 89.445 89.312 89.378 89.75 89.522 89.555 89.79 91.177 91.29 89.715 89.635 90.49 89.963 90.933 93.025 93.058 93.098 95.348 100.277 101.147 98.537 92.342 92.44 92.53 92.645 92.77 92.882 92.975 93.09 93.198 93.283 93.445 93.55 93.637 93.757 93.848 93.925 93.993 94.103 94.225 94.312 94.39 94.467 94.585 94.738 94.897 94.963 95.077 95.235 95.357 95.438 95.525 95.625 95.74 95.812 95.908 95.99 96.088 96.155 96.225 96.3 96.38 96.46 96.548 96.613 96.665 96.743 96.83 96.917 96.978 97.08 97.177 97.232 97.295 97.403 97.507 97.58 97.637 97.728 97.772 97.833 97.91 97.97 98.012 98.065 98.14 98.243 98.353 98.438 98.488 98.55 98.613 98.655 98.695 98.768 98.938 99.035 99.077 99.113 99.188 99.302 99.38 99.463 99.55 99.62 99.7 99.765 99.823 99.897 99.978 100.05 100.075 100.135 100.228 100.292 100.34 100.382 100.445 100.512 100.56 100.62 100.717 100.815 100.878 100.96 101.092 101.195 101.3 101.385 101.44 101.455 101.542 101.682 101.84 102.003 102.103 102.185 102.275 102.37 102.48 102.598 102.717 102.833 102.913 102.993 103.062 103.155 103.232 103.253 103.275 103.312 103.485 103.643 104.948 104.213 103.8 103.942 104.1 104.223 104.363 104.472 104.567 104.63 104.713 104.785 104.882
105.203 105.22 105.218 105.283 105.273 105.31 105.328 105.318 105.363 105.383 105.393 105.413 105.385 105.423 105.425 105.443 105.46 105.485 105.483 105.52 105.515 105.5 105.528 105.523 105.568 105.563 105.583 105.608 105.64 105.705 105.703 105.745 105.765 105.795 105.838 105.83 105.83 105.88 105.878 105.893 105.87 105.908 105.915 105.898 105.925 105.915 105.93 105.973 106.005 105.99 105.983 106.008 106.02 106.03 106.043 106.07 106.08 106.087 106.113 106.115 106.132 106.143 106.165 106.212 106.25 106.277 106.322 106.338 106.41 106.423 106.445 106.518 106.583 106.61 106.697 106.762 106.817 106.87 106.955 106.967 106.955 107.033 107.533 108.957 109.732 108.135 107.6 107.637 107.68 107.755 107.775 107.845 107.947 107.993 108.035 108.085 108.04 108.073 108.073 108.092 108.125 108.162 108.237 108.357 108.465 108.56 108.557 108.545 108.535 108.522 108.557 108.6 108.6 108.682 108.692 108.725 108.765 108.747 108.762 108.737 108.71 108.715 108.74 108.787 108.822 108.822 108.785 108.745 108.645 108.595 108.55 108.535 108.522 108.522 108.517 108.492 108.44 108.432 108.4 108.34 108.31 108.262 108.207 108.117 108.014 107.917 107.867 107.781 107.694 107.587 107.746 109.011 108.965 107.395 107.157 106.882 106.728 106.619 106.543 106.399 106.205 106.058 105.911 105.822 105.75 105.629 105.488 105.359 105.189 104.974 104.77 104.614 104.404 104.228 104.059 103.887 103.669 103.484 103.279 103.09 102.821 102.569 102.275 101.974 101.611 101.336 100.985 100.661 100.303 99.859 99.377 98.85 98.318 97.802 97.258 96.76 96.277 95.77 95.379 95.06 94.764 94.441 94.168 93.638 93.041 92.462 91.98 91.5 91.032 90.687 90.374 90.028 89.735 89.498 89.346 89.143 88.996 88.889 88.776 88.749 88.687 88.938 90.055 87.095 87.836 92.068 92.618 92.825 90.14 89.198 89.312 89.175 89.265 89.34 89.45 89.768 89.643 89.89 89.775 89.738 90.23 90.618 89.65 91.17 93.327 93.335 95.348 98.4 95.075 95.897 96.408 92.57 92.335 92.448 92.552 92.688 92.805 92.88 92.98 93.115 93.245 93.365 93.417 93.51 93.625 93.723 93.8 93.882 93.997 94.115 94.213 94.298 94.385 94.522 94.673 94.82 94.868 95.003 95.15 95.268 95.357 95.452 95.562 95.668 95.738 95.835 95.94 96.033 96.105 96.173 96.245 96.307 96.395 96.497 96.565 96.625 96.7 96.775 96.85 96.94 97.042 97.128 97.19 97.253 97.36 97.475 97.54 97.588 97.698 97.753 97.805 97.882 97.94 97.993 98.04 98.125 98.223 98.312 98.39 98.46 98.525 98.59 98.625 98.673 98.747 98.908 99.003 99.035 99.092 99.165 99.277 99.342 99.435 99.52 99.575 99.645 99.698 99.75 99.82 99.89 99.965 100.007 100.057 100.16 100.217 100.247 100.288 100.38 100.435 100.482 100.552 100.658 100.755 100.825 100.912 101.048 101.152 101.253 101.345 101.387 101.415 101.485 101.63 101.795 101.963 102.075 102.14 102.217 102.31 102.415 102.542 102.667 102.777 102.857 102.917 102.993 103.098 103.153 103.178 103.195 103.257 103.44 103.587 105.083 104.387 103.74 103.882 104.048 104.162 104.305 104.402 104.495 104.565 104.635 104.713 104.805
105.015 105.05 105.025 105.09 105.075 105.13 105.133 105.16 105.163 105.173 105.205 105.203 105.223 105.238 105.253 105.24 105.275 105.295 105.3 105.338 105.325 105.318 105.338 105.355 105.343 105.355 105.388 105.438 105.473 105.518 105.53 105.55 105.598 105.628 105.64 105.66 105.693 105.688 105.748 105.713 105.715 105.733 105.755 105.783 105.768 105.76 105.815 105.818 105.848 105.843 105.88 105.885 105.893 105.908 105.95 105.958 105.975 105.988 106.022 106.01 106.04 106.052 106.098 106.14 106.17 106.195 106.25 106.272 106.338 106.365 106.455 106.455 106.518 106.555 106.61 106.695 106.765 106.82 106.88 106.917 107 107.007 107.062 107.16 107.89 108.755 109.057 108.238 108.49 107.647 107.78 107.887 107.965 108.015 108.025 108.06 108.087 108.052 108.073 108.092 108.122 108.167 108.272 108.385 108.495 108.585 108.585 108.547 108.572 108.575 108.61 108.612 108.632 108.707 108.74 108.752 108.765 108.81 108.802 108.78 108.77 108.785 108.785 108.857 108.862 108.835 108.83 108.772 108.705 108.647 108.605 108.585 108.605 108.595 108.555 108.52 108.487 108.482 108.465 108.395 108.367 108.302 108.227 108.137 108.042 107.957 107.901 107.808 107.754 107.625 107.871 109.023 108.54 107.191 107.216 106.922 106.776 106.671 106.597 106.434 106.253 106.123 105.989 105.886 105.797 105.689 105.565 105.432 105.215 105.007 104.853 104.679 104.456 104.253 104.13 103.931 103.687 103.541 103.323 103.152 102.886 102.651 102.363 102.075 101.736 101.433 101.092 100.75 100.435 99.938 99.432 98.877 98.327 97.774 97.261 96.788 96.288 95.802 95.379 95.036 94.712 94.4 94.126 93.624 93.026 92.46 91.969 91.506 91.035 90.722 90.386 90.006 89.706 89.507 89.374 89.196 89.012 88.886 88.753 88.676 88.655 88.622 89.42 87.298 87.088 87.978 90.353 89.158 88.933 89.132 89.215 88.997 89.052 89.232 89.54 90.038 89.688 89.645 89.615 89.702 90.16 90.553 89.645 90.49 91.787 93.15 96.67 98.515 93.573 98.902 98.132 92.092 92.2 92.33 92.443 92.575 92.688 92.783 92.887 93.018 93.137 93.23 93.3 93.38 93.488 93.605 93.708 93.8 93.918 94.033 94.125 94.235 94.338 94.467 94.613 94.743 94.783 94.923 95.062 95.19 95.302 95.395 95.495 95.607 95.685 95.765 95.88 95.975 96.05 96.125 96.192 96.25 96.318 96.413 96.488 96.555 96.63 96.723 96.792 96.88 97 97.077 97.143 97.2 97.298 97.458 97.482 97.553 97.637 97.69 97.753 97.825 97.89 97.945 98.007 98.092 98.185 98.278 98.37 98.427 98.497 98.567 98.607 98.658 98.743 98.88 98.975 99.007 99.092 99.158 99.268 99.34 99.427 99.5 99.562 99.622 99.66 99.73 99.775 99.835 99.895 99.935 99.995 100.08 100.132 100.135 100.223 100.29 100.34 100.393 100.47 100.567 100.667 100.753 100.86 100.997 101.1 101.213 101.29 101.348 101.37 101.448 101.577 101.738 101.915 102.022 102.105 102.19 102.277 102.385 102.505 102.63 102.717 102.8 102.872 102.94 103.025 103.075 103.112 103.135 103.23 103.382 103.53 105.13 104.317 103.71 103.86 103.978 104.095 104.223 104.333 104.442 104.497 104.56 104.632 104.74
104.84 104.863 104.858 104.873 104.9 104.925 104.933 104.963 104.973 104.963 104.998 105.02 105.028 105.048 105.063 105.063 105.083 105.12 105.123 105.145 105.135 105.14 105.165 105.158 105.185 105.175 105.198 105.255 105.28 105.31 105.348 105.383 105.41 105.438 105.48 105.495 105.523 105.513 105.565 105.54 105.565 105.58 105.598 105.608 105.633 105.635 105.658 105.668 105.673 105.678 105.743 105.74 105.788 105.805 105.798 105.835 105.852 105.86 105.878 105.917 105.985 105.973 106.01 106.035 106.103 106.128 106.173 106.183 106.26 106.31 106.39 106.412 106.482 106.535 106.59 106.645 106.7 106.768 106.818 106.875 106.96 107.015 107.092 107.113 107.19 107.253 107.83 109.003 109.973 110.268 108.38 107.885 108.37 107.957 108.003 108.055 108.09 108.125 108.088 108.115 108.107 108.173 108.298 108.397 108.52 108.582 108.582 108.547 108.585 108.597 108.635 108.635 108.687 108.767 108.79 108.807 108.845 108.852 108.852 108.84 108.83 108.852 108.87 108.925 108.92 108.912 108.897 108.83 108.767 108.725 108.677 108.642 108.632 108.642 108.615 108.587 108.53 108.54 108.52 108.457 108.417 108.335 108.257 108.16 108.086 107.977 107.923 107.838 107.784 107.64 108.102 108.47 107.582 107.214 107.102 106.931 106.787 106.699 106.614 106.466 106.308 106.195 106.076 105.941 105.85 105.72 105.627 105.427 105.211 105.054 104.9 104.739 104.487 104.296 104.151 103.966 103.741 103.587 103.412 103.184 102.94 102.699 102.356 102.051 101.774 101.452 101.147 100.887 100.463 99.893 99.356 98.818 98.285 97.731 97.134 96.737 96.281 95.804 95.367 94.993 94.687 94.333 94.011 93.504 92.941 92.462 91.969 91.492 91.042 90.707 90.366 90.005 89.719 89.503 89.397 89.225 89.022 88.878 88.775 88.688 88.618 88.587 89.048 88.36 87.068 87.068 87.938 89.292 88.857 89.03 89.045 88.802 88.915 89.543 89.49 89.565 89.61 89.665 89.84 89.665 89.675 89.7 89.725 89.71 91.52 92.052 94.947 97.12 95.833 98.855 97.51 93.107 92.067 92.202 92.323 92.455 92.583 92.668 92.762 92.893 93.025 93.125 93.207 93.29 93.393 93.505 93.613 93.708 93.83 93.957 94.055 94.155 94.26 94.39 94.542 94.668 94.698 94.835 94.978 95.13 95.232 95.317 95.435 95.543 95.62 95.69 95.807 95.913 95.975 96.042 96.12 96.183 96.272 96.365 96.44 96.493 96.585 96.658 96.735 96.815 96.93 97.033 97.075 97.132 97.247 97.357 97.438 97.5 97.58 97.67 97.7 97.785 97.86 97.905 97.967 98.043 98.143 98.243 98.34 98.397 98.465 98.533 98.575 98.658 98.73 98.855 98.938 98.985 99.065 99.128 99.24 99.307 99.408 99.473 99.533 99.588 99.65 99.713 99.73 99.788 99.848 99.878 99.935 100.018 100.067 100.105 100.158 100.208 100.255 100.3 100.387 100.488 100.595 100.685 100.802 100.925 101.04 101.143 101.243 101.29 101.32 101.408 101.53 101.68 101.868 101.975 102.052 102.137 102.228 102.345 102.458 102.577 102.665 102.75 102.817 102.893 102.965 103.018 103.048 103.073 103.162 103.325 103.83 104.753 104.198 103.688 103.827 103.938 104.048 104.152 104.262 104.357 104.412 104.482 104.555 104.67
104.633 104.673 104.663 104.715 104.678 104.733 104.74 104.768 104.79 104.783 104.825 104.818 104.825 104.843 104.86 104.865 104.923 104.9 104.943 104.923 104.935 104.95 104.963 104.97 104.983 105.015 105.023 105.05 105.123 105.138 105.158 105.183 105.228 105.243 105.313 105.308 105.36 105.35 105.39 105.365 105.405 105.415 105.425 105.425 105.478 105.475 105.498 105.498 105.548 105.58 105.6 105.583 105.613 105.65 105.658 105.67 105.74 105.772 105.807 105.81 105.848 105.905 105.925 105.963 106.003 106.045 106.085 106.12 106.165 106.185 106.272 106.335 106.412 106.452 106.552 106.573 106.69 106.705 106.783 106.832 106.938 106.973 107.07 107.137 107.202 107.232 107.338 107.415 107.777 108.692 109.592 109.457 108.945 107.952 107.952 107.98 108.027 108.107 108.135 108.118 108.135 108.207 108.34 108.422 108.537 108.572 108.565 108.575 108.587 108.625 108.662 108.67 108.71 108.787 108.84 108.877 108.887 108.9 108.905 108.905 108.897 108.902 108.937 108.987 108.982 108.98 108.95 108.872 108.832 108.792 108.725 108.725 108.707 108.682 108.652 108.597 108.595 108.605 108.555 108.49 108.437 108.38 108.287 108.2 108.093 108.023 107.949 107.87 107.787 107.639 108.252 108.766 107.679 107.183 107.063 106.913 106.78 106.686 106.629 106.456 106.311 106.237 106.119 105.999 105.935 105.774 105.648 105.443 105.242 105.032 104.873 104.69 104.514 104.348 104.163 103.957 103.73 103.594 103.427 103.164 102.915 102.629 102.319 102.127 101.822 101.483 101.218 100.918 100.409 99.896 99.343 98.842 98.217 97.684 97.134 96.622 96.145 95.686 95.287 94.989 94.626 94.312 93.89 93.353 92.868 92.36 91.861 91.398 90.978 90.655 90.305 89.95 89.677 89.48 89.342 89.197 89.052 88.887 88.745 88.622 88.607 88.555 89.543 90.322 87.035 87.067 87.71 89.045 88.775 88.948 88.82 88.607 88.91 89.717 89.552 89.735 89.798 89.61 89.622 89.63 89.658 89.688 89.707 89.725 89.827 90.272 94.995 99.005 91.575 95.798 98.618 93.993 91.958 92.072 92.223 92.363 92.49 92.577 92.668 92.8 92.917 93.04 93.135 93.195 93.307 93.402 93.497 93.595 93.723 93.85 93.967 94.065 94.168 94.3 94.432 94.54 94.59 94.76 94.893 95.035 95.162 95.265 95.355 95.46 95.548 95.637 95.75 95.842 95.925 96.01 96.092 96.145 96.225 96.31 96.385 96.452 96.522 96.597 96.665 96.735 96.87 96.973 97.025 97.073 97.177 97.298 97.395 97.463 97.55 97.628 97.678 97.753 97.83 97.887 97.93 98.018 98.128 98.225 98.338 98.397 98.448 98.505 98.565 98.647 98.713 98.835 98.92 98.96 99.025 99.073 99.185 99.243 99.338 99.412 99.463 99.535 99.583 99.643 99.673 99.717 99.787 99.823 99.887 99.952 100 100.077 100.11 100.14 100.185 100.253 100.338 100.44 100.533 100.628 100.755 100.865 100.978 101.105 101.213 101.255 101.283 101.37 101.465 101.615 101.805 101.923 101.978 102.065 102.16 102.265 102.395 102.507 102.583 102.683 102.762 102.847 102.915 102.97 102.997 103.037 103.128 103.28 103.783 104.698 103.84 103.647 103.772 103.882 103.99 104.09 104.188 104.272 104.35 104.418 104.493 104.603
104.433 104.453 104.48 104.503 104.503 104.55 104.53 104.558 104.57 104.595 104.638 104.633 104.653 104.645 104.688 104.7 104.725 104.72 104.713 104.735 104.745 104.743 104.785 104.758 104.813 104.825 104.835 104.868 104.938 104.935 104.988 104.99 105.06 105.053 105.098 105.113 105.138 105.165 105.203 105.173 105.21 105.22 105.23 105.253 105.285 105.275 105.348 105.343 105.368 105.375 105.42 105.428 105.498 105.495 105.537 105.548 105.592 105.628 105.665 105.725 105.768 105.787 105.823 105.85 105.89 105.928 105.978 106.025 106.107 106.135 106.19 106.247 106.34 106.415 106.465 106.548 106.585 106.655 106.675 106.75 106.848 106.92 106.995 107.042 107.19 107.265 107.315 107.397 107.495 107.533 107.738 108.768 109.6 109.662 110.503 109.465 108.048 108.03 108.052 108.118 108.15 108.23 108.323 108.425 108.532 108.572 108.577 108.59 108.597 108.625 108.652 108.695 108.772 108.847 108.885 108.89 108.925 108.922 108.922 108.912 108.915 108.972 109.027 109.065 109.072 109.03 109.007 108.932 108.872 108.852 108.82 108.797 108.78 108.75 108.715 108.662 108.667 108.645 108.59 108.545 108.472 108.395 108.34 108.242 108.137 108.049 107.991 107.901 107.784 107.628 108.383 108.48 107.407 107.137 107.041 106.876 106.78 106.689 106.664 106.448 106.332 106.194 106.117 106.03 105.97 105.803 105.68 105.47 105.257 105.037 104.89 104.673 104.504 104.358 104.229 103.971 103.781 103.6 103.414 103.168 102.862 102.586 102.341 102.069 101.82 101.498 101.238 100.97 100.458 99.986 99.459 98.895 98.272 97.63 97.109 96.616 96.112 95.608 95.184 94.919 94.495 94.163 93.76 93.2 92.708 92.26 91.772 91.29 90.857 90.49 90.15 89.863 89.598 89.335 89.192 89.043 88.905 88.728 88.615 88.558 88.48 88.478 88.542 88.74 87.045 87.058 87.25 89.465 88.905 88.855 88.585 88.45 88.81 91.033 89.522 89.552 89.675 89.63 89.637 89.643 89.655 89.68 89.688 89.71 89.677 91.338 92.083 93.94 95.732 98.36 99.285 93.305 91.853 91.982 92.132 92.243 92.387 92.497 92.567 92.69 92.8 92.94 93.025 93.1 93.202 93.3 93.387 93.497 93.622 93.755 93.855 93.92 94.037 94.17 94.32 94.41 94.48 94.662 94.815 94.975 95.072 95.188 95.292 95.402 95.475 95.562 95.675 95.785 95.863 95.925 96 96.055 96.14 96.217 96.302 96.368 96.45 96.512 96.575 96.655 96.775 96.872 96.943 97.007 97.09 97.208 97.315 97.4 97.485 97.555 97.607 97.695 97.772 97.84 97.895 97.97 98.088 98.19 98.27 98.34 98.41 98.473 98.527 98.613 98.68 98.787 98.875 98.923 98.965 99.015 99.1 99.17 99.243 99.317 99.382 99.443 99.507 99.57 99.605 99.652 99.723 99.783 99.838 99.872 99.955 100.02 100.048 100.085 100.128 100.19 100.3 100.408 100.488 100.58 100.725 100.842 100.96 101.088 101.185 101.217 101.26 101.348 101.438 101.575 101.768 101.878 101.95 102.018 102.118 102.223 102.345 102.455 102.527 102.637 102.715 102.8 102.855 102.897 102.94 102.985 103.067 103.198 103.895 104.363 103.798 103.605 103.713 103.818 103.935 104.033 104.125 104.215 104.285 104.355 104.448 104.52
104.278 104.288 104.29 104.288 104.343 104.35 104.378 104.375 104.418 104.405 104.448 104.43 104.465 104.463 104.495 104.488 104.528 104.515 104.508 104.525 104.568 104.535 104.583 104.603 104.615 104.625 104.678 104.673 104.77 104.763 104.79 104.808 104.87 104.88 104.933 104.928 104.983 104.983 105.015 104.988 105.06 105.048 105.07 105.093 105.123 105.138 105.17 105.168 105.208 105.255 105.275 105.298 105.338 105.357 105.395 105.423 105.445 105.488 105.533 105.567 105.63 105.662 105.728 105.753 105.79 105.822 105.902 105.933 105.98 106.037 106.13 106.19 106.268 106.33 106.39 106.45 106.505 106.585 106.65 106.668 106.787 106.863 106.933 107.02 107.11 107.213 107.323 107.417 107.467 107.507 107.58 107.643 107.802 108.277 108.93 109.855 109.815 109.613 109.253 108.292 108.17 108.195 108.315 108.455 108.597 108.625 108.612 108.615 108.632 108.675 108.695 108.737 108.802 108.87 108.89 108.922 108.935 108.922 108.932 108.925 108.96 108.987 109.08 109.117 109.125 109.1 109.04 108.98 108.957 108.925 108.882 108.862 108.832 108.817 108.767 108.742 108.73 108.715 108.637 108.567 108.492 108.42 108.362 108.27 108.185 108.112 108.04 107.922 107.804 107.658 108.587 108.604 107.595 107.206 107.026 106.891 106.743 106.655 106.604 106.399 106.326 106.189 106.089 106.021 105.893 105.772 105.663 105.426 105.248 105.042 104.857 104.709 104.523 104.398 104.165 103.954 103.802 103.673 103.454 103.131 102.848 102.561 102.356 102.075 101.793 101.501 101.23 100.913 100.443 100.023 99.573 98.967 98.304 97.681 97.163 96.742 96.185 95.677 95.195 94.777 94.382 94.095 93.575 93.045 92.552 92.118 91.64 91.15 90.688 90.33 89.97 89.68 89.4 89.21 88.988 88.78 88.555 88.34 88.165 88.105 88.088 88.13 87.942 88.715 86.93 87.052 87.205 89.49 88.925 88.73 88.287 88.275 89.025 90.28 89.527 89.507 89.8 89.607 89.63 89.637 89.637 89.65 89.675 89.69 89.665 90.658 91.835 91.21 92.963 99.262 101.088 95.993 91.747 91.875 92.005 92.143 92.277 92.387 92.46 92.573 92.71 92.815 92.912 92.995 93.103 93.223 93.268 93.357 93.485 93.615 93.7 93.783 93.912 94.055 94.18 94.318 94.415 94.548 94.698 94.86 94.967 95.077 95.207 95.287 95.387 95.473 95.583 95.673 95.768 95.842 95.923 95.99 96.057 96.137 96.213 96.298 96.375 96.445 96.525 96.59 96.677 96.77 96.857 96.938 97.027 97.113 97.228 97.342 97.455 97.518 97.57 97.79 97.732 97.805 97.863 97.933 98.02 98.12 98.213 98.293 98.347 98.42 98.485 98.572 98.647 98.745 98.835 98.882 98.932 99.012 99.082 99.147 99.213 99.285 99.34 99.402 99.46 99.493 99.54 99.592 99.66 99.722 99.768 99.84 99.918 99.965 99.98 99.99 100.06 100.137 100.238 100.347 100.445 100.555 100.695 100.812 100.935 101.065 101.147 101.198 101.243 101.32 101.408 101.537 101.75 101.855 101.933 101.997 102.09 102.22 102.315 102.425 102.505 102.59 102.662 102.75 102.803 102.845 102.872 102.908 102.985 103.147 103.777 104.442 103.455 103.542 103.655 103.76 103.868 103.978 104.083 104.158 104.22 104.28 104.37 104.455
