ncols 408
nrows 30
xllcorner    246076
yllcorner    138838
cellsize     2
NODATA_value -9999
107.785 107.162 107.807 107.455 108.075 107.985 107.785 107.575 107.393 106.89 106.54 107.432 107.298 106.77 106.342 106.32 106.323 107.077 106.152 105.805 105.762 105.677 105.76 106.607 106.033 106.725 106.382 106.322 106.423 107.208 107.145 107.195 106.865 107.165 106.113 106.448 106.522 106.425 107.18 106.945 107.55 107.715 107.12 107.147 107.603 107.118 107.312 107.365 107.475 108.042 108.338 108.128 108.137 107.61 107.84 107.772 108.07 108.165 108.26 108.22 108.247 108.175 108.478 108.493 107.882 108.622 108.925 108.098 108.022 107.895 107.86 107.835 107.46 107.67 107.51 107.478 107.347 107.095 107.165 107.195 107.232 107.38 107.48 107.745 108.05 107.952 108.507 108.325 108.635 108.088 106.787 107.08 108.16 107.18 107.007 106.942 106.893 106.857 106.85 106.825 106.8 106.818 106.8 106.8 106.77 106.75 106.728 106.69 106.673 106.655 106.635 106.595 106.545 106.465 106.397 106.335 106.285 106.228 106.17 106.115 106.052 105.99 105.94 105.9 105.85 105.807 105.78 105.745 105.728 105.705 105.673 105.635 105.585 105.522 105.465 105.405 105.338 105.303 105.238 105.18 105.14 105.115 105.232 105.423 105.823 105.335 104.9 103.915 103.887 103.823 103.753 103.7 103.665 103.58 103.507 103.427 103.34 103.255 103.183 103.088 103.052 102.975 102.93 102.848 102.795 102.755 102.705 102.655 102.595 102.53 102.465 102.415 102.333 102.245 102.185 102.088 101.985 101.9 101.762 101.64 101.57 101.478 101.382 101.283 101.17 101.068 100.988 100.853 100.705 100.565 100.405 100.287 100.162 99.993 99.853 99.705 99.548 99.402 99.255 99.062 98.855 98.632 98.312 97.952 97.522 97.085 96.68 96.22 95.79 95.36 94.893 94.448 94.06 93.683 93.36 93.105 92.935 92.855 92.948 93.11 93.348 93.66 93.975 94.315 94.637 95.042 95.428 95.625 95.92 97.442 98.605 99.467 97.84 97.67 97.685 97.713 97.728 97.743 97.753 97.768 97.79 97.825 97.845 97.885 97.92 97.963 98.052 98.09 98.173 98.28 98.947 99.83 98.973 98.428 98.61 98.662 98.82 98.923 99.048 99.132 99.228 99.302 99.405 99.503 99.605 99.7 99.82 99.905 100.012 100.132 100.235 100.33 100.45 100.562 100.667 100.775 100.89 101.018 101.132 101.265 101.387 101.505 101.625 101.755 101.875 101.975 102.092 102.19 102.305 102.393 102.482 102.575 102.68 102.785 102.88 102.978 103.065 103.162 103.257 103.342 103.435 103.515 103.598 103.698 103.755 103.83 103.915 104.003 104.07 104.158 104.26 104.335 104.423 104.507 104.595 104.688 104.757 104.825 104.87 105.417 106.122 105.198 105.105 105.228 105.317 105.423 105.525 105.618 105.713 105.812 105.908 106.012 106.143 106.28 106.405 106.51 106.622 106.7 106.783 106.83 106.893 106.943 107.012 107.092 107.14 107.23 107.275 107.345 107.4 107.467 107.493 107.545 107.607 107.662 107.747 107.815 107.905 107.97 108.062 108.15 108.193 108.283 108.37 108.465 108.548 108.645 108.717 108.775 108.84 108.882 108.945 109.01 109.05 109.103 109.18 109.23 109.257 109.283 109.26 109.307 109.542 110.54 109.785 109.56 109.618 109.675 109.71 109.785 109.827 109.893 109.92 109.945 109.967 109.993 110.025 110.052 110.105 110.13 110.192 110.22 110.293 110.357 110.38 110.42 110.493 110.538 110.575 110.618
108.512 107.48 107.425 106.74 107.745 106.997 106.31 106.268 106.257 106.363 106.137 106.497 106.033 106.062 106.135 105.97 106.033 105.882 105.923 105.818 105.853 105.815 105.842 105.855 105.875 105.89 106.022 106.155 106.147 106.25 106.257 106.16 106.285 106.167 106.293 106.165 106.255 106.257 106.342 106.33 106.458 106.595 107 106.485 106.565 106.557 106.688 106.685 107.018 107.155 107.378 107.058 107.495 107.622 107.93 107.68 107.37 107.695 108.253 108.247 108.155 107.812 107.895 107.51 107.675 108.505 108.348 108.103 108.098 108.485 109.41 108.935 109.393 109.507 109.208 109.17 108.923 108.665 108.738 108.665 108.8 109.13 109.105 109.175 109.255 108.308 108.36 107.83 107.95 107.577 107.085 107.577 108.32 107.245 107.162 107.122 107.08 107.067 107.045 107.03 107.025 107.01 107.025 107.005 106.988 106.967 106.945 106.908 106.887 106.878 106.855 106.815 106.78 106.738 106.688 106.615 106.575 106.525 106.46 106.385 106.312 106.26 106.202 106.15 106.092 106.06 106.012 105.96 105.938 105.89 105.868 105.825 105.805 105.753 105.685 105.625 105.552 105.51 105.478 105.417 105.325 105.272 105.22 105.18 105.255 105.85 105.875 106.838 105.287 104.012 103.963 103.917 103.817 103.765 103.708 103.635 103.548 103.5 103.412 103.342 103.257 103.18 103.132 103.083 103.02 102.955 102.897 102.853 102.805 102.747 102.67 102.577 102.512 102.44 102.38 102.285 102.185 102.113 101.967 101.882 101.8 101.677 101.577 101.467 101.382 101.257 101.143 101.003 100.857 100.74 100.59 100.43 100.292 100.173 99.995 99.863 99.702 99.57 99.43 99.247 99.045 98.793 98.472 98.118 97.738 97.323 96.905 96.46 95.997 95.58 95.138 94.728 94.33 93.94 93.628 93.412 93.29 93.26 93.39 93.605 93.868 94.198 94.542 94.845 95.205 95.527 95.747 96.068 97.312 98.565 98.667 98.083 97.838 97.872 97.893 97.908 97.94 97.965 97.975 98 98.02 98.058 98.11 98.13 98.165 98.235 98.308 98.368 98.435 98.535 98.92 99.92 99.122 98.688 98.863 98.932 99.073 99.18 99.305 99.387 99.48 99.56 99.65 99.747 99.855 99.95 100.06 100.15 100.26 100.378 100.473 100.567 100.675 100.785 100.887 100.99 101.092 101.215 101.332 101.458 101.577 101.685 101.798 101.93 102.037 102.155 102.26 102.357 102.45 102.557 102.647 102.747 102.85 102.965 103.04 103.122 103.228 103.342 103.428 103.507 103.605 103.7 103.772 103.868 103.923 104.005 104.082 104.18 104.245 104.338 104.438 104.522 104.6 104.69 104.775 104.865 104.938 104.997 105.045 106.088 106.007 105.265 105.285 105.393 105.488 105.605 105.688 105.785 105.865 105.988 106.073 106.175 106.295 106.433 106.56 106.68 106.79 106.875 106.942 106.997 107.062 107.11 107.173 107.25 107.3 107.395 107.45 107.527 107.573 107.64 107.665 107.713 107.79 107.835 107.933 108.003 108.095 108.15 108.245 108.33 108.382 108.475 108.552 108.66 108.738 108.845 108.91 108.97 109.033 109.073 109.132 109.195 109.238 109.28 109.37 109.415 109.445 109.475 109.435 109.49 109.702 110.71 109.798 109.755 109.827 109.872 109.94 109.997 110.048 110.113 110.11 110.15 110.18 110.198 110.228 110.257 110.277 110.317 110.368 110.417 110.46 110.52 110.567 110.598 110.622 110.66 110.695 110.747
108.707 107.012 106.717 106.79 106.808 106.535 106.485 106.47 106.44 106.405 106.385 106.332 106.27 106.235 106.178 106.155 106.1 106.08 106.1 106.068 106.05 106.027 106.055 106.065 106.065 106.085 106.095 106.132 106.19 106.21 106.235 106.27 106.292 106.31 106.32 106.35 106.382 106.425 106.448 106.478 106.5 106.565 106.565 106.675 106.7 106.75 106.825 106.893 106.91 107.003 107.055 107.08 107.158 107.185 107.298 107.33 107.355 107.38 107.427 107.49 107.603 107.658 108.085 107.688 107.747 107.692 107.72 107.68 107.713 107.787 108.018 107.817 108.368 107.99 108.005 108.26 108.475 108.478 108.217 108.025 108.01 107.955 107.868 107.923 107.885 107.832 107.855 107.805 107.78 107.58 107.4 107.705 108.8 107.385 107.338 107.283 107.275 107.285 107.277 107.253 107.257 107.24 107.223 107.217 107.22 107.2 107.185 107.15 107.132 107.14 107.11 107.085 107.042 106.997 106.935 106.895 106.842 106.785 106.717 106.665 106.6 106.537 106.472 106.408 106.342 106.302 106.262 106.225 106.185 106.135 106.092 106.052 106.005 105.967 105.908 105.857 105.798 105.723 105.665 105.607 105.533 105.46 105.397 105.33 105.26 105.257 105.305 105.645 106.027 105.438 105.04 104.255 103.997 103.927 103.872 103.8 103.738 103.682 103.62 103.537 103.47 103.393 103.345 103.295 103.202 103.14 103.098 103.048 102.99 102.95 102.865 102.79 102.743 102.652 102.548 102.475 102.412 102.3 102.167 102.09 102.012 101.9 101.783 101.683 101.555 101.417 101.3 101.175 101.022 100.87 100.71 100.542 100.44 100.31 100.145 99.985 99.848 99.707 99.588 99.41 99.202 98.98 98.655 98.32 97.925 97.505 97.1 96.69 96.235 95.808 95.372 94.98 94.588 94.24 93.943 93.762 93.662 93.708 93.863 94.107 94.4 94.74 95.037 95.335 95.66 95.872 96.257 97.698 98.723 98.725 98.037 98.012 98.042 98.06 98.095 98.14 98.173 98.195 98.215 98.235 98.26 98.305 98.355 98.387 98.43 98.493 98.585 98.637 98.702 98.795 98.997 100.743 99.332 98.948 99.085 99.198 99.325 99.448 99.548 99.652 99.74 99.815 99.92 100.007 100.103 100.195 100.3 100.393 100.497 100.613 100.71 100.802 100.9 101 101.113 101.202 101.298 101.415 101.525 101.65 101.75 101.855 101.978 102.113 102.22 102.315 102.443 102.53 102.615 102.72 102.823 102.908 103.018 103.135 103.21 103.305 103.4 103.497 103.595 103.67 103.762 103.857 103.942 104.02 104.107 104.175 104.257 104.333 104.417 104.512 104.625 104.717 104.798 104.853 104.945 105.037 105.107 105.175 105.195 106.548 105.963 105.355 105.467 105.555 105.647 105.77 105.853 105.948 106.022 106.15 106.225 106.325 106.455 106.598 106.723 106.84 106.943 107.022 107.09 107.155 107.22 107.272 107.342 107.41 107.46 107.552 107.615 107.692 107.74 107.798 107.835 107.887 107.958 108.015 108.11 108.16 108.28 108.34 108.417 108.51 108.565 108.652 108.74 108.838 108.93 109.02 109.088 109.147 109.217 109.255 109.307 109.37 109.42 109.452 109.54 109.575 109.613 109.647 109.622 109.673 109.958 110.863 109.95 109.948 110.01 110.07 110.13 110.17 110.238 110.305 110.325 110.345 110.375 110.39 110.433 110.455 110.473 110.51 110.548 110.588 110.632 110.688 110.738 110.775 110.787 110.815 110.878 110.89
108.51 107.435 106.785 106.725 106.715 106.693 106.688 106.673 106.62 106.603 106.55 106.493 106.47 106.417 106.375 106.348 106.325 106.315 106.292 106.277 106.283 106.272 106.295 106.28 106.292 106.335 106.35 106.348 106.39 106.442 106.463 106.473 106.482 106.52 106.54 106.598 106.615 106.635 106.66 106.7 106.728 106.777 106.812 106.855 106.96 106.965 107.035 107.082 107.165 107.215 107.285 107.338 107.365 107.405 107.46 107.57 107.61 107.635 107.658 107.7 107.71 107.74 107.81 107.808 107.835 107.89 107.91 107.908 107.923 107.955 107.99 108.007 108 108.018 108.04 108.052 108.025 108.065 108.042 108.033 108.033 108.003 108.005 107.99 107.975 107.965 108.005 107.955 107.92 107.807 107.757 108.12 109.575 107.948 107.522 107.525 107.52 107.522 107.493 107.49 107.47 107.455 107.435 107.44 107.46 107.45 107.445 107.41 107.412 107.375 107.338 107.317 107.277 107.25 107.192 107.15 107.11 107.048 106.982 106.92 106.853 106.795 106.747 106.695 106.622 106.585 106.535 106.475 106.44 106.395 106.353 106.29 106.22 106.195 106.125 106.07 106.022 105.958 105.9 105.815 105.745 105.662 105.603 105.548 105.478 105.43 105.363 105.268 105.43 106.03 106.05 104.902 104.535 104.05 104.018 103.98 103.897 103.833 103.8 103.74 103.688 103.618 103.707 103.503 103.415 103.36 103.305 103.24 103.16 103.098 103.055 102.985 102.923 102.84 102.77 102.662 102.592 102.478 102.372 102.33 102.25 102.13 101.995 101.863 101.745 101.605 101.485 101.342 101.175 101.022 100.872 100.695 100.573 100.445 100.285 100.155 100.015 99.853 99.71 99.55 99.355 99.128 98.827 98.49 98.113 97.723 97.325 96.895 96.473 96.05 95.628 95.22 94.853 94.55 94.292 94.128 94.062 94.168 94.397 94.677 94.985 95.255 95.555 95.803 95.985 96.585 98.165 99.035 99.355 98.305 98.177 98.223 98.238 98.277 98.33 98.357 98.393 98.43 98.463 98.495 98.533 98.56 98.6 98.65 98.705 98.762 98.84 98.887 98.955 99.045 99.092 100.17 99.755 99.165 99.33 99.457 99.577 99.698 99.792 99.895 99.985 100.065 100.165 100.253 100.335 100.435 100.542 100.637 100.73 100.833 100.938 101.025 101.125 101.225 101.34 101.415 101.518 101.628 101.725 101.838 101.948 102.058 102.16 102.28 102.387 102.5 102.615 102.697 102.777 102.897 102.995 103.082 103.188 103.295 103.385 103.495 103.567 103.675 103.76 103.832 103.928 104.027 104.115 104.193 104.265 104.338 104.435 104.512 104.588 104.69 104.805 104.868 104.958 105.025 105.118 105.2 105.272 105.34 105.45 106.688 105.775 105.507 105.628 105.717 105.817 105.932 106.012 106.098 106.185 106.302 106.378 106.488 106.622 106.74 106.878 107.003 107.083 107.18 107.24 107.3 107.36 107.428 107.495 107.57 107.632 107.705 107.772 107.848 107.897 107.942 107.995 108.05 108.13 108.198 108.283 108.33 108.443 108.51 108.588 108.675 108.738 108.827 108.91 109.022 109.105 109.19 109.255 109.323 109.395 109.427 109.482 109.537 109.592 109.638 109.693 109.738 109.783 109.815 109.798 109.848 110.257 111.14 110.13 110.13 110.182 110.24 110.307 110.353 110.417 110.48 110.512 110.53 110.567 110.592 110.613 110.64 110.665 110.693 110.738 110.753 110.787 110.842 110.897 110.925 110.973 111.015 111.06 111.07
108.685 107.53 107.025 106.902 106.87 106.84 106.827 106.83 106.792 106.762 106.717 106.685 106.65 106.613 106.58 106.57 106.542 106.53 106.542 106.518 106.518 106.507 106.515 106.527 106.568 106.588 106.625 106.613 106.632 106.673 106.708 106.702 106.722 106.738 106.775 106.792 106.825 106.868 106.915 106.93 106.967 107.015 107.075 107.11 107.182 107.238 107.287 107.317 107.38 107.425 107.482 107.515 107.57 107.63 107.702 107.747 107.805 107.82 107.84 107.865 107.912 107.965 107.993 108.015 108.043 108.073 108.095 108.107 108.125 108.158 108.16 108.17 108.188 108.202 108.202 108.215 108.21 108.208 108.228 108.208 108.208 108.192 108.165 108.155 108.18 108.165 108.16 108.135 108.115 108.073 108.05 108.215 109.575 108.77 107.723 107.732 107.705 107.735 107.732 107.708 107.702 107.682 107.693 107.707 107.715 107.717 107.702 107.665 107.64 107.615 107.603 107.577 107.53 107.495 107.455 107.402 107.357 107.298 107.245 107.177 107.128 107.065 106.995 106.943 106.875 106.848 106.792 106.738 106.705 106.635 106.603 106.562 106.493 106.417 106.365 106.3 106.235 106.155 106.08 106.025 105.978 105.912 105.82 105.735 105.662 105.592 105.542 105.465 105.37 105.305 105.41 105.825 105.805 105.325 104.923 104.26 104.058 104.022 103.965 103.893 103.83 103.78 103.768 103.66 103.592 103.55 103.507 103.438 103.348 103.262 103.235 103.175 103.115 103.042 102.948 102.895 102.775 102.662 102.587 102.49 102.393 102.338 102.232 102.06 101.925 101.77 101.622 101.495 101.335 101.175 101.035 100.863 100.738 100.603 100.45 100.293 100.147 100.01 99.857 99.698 99.495 99.262 98.975 98.647 98.275 97.9 97.515 97.098 96.69 96.287 95.865 95.478 95.122 94.84 94.615 94.527 94.515 94.698 94.905 95.17 95.488 95.772 95.988 96.147 96.585 98.292 99.162 99.198 98.33 98.335 98.385 98.405 98.438 98.497 98.54 98.583 98.628 98.675 98.723 98.745 98.787 98.815 98.853 98.908 98.95 99.012 99.088 99.145 99.205 99.287 99.353 100.467 100.762 99.448 99.55 99.695 99.815 99.93 100.035 100.128 100.213 100.3 100.4 100.497 100.583 100.675 100.768 100.875 100.973 101.075 101.18 101.26 101.365 101.448 101.555 101.63 101.74 101.842 101.94 102.048 102.145 102.257 102.365 102.485 102.585 102.673 102.785 102.878 102.958 103.083 103.162 103.255 103.36 103.465 103.57 103.66 103.743 103.84 103.93 104.01 104.107 104.2 104.285 104.372 104.435 104.52 104.603 104.693 104.747 104.855 104.975 105.045 105.113 105.19 105.287 105.357 105.448 105.503 105.795 107.1 105.845 105.692 105.77 105.872 105.978 106.088 106.165 106.253 106.345 106.448 106.54 106.655 106.772 106.89 107.01 107.15 107.247 107.335 107.378 107.45 107.493 107.567 107.64 107.717 107.777 107.85 107.93 107.997 108.037 108.09 108.147 108.202 108.277 108.355 108.433 108.507 108.582 108.68 108.75 108.835 108.9 109.003 109.075 109.162 109.27 109.357 109.423 109.49 109.558 109.59 109.647 109.7 109.753 109.798 109.86 109.905 109.935 109.963 109.955 110.003 110.503 111.195 110.253 110.275 110.35 110.41 110.48 110.533 110.595 110.65 110.68 110.71 110.75 110.778 110.785 110.805 110.845 110.868 110.91 110.945 110.982 111.03 111.058 111.075 111.14 111.177 111.205 111.27
108.775 107.772 107.135 107.088 107.04 107.048 107.05 107.04 106.985 106.958 106.92 106.887 106.842 106.795 106.807 106.777 106.777 106.768 106.745 106.772 106.783 106.772 106.765 106.772 106.795 106.82 106.833 106.85 106.878 106.908 106.92 106.938 106.952 106.993 106.99 107.018 107.048 107.085 107.113 107.158 107.2 107.243 107.298 107.36 107.397 107.47 107.505 107.562 107.607 107.665 107.708 107.747 107.787 107.818 107.908 107.973 107.975 108.068 108.048 108.075 108.137 108.162 108.213 108.25 108.28 108.295 108.302 108.335 108.345 108.365 108.357 108.372 108.4 108.413 108.4 108.408 108.4 108.432 108.41 108.402 108.408 108.395 108.37 108.363 108.348 108.357 108.353 108.335 108.298 108.3 108.292 108.493 109.67 109.17 107.95 107.973 107.91 107.963 107.982 107.97 107.975 107.94 107.94 107.952 107.963 107.95 107.94 107.908 107.902 107.86 107.833 107.808 107.785 107.747 107.715 107.658 107.605 107.567 107.512 107.45 107.397 107.34 107.272 107.213 107.155 107.098 107.055 106.98 106.955 106.89 106.84 106.8 106.76 106.702 106.63 106.545 106.467 106.393 106.325 106.268 106.177 106.11 106.035 105.955 105.878 105.8 105.743 105.662 105.577 105.495 105.417 105.33 105.285 105.713 105.982 106 105.23 104.795 104.175 104.092 104.048 103.978 103.923 103.85 103.77 103.717 103.65 103.6 103.522 103.495 103.442 103.375 103.272 103.207 103.13 103.018 102.927 102.827 102.69 102.628 102.585 102.527 102.408 102.235 102.113 101.96 101.795 101.673 101.488 101.33 101.185 101.022 100.89 100.717 100.562 100.435 100.298 100.15 99.988 99.802 99.605 99.378 99.105 98.772 98.425 98.055 97.677 97.298 96.9 96.495 96.088 95.728 95.395 95.137 94.955 94.868 94.948 95.14 95.355 95.643 95.897 96.167 96.295 97.057 98.53 99.495 99.085 98.52 98.515 98.562 98.595 98.62 98.65 98.698 98.755 98.815 98.872 98.915 98.96 98.993 99.03 99.052 99.095 99.147 99.205 99.26 99.34 99.393 99.445 99.518 99.6 100.635 101.128 99.743 99.787 99.935 100.06 100.15 100.247 100.348 100.465 100.545 100.655 100.743 100.818 100.905 101.022 101.107 101.213 101.31 101.415 101.503 101.59 101.685 101.768 101.857 101.945 102.06 102.155 102.25 102.348 102.46 102.545 102.668 102.772 102.87 102.967 103.052 103.14 103.255 103.342 103.44 103.558 103.647 103.732 103.832 103.917 104.018 104.113 104.195 104.287 104.368 104.452 104.555 104.603 104.7 104.775 104.868 104.942 105.027 105.143 105.22 105.293 105.353 105.46 105.54 105.607 105.637 106.18 107.188 106.033 105.817 105.935 106.037 106.137 106.245 106.32 106.397 106.5 106.585 106.688 106.798 106.92 107.037 107.173 107.29 107.395 107.465 107.512 107.595 107.643 107.715 107.79 107.848 107.933 108.01 108.077 108.13 108.188 108.238 108.287 108.357 108.42 108.505 108.582 108.665 108.755 108.815 108.908 108.99 109.065 109.158 109.24 109.335 109.425 109.505 109.575 109.65 109.702 109.73 109.792 109.853 109.902 109.948 110.005 110.065 110.085 110.103 110.107 110.162 110.65 111.228 110.405 110.447 110.51 110.57 110.635 110.695 110.77 110.825 110.85 110.885 110.925 110.958 110.967 110.975 111.013 111.035 111.065 111.12 111.158 111.185 111.238 111.243 111.305 111.34 111.365 111.43
108.7 107.613 107.32 107.312 107.243 107.228 107.228 107.183 107.165 107.152 107.103 107.082 107.06 107.05 107.048 107.035 107.035 107.03 107.048 107.05 107.07 107.06 107.068 107.077 107.1 107.122 107.155 107.162 107.193 107.19 107.22 107.225 107.257 107.278 107.295 107.315 107.337 107.393 107.423 107.45 107.497 107.525 107.555 107.615 107.675 107.7 107.747 107.783 107.848 107.87 107.908 107.978 108.01 108.077 108.118 108.162 108.205 108.26 108.265 108.287 108.333 108.412 108.447 108.463 108.48 108.478 108.505 108.507 108.53 108.56 108.557 108.585 108.598 108.613 108.603 108.618 108.613 108.628 108.607 108.585 108.592 108.583 108.588 108.59 108.562 108.592 108.57 108.527 108.552 108.558 108.577 108.675 109.777 108.482 108.158 108.182 108.16 108.195 108.257 108.243 108.232 108.215 108.208 108.207 108.193 108.208 108.185 108.165 108.145 108.107 108.09 108.058 108.042 108.007 107.98 107.92 107.88 107.838 107.772 107.725 107.673 107.605 107.543 107.488 107.417 107.353 107.315 107.24 107.215 107.13 107.085 107.035 106.985 106.92 106.863 106.81 106.737 106.647 106.55 106.478 106.395 106.325 106.243 106.158 106.082 106.027 105.952 105.875 105.795 105.705 105.62 105.558 105.46 105.372 105.36 105.73 106.03 106.353 106.338 105.13 104.22 104.162 104.115 104.007 103.935 103.88 103.817 103.75 103.673 103.683 103.6 103.515 103.448 103.378 103.268 103.155 103.05 102.93 102.838 102.765 102.72 102.73 102.59 102.435 102.28 102.135 101.952 101.8 101.645 101.485 101.312 101.155 101.01 100.88 100.732 100.595 100.448 100.295 100.137 99.955 99.755 99.52 99.22 98.897 98.577 98.23 97.86 97.473 97.075 96.68 96.31 95.972 95.665 95.43 95.3 95.265 95.423 95.613 95.863 96.073 96.287 96.448 97.582 98.812 98.772 98.925 98.81 98.685 98.725 98.74 98.795 98.822 98.875 98.94 98.988 99.052 99.103 99.158 99.2 99.253 99.262 99.28 99.353 99.41 99.45 99.51 99.577 99.643 99.693 99.753 99.845 100.537 101.077 99.993 100.015 100.173 100.27 100.365 100.47 100.59 100.69 100.777 100.863 100.97 101.06 101.147 101.255 101.342 101.44 101.54 101.655 101.732 101.805 101.897 101.997 102.077 102.177 102.275 102.36 102.465 102.56 102.655 102.757 102.87 102.973 103.06 103.158 103.238 103.335 103.435 103.54 103.628 103.73 103.827 103.927 104 104.097 104.183 104.287 104.375 104.47 104.552 104.632 104.725 104.802 104.865 104.97 105.04 105.115 105.188 105.295 105.38 105.475 105.533 105.64 105.7 105.755 105.798 106.525 107.055 105.973 106 106.083 106.185 106.295 106.405 106.485 106.555 106.645 106.72 106.832 106.943 107.073 107.195 107.323 107.427 107.522 107.582 107.643 107.732 107.775 107.84 107.928 107.98 108.072 108.14 108.21 108.26 108.325 108.378 108.428 108.485 108.565 108.647 108.732 108.81 108.902 108.978 109.058 109.145 109.213 109.3 109.38 109.49 109.58 109.655 109.713 109.79 109.84 109.878 109.943 109.99 110.033 110.095 110.143 110.202 110.222 110.24 110.253 110.302 110.872 111.435 110.512 110.607 110.655 110.732 110.803 110.863 110.93 110.995 111.02 111.042 111.088 111.118 111.115 111.147 111.18 111.192 111.217 111.27 111.307 111.323 111.372 111.4 111.458 111.497 111.518 111.575
108.787 107.97 107.51 107.51 107.41 107.43 107.452 107.42 107.395 107.405 107.378 107.363 107.338 107.33 107.33 107.32 107.327 107.327 107.348 107.348 107.372 107.357 107.365 107.37 107.41 107.44 107.45 107.473 107.485 107.485 107.52 107.522 107.545 107.565 107.577 107.595 107.63 107.673 107.695 107.745 107.792 107.825 107.87 107.908 107.973 108.015 108.042 108.098 108.155 108.195 108.225 108.255 108.293 108.342 108.397 108.435 108.475 108.537 108.53 108.59 108.647 108.66 108.7 108.74 108.762 108.78 108.8 108.815 108.818 108.835 108.842 108.85 108.857 108.868 108.89 108.882 108.89 108.88 108.89 108.857 108.872 108.863 108.86 108.815 108.817 108.827 108.81 108.817 108.808 108.805 108.812 108.905 109.893 109.34 108.41 108.4 108.44 108.438 108.485 108.53 108.51 108.49 108.473 108.47 108.46 108.45 108.432 108.405 108.395 108.365 108.34 108.31 108.285 108.253 108.225 108.173 108.143 108.1 108.052 107.995 107.938 107.87 107.818 107.757 107.69 107.637 107.57 107.495 107.452 107.385 107.325 107.253 107.193 107.17 107.118 107.057 106.965 106.882 106.787 106.705 106.625 106.53 106.455 106.382 106.29 106.208 106.147 106.073 105.995 105.915 105.807 105.73 105.637 105.575 105.507 105.44 105.335 105.402 105.54 106.143 106.535 105.567 104.878 104.217 104.09 104.075 104.007 103.943 103.872 103.785 103.723 103.673 103.582 103.515 103.415 103.31 103.182 103.05 102.94 102.897 102.885 102.865 102.72 102.567 102.41 102.268 102.082 101.905 101.74 101.577 101.44 101.31 101.188 101.04 100.89 100.743 100.62 100.473 100.303 100.092 99.868 99.637 99.368 99.035 98.71 98.35 97.993 97.628 97.26 96.885 96.545 96.213 95.952 95.755 95.678 95.738 95.863 96.033 96.198 96.35 96.848 98.577 99.048 99.183 99.3 98.772 98.845 98.89 98.912 98.965 99.007 99.045 99.115 99.177 99.232 99.298 99.353 99.39 99.43 99.465 99.512 99.538 99.59 99.635 99.692 99.753 99.83 99.882 99.927 99.98 100.08 100.805 101.542 100.715 100.232 100.382 100.473 100.592 100.705 100.805 100.908 100.993 101.085 101.202 101.283 101.38 101.473 101.562 101.673 101.775 101.865 101.952 102.033 102.138 102.22 102.295 102.397 102.5 102.583 102.677 102.777 102.865 102.978 103.077 103.177 103.253 103.36 103.442 103.533 103.635 103.715 103.81 103.91 104.018 104.118 104.208 104.3 104.387 104.478 104.565 104.67 104.76 104.81 104.902 104.965 105.045 105.132 105.205 105.29 105.38 105.465 105.545 105.635 105.7 105.795 105.868 105.933 105.955 107.122 106.985 106.115 106.158 106.23 106.333 106.45 106.542 106.635 106.715 106.795 106.878 106.98 107.08 107.22 107.323 107.45 107.575 107.665 107.732 107.772 107.853 107.902 107.985 108.048 108.12 108.215 108.27 108.347 108.393 108.452 108.51 108.572 108.637 108.708 108.793 108.87 108.96 109.048 109.13 109.2 109.28 109.365 109.438 109.537 109.628 109.717 109.798 109.863 109.925 109.967 110.01 110.07 110.12 110.168 110.225 110.275 110.345 110.363 110.382 110.393 110.435 111.17 111.145 110.683 110.78 110.8 110.885 110.938 111.003 111.077 111.15 111.18 111.202 111.238 111.268 111.272 111.292 111.3 111.348 111.375 111.412 111.463 111.497 111.543 111.57 111.613 111.658 111.677 111.72
109.065 108.062 107.73 107.695 107.655 107.655 107.69 107.667 107.643 107.647 107.635 107.622 107.605 107.603 107.63 107.618 107.625 107.637 107.658 107.655 107.667 107.682 107.69 107.692 107.702 107.745 107.75 107.765 107.798 107.812 107.812 107.835 107.86 107.872 107.9 107.92 107.945 107.993 108.01 108.062 108.085 108.125 108.178 108.217 108.27 108.3 108.355 108.417 108.442 108.48 108.515 108.555 108.583 108.63 108.692 108.73 108.745 108.798 108.827 108.85 108.9 108.932 108.967 109.003 109.027 109.05 109.057 109.058 109.06 109.09 109.092 109.09 109.11 109.118 109.122 109.132 109.14 109.14 109.14 109.118 109.11 109.115 109.1 109.073 109.035 109.042 109.033 109.06 109.055 109.055 109.065 109.312 110.743 110.15 108.618 108.65 108.67 108.7 108.747 108.76 108.768 108.753 108.735 108.725 108.725 108.723 108.7 108.65 108.628 108.598 108.592 108.555 108.525 108.495 108.47 108.435 108.387 108.365 108.305 108.26 108.188 108.135 108.088 108.018 107.945 107.875 107.825 107.735 107.69 107.605 107.567 107.507 107.44 107.393 107.335 107.262 107.19 107.118 107.033 106.943 106.882 106.77 106.688 106.605 106.503 106.425 106.335 106.287 106.213 106.118 106.037 105.947 105.848 105.76 105.683 105.618 105.535 105.45 105.397 105.465 106.012 106.36 106.605 106.75 105.7 105.342 105.355 105.137 104.247 103.915 103.863 103.8 103.688 103.607 103.535 103.428 103.32 103.182 103.075 103.027 102.975 102.915 102.818 102.67 102.5 102.335 102.155 101.982 101.827 101.683 101.545 101.412 101.28 101.165 101.012 100.902 100.765 100.598 100.41 100.225 99.997 99.762 99.495 99.16 98.82 98.503 98.145 97.783 97.412 97.075 96.745 96.445 96.215 96.062 96.012 96.07 96.158 96.318 97.087 98.363 98.923 99.048 98.85 99.045 98.915 99.003 99.057 99.095 99.132 99.17 99.213 99.277 99.327 99.4 99.467 99.537 99.585 99.622 99.66 99.698 99.73 99.772 99.823 99.872 99.93 99.98 100.048 100.12 100.155 100.213 100.302 100.693 101.975 100.565 100.44 100.628 100.692 100.792 100.908 101.007 101.11 101.2 101.295 101.405 101.495 101.598 101.695 101.79 101.895 101.99 102.083 102.185 102.26 102.355 102.45 102.512 102.62 102.713 102.795 102.895 102.978 103.09 103.188 103.283 103.4 103.467 103.562 103.653 103.728 103.827 103.912 104.018 104.115 104.205 104.3 104.39 104.49 104.577 104.662 104.753 104.85 104.938 105.022 105.085 105.165 105.245 105.315 105.378 105.46 105.55 105.635 105.728 105.798 105.865 105.955 106.037 106.1 106.122 107.463 106.632 106.238 106.307 106.387 106.505 106.605 106.698 106.78 106.857 106.938 107.035 107.115 107.225 107.363 107.467 107.595 107.715 107.785 107.86 107.903 107.975 108.025 108.105 108.182 108.262 108.34 108.397 108.478 108.522 108.582 108.64 108.695 108.765 108.835 108.92 109.01 109.103 109.182 109.268 109.35 109.423 109.507 109.577 109.667 109.765 109.853 109.93 110.003 110.055 110.11 110.15 110.198 110.255 110.298 110.353 110.402 110.473 110.497 110.5 110.51 110.557 111.45 111.565 110.837 110.912 110.96 111.018 111.06 111.137 111.228 111.295 111.325 111.348 111.382 111.408 111.423 111.445 111.458 111.503 111.52 111.577 111.63 111.652 111.698 111.71 111.755 111.8 111.84 111.875
109.335 108.63 107.943 107.905 107.878 107.863 107.935 107.912 107.917 107.902 107.92 107.912 107.893 107.902 107.915 107.91 107.917 107.912 107.94 107.967 107.98 107.99 107.99 107.997 108.025 108.04 108.055 108.075 108.12 108.11 108.153 108.155 108.188 108.19 108.228 108.24 108.253 108.298 108.31 108.365 108.42 108.452 108.467 108.512 108.562 108.598 108.662 108.71 108.747 108.792 108.823 108.875 108.902 108.917 108.97 109.025 109.065 109.11 109.118 109.16 109.197 109.235 109.243 109.3 109.302 109.327 109.32 109.338 109.327 109.353 109.38 109.387 109.38 109.387 109.405 109.427 109.417 109.4 109.402 109.38 109.4 109.363 109.335 109.338 109.298 109.302 109.277 109.298 109.333 109.32 109.315 109.452 110.63 109.692 108.86 108.91 108.935 108.98 109.015 109.03 109.025 109.018 108.995 109.005 108.973 108.963 108.938 108.897 108.87 108.84 108.827 108.787 108.77 108.745 108.698 108.68 108.64 108.607 108.548 108.503 108.45 108.397 108.33 108.25 108.188 108.115 108.068 107.995 107.927 107.878 107.812 107.74 107.667 107.6 107.558 107.497 107.405 107.342 107.26 107.18 107.115 107.02 106.945 106.842 106.755 106.66 106.567 106.467 106.39 106.31 106.228 106.147 106.055 105.955 105.875 105.81 105.71 105.635 105.56 105.462 105.402 105.467 105.65 105.84 105.777 106.045 106.137 105.97 105.95 105.605 105.068 104.403 104.512 103.882 103.555 103.503 103.47 103.36 103.223 103.11 103.065 102.993 102.882 102.787 102.855 102.595 102.298 102.07 101.923 101.78 101.643 101.525 101.4 101.27 101.11 100.967 100.842 100.697 100.545 100.36 100.128 99.878 99.57 99.265 98.94 98.592 98.247 97.9 97.548 97.22 96.902 96.625 96.463 96.357 96.302 96.315 96.6 97.78 98.652 98.705 98.77 98.878 98.952 99.035 99.132 99.198 99.255 99.295 99.342 99.393 99.448 99.518 99.565 99.637 99.715 99.765 99.82 99.855 99.91 99.93 99.963 100.005 100.062 100.103 100.155 100.205 100.275 100.35 100.378 100.44 100.515 100.66 102.228 101.335 100.695 100.825 100.895 101.005 101.118 101.215 101.308 101.4 101.505 101.625 101.717 101.818 101.912 102.01 102.118 102.21 102.292 102.393 102.473 102.583 102.662 102.768 102.84 102.938 103.02 103.122 103.195 103.303 103.405 103.5 103.592 103.667 103.777 103.842 103.915 104.01 104.103 104.205 104.307 104.402 104.49 104.577 104.685 104.762 104.848 104.948 105.03 105.118 105.213 105.275 105.342 105.417 105.5 105.562 105.643 105.738 105.812 105.885 105.97 106.048 106.135 106.198 106.25 106.47 107.863 106.802 106.362 106.473 106.553 106.683 106.753 106.845 106.925 107 107.097 107.178 107.262 107.372 107.512 107.613 107.73 107.848 107.923 107.99 108.027 108.1 108.147 108.238 108.33 108.402 108.478 108.53 108.605 108.66 108.713 108.757 108.807 108.882 108.958 109.045 109.145 109.235 109.322 109.4 109.478 109.555 109.647 109.717 109.815 109.897 109.982 110.058 110.122 110.173 110.223 110.27 110.305 110.365 110.423 110.485 110.522 110.588 110.605 110.613 110.625 110.675 111.68 111.177 110.975 111.04 111.088 111.16 111.202 111.275 111.355 111.417 111.455 111.507 111.525 111.55 111.537 111.59 111.605 111.635 111.652 111.715 111.753 111.798 111.857 111.848 111.885 111.948 111.98 112.022
109.283 108.925 108.12 108.103 108.125 108.113 108.167 108.147 108.188 108.188 108.198 108.183 108.198 108.177 108.202 108.192 108.193 108.217 108.245 108.265 108.27 108.29 108.31 108.315 108.325 108.353 108.37 108.39 108.415 108.41 108.44 108.485 108.5 108.505 108.54 108.555 108.585 108.605 108.647 108.715 108.747 108.755 108.795 108.835 108.868 108.917 108.97 109.037 109.058 109.095 109.152 109.198 109.225 109.247 109.272 109.315 109.38 109.417 109.43 109.45 109.497 109.52 109.54 109.61 109.628 109.7 109.622 109.628 109.628 109.64 109.643 109.647 109.658 109.662 109.693 109.69 109.68 109.7 109.658 109.693 109.667 109.66 109.63 109.577 109.57 109.565 109.537 109.54 109.57 109.557 109.555 109.688 110.882 109.47 109.11 109.165 109.2 109.232 109.255 109.275 109.285 109.268 109.262 109.247 109.225 109.205 109.188 109.145 109.12 109.083 109.055 109.033 108.993 108.98 108.942 108.933 108.887 108.853 108.792 108.745 108.695 108.63 108.57 108.503 108.425 108.368 108.312 108.232 108.175 108.085 108.012 107.955 107.9 107.842 107.792 107.723 107.63 107.573 107.49 107.39 107.33 107.245 107.18 107.077 106.993 106.885 106.793 106.702 106.577 106.495 106.402 106.33 106.26 106.168 106.083 105.997 105.905 105.83 105.738 105.65 105.565 105.478 105.38 105.29 105.207 105.122 105.06 105.125 105.567 105.585 105.243 105.26 105.522 105.23 105.255 105.152 104.908 104.135 103.345 103.848 103.195 103.613 104.747 104.348 104.277 104.262 103.99 103.777 102.795 102.83 102.402 101.78 101.592 101.34 101.195 101.062 100.948 100.803 100.625 100.417 100.185 99.915 99.632 99.312 98.995 98.658 98.33 97.995 97.647 97.312 97.025 96.798 96.667 96.67 96.57 97.505 98.595 98.473 98.698 98.795 98.938 99.007 99.147 99.253 99.323 99.397 99.465 99.518 99.565 99.618 99.682 99.74 99.805 99.868 99.935 99.99 100.027 100.08 100.128 100.162 100.193 100.238 100.272 100.32 100.37 100.425 100.48 100.562 100.585 100.655 100.73 100.85 102.355 102.54 101.025 101 101.118 101.223 101.325 101.415 101.51 101.622 101.723 101.823 101.923 102.03 102.132 102.232 102.335 102.425 102.513 102.603 102.713 102.803 102.895 102.973 103.06 103.158 103.247 103.34 103.423 103.522 103.603 103.723 103.807 103.878 103.973 104.045 104.113 104.208 104.303 104.405 104.495 104.588 104.7 104.785 104.855 104.967 105.04 105.14 105.228 105.312 105.385 105.467 105.533 105.605 105.68 105.735 105.827 105.908 105.98 106.057 106.128 106.213 106.285 106.365 106.4 106.628 108.088 107.225 106.488 106.635 106.713 106.84 106.908 107 107.082 107.16 107.247 107.33 107.42 107.525 107.652 107.76 107.868 107.98 108.052 108.118 108.152 108.217 108.283 108.368 108.452 108.535 108.607 108.665 108.732 108.787 108.835 108.875 108.933 109.005 109.082 109.173 109.268 109.35 109.44 109.535 109.605 109.683 109.762 109.838 109.935 110.02 110.11 110.173 110.225 110.285 110.345 110.382 110.42 110.467 110.537 110.6 110.628 110.698 110.717 110.725 110.745 110.81 111.85 111.332 111.098 111.167 111.217 111.28 111.33 111.415 111.495 111.548 111.6 111.635 111.668 111.685 111.67 111.72 111.745 111.78 111.8 111.853 111.885 111.92 111.997 112 112.04 112.103 112.125 112.17
109.495 109.012 108.342 108.345 108.34 108.34 108.397 108.41 108.42 108.445 108.445 108.445 108.458 108.46 108.482 108.47 108.47 108.488 108.527 108.558 108.57 108.588 108.615 108.62 108.618 108.66 108.673 108.698 108.72 108.728 108.757 108.81 108.8 108.812 108.833 108.865 108.908 108.935 108.97 109.01 109.055 109.07 109.107 109.153 109.195 109.235 109.285 109.33 109.375 109.41 109.47 109.503 109.545 109.555 109.6 109.643 109.675 109.702 109.73 109.743 109.787 109.802 109.818 109.897 109.83 109.825 109.908 109.897 109.882 109.912 109.92 109.938 109.93 109.945 109.938 109.963 109.963 109.942 109.938 109.92 109.935 109.92 109.887 109.872 109.85 109.857 109.802 109.838 109.82 109.81 109.865 109.9 111.075 110.055 109.393 109.425 109.48 109.507 109.515 109.533 109.525 109.527 109.512 109.5 109.478 109.45 109.425 109.375 109.363 109.325 109.303 109.265 109.232 109.223 109.173 109.15 109.113 109.077 109.005 108.965 108.923 108.86 108.8 108.723 108.677 108.595 108.545 108.46 108.405 108.33 108.253 108.192 108.113 108.06 107.988 107.938 107.865 107.787 107.717 107.615 107.55 107.47 107.382 107.32 107.223 107.128 107.025 106.94 106.812 106.725 106.622 106.527 106.44 106.355 106.28 106.207 106.12 106.03 105.927 105.835 105.755 105.675 105.568 105.478 105.385 105.27 105.167 105.095 105.01 104.933 104.84 104.785 104.705 104.652 104.647 104.995 105.285 105.36 103.643 104.4 103.405 103.45 103.465 103.755 103.645 104.055 103.757 102.95 102.895 102.762 102.65 102.505 102.538 102.728 101.88 102.095 101.045 100.857 100.705 100.525 100.28 100.007 99.7 99.39 99.075 98.75 98.42 98.088 97.743 97.423 97.215 97.215 96.93 97.445 98.103 98.457 98.71 98.835 98.795 98.965 99.118 99.247 99.353 99.445 99.527 99.637 99.702 99.745 99.785 99.845 99.897 99.965 100.018 100.095 100.147 100.213 100.265 100.287 100.34 100.368 100.402 100.445 100.493 100.548 100.598 100.652 100.698 100.783 100.81 100.868 100.938 101.003 102.265 102.375 101.188 101.198 101.307 101.412 101.537 101.63 101.728 101.82 101.93 102.025 102.132 102.232 102.345 102.44 102.542 102.647 102.743 102.823 102.91 103.01 103.098 103.19 103.275 103.378 103.457 103.55 103.637 103.738 103.83 103.912 104.005 104.095 104.182 104.235 104.323 104.415 104.51 104.61 104.695 104.787 104.885 104.965 105.045 105.137 105.232 105.325 105.412 105.488 105.557 105.64 105.725 105.785 105.865 105.92 106.003 106.062 106.143 106.23 106.29 106.38 106.467 106.515 106.555 107.045 108.42 107.165 106.665 106.785 106.872 106.993 107.062 107.147 107.232 107.308 107.39 107.463 107.562 107.67 107.783 107.91 108.005 108.115 108.173 108.232 108.277 108.34 108.397 108.47 108.57 108.647 108.725 108.798 108.857 108.923 108.96 108.995 109.045 109.115 109.193 109.285 109.38 109.47 109.565 109.643 109.725 109.798 109.87 109.955 110.06 110.125 110.223 110.283 110.353 110.4 110.445 110.482 110.527 110.588 110.643 110.713 110.738 110.805 110.827 110.825 110.847 110.933 112.048 111.395 111.22 111.275 111.342 111.41 111.47 111.53 111.637 111.677 111.72 111.743 111.798 111.815 111.812 111.85 111.897 111.912 111.938 111.982 112.012 112.052 112.115 112.125 112.2 112.24 112.262 112.308
109.65 109.743 108.577 108.558 108.558 108.58 108.645 108.658 108.688 108.705 108.7 108.702 108.715 108.713 108.753 108.77 108.78 108.77 108.805 108.832 108.842 108.857 108.905 108.912 108.908 108.95 108.973 108.982 109.012 109.027 109.062 109.107 109.115 109.143 109.145 109.19 109.21 109.26 109.292 109.348 109.37 109.378 109.43 109.467 109.522 109.558 109.598 109.632 109.677 109.723 109.777 109.825 109.84 109.88 109.905 109.96 109.96 109.995 110.007 110.065 110.073 110.105 110.125 110.15 110.122 110.137 110.16 110.17 110.175 110.185 110.202 110.22 110.232 110.215 110.232 110.232 110.235 110.232 110.215 110.205 110.195 110.197 110.155 110.155 110.122 110.103 110.05 110.073 110.08 110.088 110.118 110.107 111.293 110.155 109.675 109.685 109.735 109.768 109.79 109.8 109.783 109.777 109.76 109.743 109.717 109.7 109.675 109.625 109.613 109.55 109.527 109.497 109.463 109.448 109.423 109.38 109.317 109.298 109.225 109.202 109.17 109.09 109.02 108.96 108.908 108.815 108.772 108.673 108.618 108.535 108.458 108.417 108.342 108.287 108.208 108.152 108.07 108 107.917 107.835 107.757 107.673 107.603 107.525 107.42 107.348 107.247 107.152 107.06 106.952 106.855 106.753 106.658 106.557 106.46 106.37 106.292 106.198 106.125 106.048 105.943 105.855 105.755 105.675 105.577 105.467 105.357 105.253 105.158 105.067 105.007 104.912 104.838 104.77 104.678 104.56 104.47 104.192 104.005 105.018 104.61 103.45 103.41 103.342 103.28 103.197 103.05 102.89 102.757 102.61 102.48 102.375 102.685 102.645 102.565 102.6 103.007 102.688 101.525 101.36 101.145 100.522 100.028 99.438 99.122 98.79 98.455 98.16 97.825 97.658 97.967 98.342 98.768 99.007 99.115 98.658 98.755 98.893 99.042 99.2 99.327 99.442 99.565 99.683 99.772 99.855 99.915 99.955 100.02 100.083 100.137 100.192 100.24 100.287 100.353 100.43 100.478 100.5 100.558 100.59 100.628 100.677 100.708 100.76 100.812 100.865 100.92 100.997 101.025 101.073 101.137 101.182 102.333 102.688 101.637 101.382 101.51 101.62 101.732 101.842 101.915 102.018 102.118 102.223 102.325 102.433 102.548 102.64 102.745 102.842 102.93 103.022 103.115 103.213 103.312 103.395 103.493 103.585 103.675 103.78 103.855 103.95 104.035 104.113 104.202 104.295 104.382 104.44 104.527 104.622 104.713 104.805 104.885 104.98 105.077 105.17 105.25 105.34 105.415 105.518 105.607 105.685 105.755 105.815 105.885 105.952 106.04 106.082 106.175 106.225 106.325 106.39 106.467 106.545 106.63 106.698 106.72 107.257 108.31 106.952 106.815 106.945 107.035 107.155 107.228 107.312 107.378 107.458 107.54 107.618 107.713 107.808 107.932 108.062 108.158 108.25 108.318 108.355 108.4 108.46 108.525 108.6 108.688 108.762 108.853 108.932 108.985 109.03 109.08 109.107 109.162 109.232 109.31 109.397 109.495 109.592 109.693 109.76 109.853 109.92 109.985 110.068 110.168 110.24 110.327 110.393 110.47 110.515 110.552 110.588 110.63 110.683 110.74 110.818 110.853 110.897 110.927 110.92 110.935 111.045 112.438 111.51 111.323 111.375 111.463 111.527 111.595 111.655 111.765 111.805 111.842 111.882 111.943 111.938 111.94 111.98 112.015 112.033 112.067 112.098 112.14 112.17 112.247 112.25 112.307 112.368 112.405 112.44
109.73 110.315 108.83 108.795 108.777 108.812 108.882 108.908 108.92 108.952 108.96 108.96 108.963 108.967 109.007 109.015 109.018 109.045 109.075 109.092 109.092 109.128 109.16 109.185 109.183 109.225 109.245 109.27 109.295 109.332 109.345 109.378 109.408 109.43 109.44 109.47 109.512 109.55 109.618 109.625 109.66 109.693 109.743 109.777 109.838 109.868 109.92 109.95 109.995 110.022 110.062 110.125 110.152 110.193 110.202 110.255 110.283 110.3 110.33 110.335 110.38 110.382 110.425 110.438 110.357 110.423 110.458 110.448 110.458 110.463 110.478 110.463 110.495 110.473 110.488 110.5 110.505 110.5 110.493 110.497 110.482 110.47 110.452 110.405 110.37 110.365 110.357 110.333 110.345 110.355 110.345 110.41 111.5 110.69 109.935 109.94 109.988 110.007 110.033 110.062 110.045 110.027 110.01 109.99 109.965 109.945 109.91 109.86 109.833 109.787 109.757 109.728 109.702 109.682 109.645 109.618 109.545 109.515 109.448 109.423 109.372 109.298 109.247 109.18 109.135 109.037 108.982 108.895 108.835 108.757 108.685 108.628 108.537 108.475 108.41 108.345 108.283 108.202 108.132 108.048 107.978 107.895 107.82 107.725 107.637 107.548 107.445 107.355 107.26 107.155 107.077 106.995 106.893 106.785 106.67 106.557 106.463 106.387 106.308 106.225 106.122 106.022 105.923 105.83 105.753 105.662 105.548 105.442 105.34 105.24 105.158 105.053 104.965 104.878 104.787 104.68 104.512 104.393 104.257 105.28 103.965 103.568 103.542 103.545 103.465 103.348 103.213 103.083 102.957 102.827 102.677 102.507 102.338 102.168 102.068 101.93 101.84 102.37 102.985 102.613 102.042 102.025 101.465 101.412 100.69 100.46 100.345 100.232 99.283 99.518 98.772 99.26 98.89 98.692 98.76 98.882 99.018 99.14 99.27 99.41 99.542 99.675 99.812 99.912 99.995 100.07 100.128 100.193 100.24 100.293 100.355 100.41 100.467 100.537 100.573 100.637 100.68 100.72 100.772 100.81 100.838 100.89 100.912 100.972 101.02 101.073 101.122 101.195 101.225 101.28 101.347 101.368 102.573 102.74 102.497 101.56 101.702 101.823 101.93 102.033 102.122 102.223 102.31 102.43 102.533 102.635 102.74 102.83 102.94 103.04 103.125 103.232 103.32 103.417 103.515 103.598 103.705 103.793 103.878 103.973 104.05 104.15 104.235 104.33 104.4 104.5 104.59 104.643 104.728 104.815 104.91 105.005 105.072 105.17 105.265 105.348 105.452 105.53 105.603 105.683 105.792 105.85 105.92 105.988 106.07 106.122 106.205 106.262 106.34 106.408 106.495 106.565 106.625 106.708 106.79 106.842 106.878 107.435 108.463 107.018 106.967 107.118 107.213 107.317 107.39 107.463 107.527 107.625 107.7 107.772 107.868 107.96 108.09 108.2 108.3 108.385 108.447 108.485 108.522 108.58 108.647 108.725 108.812 108.902 108.978 109.045 109.11 109.162 109.202 109.225 109.283 109.36 109.428 109.518 109.607 109.705 109.793 109.888 109.963 110.025 110.11 110.173 110.265 110.348 110.44 110.515 110.557 110.618 110.66 110.688 110.745 110.778 110.838 110.915 110.955 110.985 111.027 111.005 111.045 111.2 112.5 111.695 111.442 111.495 111.568 111.643 111.71 111.785 111.88 111.927 111.967 112.003 112.045 112.06 112.06 112.083 112.118 112.137 112.173 112.223 112.253 112.303 112.363 112.402 112.452 112.485 112.515 112.56
109.628 110.44 109.277 109.003 109.018 109.035 109.115 109.16 109.158 109.175 109.205 109.213 109.202 109.223 109.25 109.26 109.292 109.293 109.333 109.34 109.36 109.368 109.4 109.428 109.438 109.48 109.512 109.527 109.568 109.575 109.61 109.658 109.68 109.715 109.735 109.765 109.815 109.835 109.872 109.908 109.97 109.99 110.048 110.08 110.14 110.167 110.235 110.257 110.293 110.333 110.382 110.412 110.47 110.475 110.525 110.543 110.588 110.613 110.632 110.64 110.645 110.658 110.695 110.705 110.715 110.72 110.705 110.713 110.725 110.753 110.745 110.743 110.745 110.738 110.743 110.777 110.777 110.768 110.765 110.762 110.745 110.728 110.735 110.685 110.647 110.64 110.6 110.6 110.61 110.622 110.573 110.628 111.39 111.088 110.21 110.205 110.24 110.257 110.28 110.305 110.295 110.27 110.265 110.235 110.2 110.185 110.143 110.1 110.062 110.022 109.98 109.955 109.927 109.908 109.868 109.838 109.757 109.735 109.673 109.625 109.58 109.505 109.473 109.393 109.327 109.245 109.182 109.098 109.025 108.973 108.908 108.833 108.747 108.673 108.622 108.542 108.473 108.42 108.335 108.257 108.185 108.11 108.015 107.95 107.842 107.75 107.65 107.568 107.478 107.38 107.287 107.183 107.105 107.007 106.902 106.783 106.662 106.565 106.465 106.37 106.283 106.175 106.08 105.988 105.895 105.805 105.71 105.613 105.505 105.418 105.325 105.225 105.132 105.01 104.93 104.82 104.693 104.592 104.467 105.158 104.363 103.745 103.7 103.675 103.577 103.458 103.345 103.228 103.105 102.973 102.853 102.72 102.565 102.402 102.238 102.052 101.855 101.645 101.53 101.39 101.197 101.058 100.885 100.912 100.22 100.075 99.598 99.425 99.235 99.175 98.903 98.83 98.865 98.93 99.028 99.115 99.208 99.342 99.488 99.658 99.795 99.925 100.03 100.13 100.223 100.31 100.378 100.428 100.48 100.533 100.573 100.622 100.677 100.745 100.79 100.842 100.893 100.95 100.988 101.007 101.052 101.105 101.135 101.192 101.232 101.277 101.33 101.405 101.438 101.475 101.537 101.59 102.77 103.478 102.562 101.73 101.895 102.007 102.118 102.22 102.31 102.415 102.503 102.625 102.725 102.825 102.927 103.03 103.13 103.23 103.333 103.43 103.518 103.615 103.707 103.798 103.9 103.99 104.09 104.177 104.253 104.348 104.448 104.53 104.613 104.7 104.775 104.84 104.927 104.997 105.115 105.182 105.272 105.37 105.457 105.548 105.628 105.71 105.798 105.872 105.96 106.025 106.103 106.158 106.25 106.307 106.372 106.433 106.51 106.575 106.655 106.71 106.777 106.853 106.93 107.007 107.025 107.783 108.615 107.152 107.128 107.277 107.37 107.475 107.55 107.615 107.688 107.772 107.853 107.923 108.027 108.128 108.23 108.342 108.435 108.518 108.565 108.605 108.645 108.698 108.772 108.848 108.945 109.025 109.118 109.167 109.22 109.278 109.32 109.353 109.408 109.48 109.545 109.637 109.723 109.825 109.917 110.003 110.068 110.128 110.21 110.277 110.37 110.45 110.535 110.605 110.647 110.715 110.743 110.795 110.83 110.875 110.93 111.01 111.05 111.073 111.11 111.095 111.14 111.408 112.247 111.65 111.555 111.613 111.67 111.745 111.823 111.89 111.982 112.033 112.062 112.125 112.137 112.173 112.18 112.198 112.24 112.268 112.298 112.35 112.393 112.433 112.495 112.53 112.57 112.618 112.628 112.67
109.77 110.805 109.473 109.21 109.24 109.262 109.333 109.37 109.39 109.42 109.425 109.44 109.448 109.465 109.478 109.48 109.518 109.555 109.568 109.59 109.6 109.615 109.65 109.66 109.69 109.713 109.762 109.775 109.82 109.853 109.89 109.915 109.938 109.97 110 110.03 110.075 110.125 110.168 110.195 110.232 110.272 110.325 110.355 110.417 110.452 110.503 110.58 110.583 110.628 110.658 110.717 110.768 110.785 110.81 110.845 110.878 110.893 110.902 110.915 110.95 110.942 110.967 111.01 110.985 110.997 111 110.982 111.007 111.018 111.018 111 111.007 111.037 111.025 111.055 111.065 111.058 111.043 111.035 111.033 111.018 111.007 110.96 110.965 110.903 110.87 110.878 110.882 110.897 110.857 110.875 111.333 111.81 110.635 110.438 110.493 110.507 110.542 110.548 110.535 110.518 110.495 110.473 110.438 110.412 110.37 110.323 110.287 110.257 110.22 110.192 110.145 110.125 110.098 110.04 109.982 109.938 109.882 109.833 109.772 109.717 109.675 109.583 109.53 109.455 109.378 109.3 109.23 109.165 109.085 109.007 108.938 108.86 108.802 108.725 108.67 108.61 108.542 108.473 108.387 108.3 108.225 108.147 108.055 107.955 107.878 107.765 107.68 107.565 107.485 107.395 107.302 107.215 107.12 107.003 106.885 106.77 106.665 106.56 106.445 106.323 106.235 106.125 106.035 105.932 105.835 105.755 105.658 105.59 105.48 105.39 105.287 105.195 105.075 104.975 104.878 104.792 104.683 105.283 104.792 103.893 103.835 103.795 103.713 103.59 103.488 103.39 103.285 103.173 103.027 102.87 102.735 102.58 102.417 102.247 102.052 101.84 101.603 101.378 101.12 100.86 100.592 100.335 100.09 99.823 99.615 99.427 99.27 99.162 99.115 99.088 99.1 99.152 99.228 99.342 99.465 99.61 99.765 99.885 100.025 100.16 100.268 100.38 100.467 100.533 100.583 100.64 100.688 100.74 100.808 100.835 100.875 100.935 100.997 101.05 101.095 101.15 101.195 101.228 101.275 101.305 101.342 101.385 101.43 101.48 101.525 101.592 101.618 101.665 101.735 101.798 102.857 103.01 101.895 101.902 102.068 102.173 102.287 102.402 102.495 102.613 102.698 102.825 102.912 103.01 103.122 103.23 103.33 103.423 103.525 103.628 103.713 103.812 103.908 103.993 104.098 104.177 104.29 104.378 104.465 104.548 104.66 104.738 104.812 104.902 104.97 105.042 105.122 105.208 105.295 105.38 105.473 105.553 105.643 105.737 105.812 105.893 105.98 106.052 106.128 106.207 106.257 106.34 106.405 106.467 106.545 106.607 106.68 106.745 106.812 106.875 106.94 107.005 107.062 107.162 107.188 107.857 108.34 107.287 107.272 107.44 107.53 107.618 107.705 107.762 107.842 107.918 107.997 108.07 108.17 108.27 108.372 108.488 108.558 108.647 108.685 108.735 108.77 108.832 108.895 108.97 109.067 109.137 109.225 109.3 109.345 109.405 109.443 109.482 109.52 109.59 109.658 109.745 109.835 109.935 110.022 110.103 110.175 110.235 110.308 110.387 110.482 110.543 110.643 110.71 110.747 110.815 110.845 110.895 110.93 110.96 111.027 111.09 111.128 111.16 111.198 111.177 111.243 111.667 112.11 111.658 111.65 111.693 111.768 111.838 111.9 111.978 112.08 112.13 112.165 112.228 112.245 112.28 112.293 112.318 112.342 112.362 112.417 112.467 112.51 112.552 112.61 112.64 112.69 112.735 112.762 112.79
109.955 110.785 109.525 109.402 109.425 109.457 109.537 109.588 109.598 109.62 109.647 109.652 109.66 109.695 109.692 109.7 109.753 109.77 109.8 109.822 109.835 109.845 109.87 109.897 109.925 109.955 109.988 110.03 110.062 110.095 110.137 110.173 110.198 110.238 110.262 110.29 110.34 110.382 110.423 110.475 110.507 110.542 110.605 110.635 110.688 110.73 110.798 110.857 110.893 110.91 110.955 110.982 111.015 111.043 111.06 111.1 111.14 111.158 111.173 111.195 111.208 111.195 111.245 111.253 111.247 111.283 111.26 111.265 111.25 111.247 111.265 111.265 111.275 111.27 111.268 111.29 111.298 111.312 111.32 111.308 111.283 111.277 111.27 111.228 111.205 111.19 111.173 111.135 111.132 111.158 111.152 111.135 111.308 112.455 111.118 110.695 110.73 110.747 110.75 110.785 110.775 110.75 110.735 110.715 110.675 110.645 110.607 110.562 110.522 110.5 110.455 110.423 110.37 110.332 110.29 110.253 110.202 110.165 110.103 110.045 110 109.927 109.882 109.802 109.74 109.673 109.592 109.503 109.417 109.368 109.285 109.215 109.13 109.062 109.007 108.923 108.863 108.798 108.728 108.65 108.557 108.513 108.44 108.357 108.275 108.178 108.088 107.997 107.88 107.775 107.693 107.585 107.482 107.393 107.305 107.19 107.085 106.98 106.86 106.76 106.643 106.535 106.423 106.29 106.192 106.077 105.98 105.88 105.787 105.717 105.62 105.527 105.427 105.317 105.177 105.085 105.003 104.965 104.885 105.375 105.557 104.088 103.945 103.9 103.83 103.71 103.607 103.515 103.395 103.287 103.16 103.043 102.895 102.757 102.58 102.408 102.208 101.997 101.787 101.57 101.31 101.052 100.807 100.535 100.298 100.065 99.855 99.67 99.505 99.39 99.323 99.31 99.34 99.402 99.488 99.595 99.72 99.848 99.98 100.12 100.277 100.402 100.518 100.613 100.688 100.757 100.815 100.865 100.91 100.95 101.007 101.048 101.09 101.143 101.205 101.253 101.307 101.355 101.395 101.43 101.47 101.495 101.537 101.59 101.632 101.675 101.708 101.772 101.822 101.865 101.92 101.993 103.037 103.487 102.298 102.088 102.255 102.34 102.478 102.59 102.68 102.793 102.887 103 103.105 103.202 103.323 103.42 103.515 103.615 103.728 103.81 103.908 103.997 104.113 104.185 104.285 104.382 104.475 104.573 104.655 104.75 104.84 104.908 104.993 105.072 105.152 105.232 105.302 105.38 105.485 105.562 105.665 105.745 105.812 105.91 105.99 106.07 106.158 106.232 106.295 106.365 106.435 106.5 106.58 106.64 106.705 106.768 106.838 106.915 106.975 107.033 107.095 107.167 107.215 107.303 107.35 108.662 108.363 107.455 107.428 107.58 107.68 107.76 107.855 107.905 107.988 108.067 108.147 108.223 108.302 108.415 108.518 108.61 108.698 108.778 108.802 108.855 108.895 108.948 109.018 109.09 109.17 109.245 109.34 109.427 109.455 109.512 109.565 109.603 109.643 109.708 109.783 109.865 109.967 110.052 110.128 110.213 110.285 110.342 110.405 110.493 110.582 110.66 110.738 110.798 110.857 110.903 110.948 110.978 111.018 111.052 111.122 111.18 111.235 111.245 111.283 111.272 111.33 111.827 112.295 111.69 111.743 111.785 111.855 111.938 111.995 112.088 112.188 112.223 112.257 112.312 112.333 112.37 112.382 112.415 112.43 112.452 112.52 112.567 112.618 112.665 112.713 112.747 112.798 112.85 112.875 112.92
110.275 110.855 109.575 109.612 109.615 109.643 109.732 109.775 109.81 109.812 109.835 109.855 109.89 109.91 109.908 109.918 109.952 109.98 110.005 110.04 110.09 110.075 110.125 110.13 110.15 110.185 110.243 110.257 110.287 110.333 110.368 110.417 110.455 110.473 110.522 110.555 110.568 110.637 110.693 110.732 110.775 110.808 110.882 110.902 110.958 111.012 111.048 111.105 111.137 111.165 111.195 111.235 111.25 111.272 111.317 111.338 111.372 111.412 111.408 111.42 111.45 111.49 111.465 111.495 111.485 111.478 111.497 111.512 111.52 111.507 111.512 111.533 111.53 111.533 111.557 111.555 111.57 111.555 111.575 111.583 111.57 111.552 111.535 111.503 111.46 111.467 111.433 111.417 111.39 111.41 111.397 111.378 111.46 112.95 111.452 110.935 110.94 110.98 110.978 111.022 110.995 110.997 110.97 110.95 110.908 110.882 110.835 110.793 110.75 110.715 110.66 110.643 110.59 110.55 110.507 110.47 110.425 110.37 110.325 110.257 110.213 110.135 110.058 109.99 109.93 109.853 109.777 109.71 109.607 109.572 109.467 109.412 109.33 109.28 109.192 109.125 109.065 109 108.915 108.855 108.753 108.71 108.637 108.577 108.488 108.375 108.27 108.183 108.082 107.975 107.878 107.785 107.662 107.59 107.482 107.375 107.257 107.16 107.04 106.945 106.825 106.71 106.603 106.467 106.378 106.255 106.143 106.04 105.95 105.85 105.757 105.665 105.562 105.46 105.305 105.225 105.128 105.095 105.055 105.455 106.062 104.143 104.043 104.022 103.965 103.863 103.762 103.632 103.503 103.38 103.247 103.128 103 102.878 102.713 102.565 102.4 102.177 101.935 101.713 101.452 101.205 100.955 100.698 100.47 100.243 100.035 99.865 99.738 99.632 99.573 99.58 99.6 99.658 99.74 99.845 99.975 100.105 100.247 100.397 100.537 100.652 100.753 100.825 100.91 100.975 101.02 101.077 101.12 101.16 101.208 101.262 101.295 101.348 101.408 101.458 101.505 101.545 101.582 101.62 101.66 101.693 101.728 101.775 101.818 101.865 101.91 101.967 102.022 102.045 102.105 102.18 103.073 103.207 102.65 102.27 102.438 102.54 102.667 102.78 102.878 102.982 103.085 103.198 103.3 103.387 103.503 103.615 103.728 103.812 103.9 104.003 104.11 104.19 104.298 104.37 104.463 104.572 104.665 104.76 104.838 104.933 105.027 105.103 105.19 105.262 105.342 105.425 105.49 105.555 105.655 105.743 105.83 105.92 106.005 106.083 106.158 106.243 106.333 106.395 106.47 106.527 106.615 106.673 106.745 106.82 106.865 106.927 107 107.075 107.135 107.21 107.268 107.312 107.365 107.452 107.48 108.11 108.885 107.555 107.607 107.717 107.825 107.905 107.99 108.035 108.125 108.207 108.287 108.36 108.452 108.548 108.645 108.75 108.84 108.902 108.925 108.967 109.01 109.062 109.132 109.217 109.272 109.357 109.448 109.522 109.567 109.632 109.675 109.71 109.77 109.823 109.908 109.98 110.082 110.16 110.243 110.307 110.397 110.45 110.533 110.588 110.683 110.768 110.825 110.895 110.955 111 111.035 111.062 111.113 111.143 111.208 111.262 111.323 111.335 111.365 111.365 111.408 111.938 113.075 111.783 111.812 111.863 111.945 112.025 112.09 112.17 112.265 112.302 112.348 112.395 112.42 112.44 112.46 112.503 112.522 112.552 112.595 112.647 112.705 112.75 112.802 112.865 112.9 112.948 112.993 113.018
110.285 111.118 109.768 109.79 109.787 109.827 109.923 109.963 109.99 109.988 110.033 110.065 110.07 110.098 110.103 110.11 110.145 110.198 110.22 110.255 110.262 110.287 110.323 110.332 110.375 110.39 110.463 110.497 110.518 110.577 110.607 110.63 110.688 110.717 110.747 110.787 110.817 110.878 110.935 110.99 111.035 111.09 111.143 111.167 111.215 111.277 111.315 111.363 111.372 111.42 111.438 111.465 111.482 111.503 111.515 111.53 111.577 111.613 111.622 111.632 111.667 111.685 111.7 111.725 111.717 111.725 111.753 111.743 111.755 111.77 111.765 111.762 111.79 111.787 111.79 111.81 111.823 111.798 111.825 111.82 111.81 111.812 111.823 111.777 111.73 111.728 111.695 111.653 111.637 111.637 111.635 111.607 111.647 112.58 111.29 111.165 111.183 111.208 111.217 111.232 111.228 111.225 111.21 111.18 111.135 111.098 111.06 111.022 110.963 110.93 110.882 110.855 110.823 110.765 110.73 110.69 110.635 110.577 110.542 110.45 110.402 110.32 110.255 110.192 110.137 110.057 109.963 109.915 109.827 109.762 109.678 109.613 109.522 109.465 109.393 109.32 109.25 109.198 109.095 109.025 108.952 108.91 108.842 108.76 108.695 108.583 108.478 108.378 108.28 108.167 108.065 107.967 107.875 107.783 107.662 107.552 107.43 107.33 107.213 107.098 106.988 106.887 106.785 106.652 106.555 106.427 106.333 106.268 106.16 106.022 105.928 105.808 105.75 105.705 105.473 105.363 105.285 105.245 105.208 105.475 106.147 104.29 104.143 104.177 104.165 104.01 103.92 103.765 103.652 103.53 103.387 103.262 103.118 102.98 102.825 102.647 102.47 102.28 102.073 101.865 101.622 101.378 101.122 100.885 100.675 100.46 100.257 100.092 99.95 99.85 99.803 99.798 99.855 99.923 100.027 100.143 100.265 100.408 100.542 100.67 100.783 100.893 100.982 101.062 101.135 101.198 101.225 101.275 101.31 101.348 101.415 101.445 101.488 101.545 101.595 101.647 101.685 101.735 101.77 101.81 101.86 101.887 101.915 101.967 102.003 102.045 102.08 102.145 102.198 102.24 102.295 102.357 102.885 104.05 103.24 102.46 102.622 102.732 102.855 102.963 103.07 103.173 103.27 103.382 103.485 103.585 103.7 103.79 103.895 103.997 104.088 104.188 104.287 104.368 104.475 104.56 104.66 104.76 104.85 104.933 105.025 105.118 105.202 105.28 105.363 105.448 105.52 105.595 105.655 105.738 105.832 105.915 106.007 106.092 106.183 106.255 106.335 106.417 106.495 106.567 106.64 106.702 106.785 106.835 106.91 106.967 107.033 107.08 107.152 107.235 107.292 107.362 107.408 107.465 107.533 107.592 107.65 108.658 108.55 107.65 107.755 107.842 107.943 108.027 108.11 108.177 108.265 108.34 108.408 108.495 108.57 108.682 108.765 108.872 108.96 109.01 109.05 109.088 109.125 109.17 109.243 109.327 109.393 109.463 109.548 109.635 109.68 109.735 109.78 109.815 109.893 109.933 110.033 110.098 110.183 110.265 110.35 110.427 110.505 110.558 110.618 110.69 110.79 110.87 110.923 110.995 111.057 111.095 111.125 111.15 111.21 111.25 111.315 111.353 111.405 111.42 111.448 111.443 111.493 112.153 112.872 111.875 111.895 111.948 112.042 112.113 112.182 112.262 112.338 112.385 112.427 112.482 112.495 112.53 112.545 112.577 112.61 112.64 112.693 112.74 112.805 112.845 112.887 112.942 112.98 113.042 113.092 113.11
110.342 111.312 109.943 109.963 109.99 109.995 110.103 110.15 110.188 110.19 110.208 110.243 110.255 110.295 110.31 110.315 110.342 110.382 110.428 110.452 110.482 110.472 110.522 110.545 110.577 110.622 110.667 110.717 110.745 110.785 110.825 110.857 110.923 110.955 110.985 111.015 111.052 111.11 111.183 111.22 111.257 111.342 111.372 111.402 111.467 111.493 111.55 111.567 111.592 111.625 111.685 111.688 111.705 111.715 111.755 111.768 111.818 111.808 111.855 111.84 111.872 111.887 111.912 111.943 111.952 111.967 111.982 111.97 111.97 111.967 112.015 112.012 112.025 112.027 112.033 112.053 112.068 112.075 112.088 112.088 112.083 112.05 112.037 112.02 111.993 111.945 111.938 111.887 111.893 111.902 111.9 111.85 111.86 113.05 112.2 111.382 111.415 111.45 111.448 111.46 111.452 111.45 111.438 111.412 111.378 111.332 111.29 111.247 111.193 111.158 111.115 111.077 111.043 111 110.96 110.912 110.845 110.772 110.743 110.662 110.6 110.537 110.455 110.397 110.338 110.27 110.175 110.107 110.015 109.965 109.875 109.793 109.715 109.658 109.585 109.512 109.435 109.393 109.295 109.235 109.165 109.103 109.025 108.948 108.875 108.77 108.677 108.562 108.482 108.372 108.268 108.165 108.06 107.967 107.86 107.73 107.613 107.497 107.378 107.262 107.152 107.05 106.942 106.825 106.732 106.605 106.5 106.432 106.3 106.193 106.09 105.982 105.887 105.815 105.635 105.5 105.423 105.378 105.345 105.41 106.253 105.395 104.25 104.295 104.262 104.165 104.058 103.932 103.83 103.688 103.54 103.423 103.272 103.12 102.955 102.77 102.603 102.405 102.183 101.955 101.708 101.482 101.247 101.015 100.815 100.598 100.423 100.278 100.162 100.1 100.062 100.067 100.118 100.202 100.317 100.45 100.577 100.7 100.827 100.95 101.05 101.135 101.222 101.27 101.348 101.4 101.43 101.475 101.505 101.54 101.595 101.635 101.688 101.745 101.783 101.835 101.88 101.925 101.96 101.995 102.037 102.075 102.107 102.15 102.18 102.22 102.262 102.32 102.38 102.41 102.458 102.52 103.027 104.07 103.025 102.635 102.783 102.912 103.027 103.14 103.247 103.35 103.455 103.562 103.67 103.765 103.863 103.978 104.09 104.178 104.268 104.363 104.475 104.567 104.655 104.745 104.84 104.938 105.022 105.12 105.202 105.305 105.372 105.47 105.55 105.632 105.7 105.775 105.84 105.908 106.005 106.08 106.185 106.26 106.345 106.438 106.51 106.57 106.645 106.73 106.8 106.868 106.928 106.995 107.073 107.12 107.19 107.247 107.305 107.382 107.447 107.507 107.548 107.605 107.658 107.73 107.762 109.14 109.397 107.78 107.9 107.973 108.08 108.17 108.24 108.315 108.39 108.458 108.535 108.615 108.698 108.812 108.895 108.995 109.077 109.122 109.175 109.188 109.23 109.27 109.345 109.42 109.493 109.57 109.645 109.732 109.798 109.838 109.878 109.93 110.007 110.05 110.14 110.21 110.277 110.378 110.448 110.53 110.603 110.652 110.715 110.787 110.885 110.96 111.033 111.098 111.16 111.192 111.217 111.247 111.302 111.342 111.402 111.44 111.5 111.515 111.542 111.542 111.59 112.6 113.137 111.943 111.982 112.037 112.115 112.198 112.262 112.348 112.433 112.48 112.512 112.577 112.565 112.585 112.62 112.658 112.707 112.72 112.76 112.82 112.9 112.93 112.97 113.025 113.062 113.132 113.177 113.202
110.52 111.433 110.423 110.14 110.16 110.162 110.275 110.318 110.353 110.372 110.395 110.435 110.442 110.478 110.497 110.495 110.525 110.58 110.592 110.64 110.66 110.683 110.725 110.745 110.775 110.857 110.86 110.905 110.943 110.995 111.022 111.07 111.12 111.155 111.188 111.228 111.268 111.335 111.42 111.47 111.503 111.56 111.6 111.64 111.688 111.71 111.75 111.808 111.825 111.842 111.875 111.897 111.908 111.93 111.955 111.995 111.995 112.027 112.03 112.067 112.08 112.085 112.12 112.137 112.13 112.162 112.18 112.183 112.232 112.21 112.223 112.225 112.26 112.275 112.29 112.33 112.338 112.335 112.342 112.34 112.327 112.302 112.31 112.268 112.255 112.213 112.198 112.192 112.147 112.162 112.167 112.118 112.175 113.41 111.997 111.602 111.632 111.67 111.682 111.69 111.677 111.68 111.658 111.63 111.592 111.583 111.512 111.478 111.41 111.378 111.327 111.295 111.265 111.208 111.18 111.115 111.062 110.99 110.95 110.87 110.81 110.747 110.662 110.603 110.518 110.463 110.37 110.298 110.213 110.165 110.077 110 109.917 109.837 109.775 109.7 109.643 109.598 109.51 109.423 109.357 109.298 109.228 109.135 109.065 108.975 108.882 108.775 108.68 108.58 108.467 108.37 108.262 108.147 108.037 107.912 107.803 107.673 107.572 107.442 107.325 107.205 107.103 106.997 106.897 106.772 106.66 106.565 106.455 106.368 106.243 106.118 106.03 105.925 105.792 105.67 105.565 105.52 105.485 105.432 106.318 104.683 104.35 104.39 104.353 104.302 104.19 104.062 103.965 103.842 103.707 103.577 103.427 103.27 103.113 102.938 102.755 102.552 102.325 102.092 101.853 101.63 101.408 101.18 100.98 100.795 100.625 100.488 100.387 100.333 100.337 100.365 100.438 100.52 100.63 100.753 100.878 101.005 101.115 101.208 101.292 101.38 101.445 101.493 101.562 101.595 101.625 101.68 101.715 101.75 101.8 101.832 101.882 101.925 101.975 102.025 102.057 102.103 102.137 102.18 102.223 102.253 102.268 102.318 102.363 102.4 102.45 102.485 102.562 102.585 102.632 102.698 103.003 104.685 103.32 102.802 102.965 103.072 103.202 103.31 103.433 103.54 103.637 103.74 103.842 103.95 104.052 104.15 104.26 104.353 104.44 104.545 104.647 104.743 104.84 104.92 105.02 105.103 105.202 105.283 105.375 105.478 105.552 105.645 105.725 105.8 105.87 105.932 105.982 106.065 106.165 106.25 106.353 106.425 106.515 106.6 106.673 106.738 106.812 106.897 106.96 107.01 107.092 107.143 107.225 107.287 107.335 107.402 107.458 107.53 107.592 107.65 107.688 107.757 107.81 107.882 107.915 108.87 108.625 107.927 108.033 108.1 108.19 108.277 108.355 108.427 108.515 108.577 108.65 108.743 108.825 108.927 109.027 109.118 109.185 109.238 109.27 109.285 109.335 109.375 109.445 109.515 109.592 109.662 109.75 109.825 109.887 109.945 109.98 110.027 110.1 110.145 110.247 110.307 110.393 110.482 110.567 110.625 110.698 110.757 110.808 110.89 110.98 111.06 111.135 111.202 111.247 111.283 111.31 111.342 111.393 111.443 111.493 111.54 111.588 111.605 111.622 111.637 111.675 112.68 112.78 112.005 112.07 112.13 112.185 112.265 112.345 112.418 112.53 112.565 112.6 112.65 112.65 112.65 112.692 112.715 112.768 112.795 112.84 112.895 112.975 113.022 113.075 113.095 113.152 113.22 113.253 113.28
110.682 111.645 110.312 110.312 110.292 110.317 110.433 110.482 110.512 110.533 110.565 110.607 110.613 110.647 110.673 110.675 110.717 110.745 110.785 110.825 110.838 110.868 110.91 110.938 110.975 111.037 111.053 111.1 111.14 111.177 111.213 111.278 111.322 111.375 111.393 111.44 111.467 111.545 111.603 111.647 111.705 111.763 111.807 111.853 111.912 111.945 111.97 111.982 112 112.04 112.067 112.103 112.11 112.13 112.132 112.165 112.195 112.225 112.222 112.228 112.25 112.262 112.315 112.345 112.353 112.368 112.387 112.405 112.41 112.458 112.447 112.438 112.475 112.49 112.52 112.562 112.615 112.607 112.585 112.573 112.573 112.555 112.548 112.507 112.48 112.452 112.465 112.427 112.402 112.39 112.423 112.372 112.345 113.48 112.65 111.84 111.86 111.897 111.912 111.925 111.91 111.89 111.872 111.848 111.81 111.79 111.732 111.693 111.637 111.583 111.54 111.505 111.463 111.43 111.387 111.323 111.257 111.19 111.143 111.073 110.997 110.945 110.875 110.81 110.72 110.652 110.56 110.495 110.405 110.355 110.293 110.19 110.12 110.067 109.978 109.9 109.832 109.762 109.69 109.63 109.54 109.482 109.427 109.348 109.253 109.167 109.07 108.965 108.882 108.775 108.68 108.575 108.45 108.332 108.228 108.1 107.98 107.855 107.728 107.62 107.497 107.387 107.277 107.162 107.05 106.93 106.823 106.717 106.613 106.552 106.43 106.29 106.182 106.062 105.925 105.815 105.732 105.667 105.63 105.503 106.132 105 104.488 104.53 104.478 104.43 104.312 104.23 104.14 104.018 103.857 103.732 103.57 103.43 103.265 103.073 102.91 102.705 102.478 102.255 102.005 101.78 101.573 101.355 101.17 101.007 100.855 100.738 100.645 100.618 100.655 100.69 100.75 100.842 100.945 101.075 101.17 101.277 101.38 101.473 101.515 101.607 101.66 101.695 101.772 101.805 101.845 101.882 101.923 101.943 101.982 102.02 102.075 102.107 102.158 102.202 102.243 102.293 102.325 102.363 102.402 102.438 102.465 102.505 102.535 102.577 102.605 102.652 102.735 102.747 102.792 102.875 103.298 104.59 103.467 102.982 103.143 103.243 103.37 103.495 103.607 103.71 103.812 103.923 104.035 104.122 104.225 104.325 104.428 104.54 104.625 104.723 104.81 104.91 104.997 105.098 105.19 105.275 105.382 105.465 105.54 105.65 105.72 105.818 105.893 105.965 106.02 106.085 106.155 106.223 106.338 106.412 106.503 106.57 106.662 106.753 106.827 106.897 106.978 107.058 107.122 107.158 107.243 107.3 107.375 107.423 107.488 107.552 107.603 107.668 107.735 107.783 107.825 107.9 107.96 108.022 108.147 109.475 108.6 108.05 108.15 108.2 108.322 108.397 108.47 108.552 108.63 108.698 108.77 108.863 108.958 109.052 109.147 109.235 109.29 109.338 109.372 109.39 109.44 109.485 109.537 109.625 109.668 109.768 109.84 109.92 109.99 110.037 110.07 110.132 110.195 110.255 110.345 110.415 110.495 110.565 110.652 110.728 110.787 110.853 110.92 110.99 111.092 111.165 111.223 111.287 111.338 111.385 111.402 111.438 111.493 111.525 111.577 111.62 111.673 111.71 111.713 111.735 111.772 112.878 112.598 112.067 112.158 112.22 112.275 112.353 112.418 112.52 112.605 112.65 112.688 112.71 112.735 112.728 112.762 112.798 112.857 112.888 112.91 112.973 113.045 113.087 113.145 113.168 113.235 113.295 113.315 113.353
110.81 111.893 110.463 110.445 110.435 110.45 110.568 110.62 110.665 110.693 110.725 110.777 110.78 110.8 110.835 110.857 110.89 110.925 110.97 110.985 111.015 111.057 111.1 111.128 111.16 111.198 111.238 111.275 111.323 111.368 111.402 111.473 111.518 111.54 111.603 111.643 111.69 111.73 111.787 111.845 111.915 111.965 112.01 112.048 112.095 112.128 112.147 112.152 112.217 112.217 112.247 112.272 112.268 112.305 112.307 112.34 112.372 112.382 112.41 112.412 112.45 112.463 112.503 112.545 112.538 112.57 112.598 112.638 112.625 112.64 112.66 112.665 112.693 112.723 112.74 112.785 112.755 112.78 112.83 112.787 112.798 112.792 112.79 112.765 112.725 112.692 112.688 112.66 112.62 112.637 112.647 112.613 112.565 113.305 113.543 112.155 112.07 112.103 112.118 112.145 112.13 112.122 112.105 112.073 112.022 112.007 111.948 111.923 111.84 111.812 111.755 111.717 111.683 111.628 111.588 111.525 111.478 111.41 111.36 111.287 111.225 111.152 111.082 111.005 110.923 110.87 110.77 110.702 110.607 110.545 110.485 110.417 110.33 110.25 110.175 110.09 110.025 109.963 109.88 109.808 109.728 109.668 109.62 109.527 109.445 109.348 109.272 109.158 109.09 108.97 108.86 108.755 108.645 108.537 108.402 108.29 108.168 108.052 107.92 107.795 107.677 107.558 107.445 107.338 107.213 107.107 107.003 106.882 106.795 106.682 106.555 106.44 106.323 106.213 106.077 105.967 105.87 105.785 105.747 105.632 106.51 105.045 104.6 104.645 104.613 104.577 104.473 104.382 104.342 104.205 104.012 103.87 103.732 103.585 103.427 103.243 103.065 102.868 102.645 102.423 102.188 101.97 101.777 101.57 101.393 101.222 101.088 101.02 100.942 100.935 100.96 100.982 101.06 101.17 101.247 101.345 101.458 101.537 101.628 101.713 101.757 101.818 101.878 101.935 101.997 102.025 102.058 102.085 102.115 102.14 102.188 102.208 102.247 102.287 102.338 102.395 102.427 102.467 102.495 102.525 102.577 102.603 102.635 102.68 102.698 102.747 102.785 102.83 102.903 102.917 102.958 103.035 103.305 104.39 103.4 103.173 103.338 103.43 103.545 103.67 103.783 103.903 104.012 104.113 104.21 104.295 104.408 104.5 104.613 104.713 104.802 104.887 104.985 105.083 105.16 105.257 105.345 105.44 105.545 105.632 105.708 105.795 105.88 105.98 106.048 106.132 106.18 106.247 106.323 106.382 106.482 106.56 106.658 106.74 106.82 106.908 106.978 107.06 107.12 107.195 107.26 107.32 107.393 107.438 107.522 107.588 107.62 107.682 107.753 107.805 107.875 107.923 107.975 108.037 108.103 108.17 108.395 109.555 109.452 108.177 108.27 108.333 108.442 108.518 108.6 108.665 108.738 108.82 108.893 108.98 109.065 109.175 109.262 109.342 109.395 109.433 109.47 109.485 109.527 109.588 109.637 109.728 109.765 109.863 109.935 110.01 110.09 110.14 110.17 110.22 110.298 110.36 110.445 110.513 110.603 110.673 110.747 110.823 110.882 110.95 111.007 111.083 111.175 111.257 111.317 111.38 111.42 111.467 111.495 111.518 111.58 111.62 111.675 111.707 111.768 111.8 111.798 111.827 111.863 112.65 112.527 112.165 112.255 112.317 112.378 112.45 112.52 112.6 112.668 112.723 112.785 112.795 112.82 112.815 112.857 112.875 112.915 112.95 112.973 113.048 113.107 113.158 113.215 113.24 113.302 113.372 113.397 113.445
110.92 111.952 110.565 110.598 110.573 110.62 110.713 110.753 110.8 110.842 110.878 110.915 110.948 110.957 110.99 111.01 111.067 111.085 111.135 111.16 111.198 111.235 111.272 111.298 111.34 111.387 111.395 111.455 111.507 111.56 111.613 111.645 111.702 111.738 111.787 111.825 111.865 111.933 111.985 112.03 112.098 112.147 112.185 112.223 112.287 112.295 112.32 112.365 112.385 112.395 112.415 112.43 112.448 112.48 112.482 112.512 112.55 112.567 112.6 112.598 112.66 112.65 112.675 112.723 112.74 112.753 112.795 112.825 112.83 112.842 112.835 112.857 112.905 112.948 112.96 112.978 112.988 112.97 113.035 113.025 113.005 113.003 112.997 112.973 112.96 112.93 112.943 112.923 112.872 112.845 112.863 112.802 112.805 113.402 114.283 112.33 112.285 112.312 112.327 112.348 112.35 112.338 112.32 112.283 112.245 112.22 112.162 112.132 112.08 112.025 111.98 111.932 111.915 111.853 111.815 111.75 111.707 111.63 111.588 111.518 111.43 111.37 111.29 111.22 111.128 111.073 110.985 110.905 110.82 110.745 110.695 110.605 110.52 110.443 110.357 110.28 110.2 110.125 110.062 110.003 109.925 109.86 109.785 109.708 109.64 109.543 109.465 109.34 109.253 109.153 109.045 108.965 108.83 108.713 108.588 108.48 108.36 108.245 108.115 107.982 107.865 107.74 107.625 107.497 107.378 107.268 107.183 107.057 106.948 106.822 106.717 106.59 106.473 106.365 106.235 106.105 106.01 105.92 105.895 105.745 106.473 105.533 104.738 104.783 104.735 104.693 104.598 104.505 104.423 104.318 104.155 104.003 103.872 103.725 103.567 103.403 103.22 103.007 102.802 102.603 102.372 102.155 101.958 101.765 101.62 101.473 101.335 101.28 101.223 101.22 101.27 101.298 101.385 101.48 101.545 101.643 101.728 101.795 101.875 101.95 102.003 102.057 102.12 102.152 102.213 102.225 102.26 102.28 102.317 102.348 102.38 102.402 102.435 102.478 102.52 102.572 102.598 102.643 102.68 102.705 102.747 102.772 102.802 102.838 102.872 102.908 102.957 102.988 103.07 103.09 103.125 103.182 103.47 104.66 103.515 103.338 103.503 103.605 103.723 103.845 103.96 104.07 104.18 104.272 104.38 104.48 104.592 104.678 104.78 104.878 104.967 105.055 105.137 105.24 105.32 105.42 105.505 105.595 105.695 105.783 105.865 105.955 106.025 106.125 106.208 106.283 106.325 106.405 106.465 106.533 106.652 106.723 106.798 106.89 106.973 107.055 107.132 107.202 107.272 107.335 107.412 107.47 107.527 107.603 107.678 107.722 107.785 107.835 107.895 107.965 108.027 108.075 108.122 108.185 108.247 108.322 108.467 109.677 109.25 108.285 108.387 108.458 108.575 108.65 108.738 108.787 108.86 108.93 109.015 109.088 109.182 109.287 109.375 109.45 109.507 109.537 109.565 109.588 109.625 109.685 109.757 109.825 109.875 109.965 110.035 110.103 110.173 110.228 110.253 110.305 110.38 110.445 110.533 110.607 110.708 110.768 110.84 110.915 110.97 111.05 111.103 111.183 111.265 111.355 111.405 111.473 111.52 111.557 111.592 111.61 111.68 111.707 111.755 111.805 111.848 111.895 111.887 111.903 111.945 112.908 112.645 112.262 112.327 112.4 112.46 112.542 112.618 112.688 112.753 112.807 112.863 112.872 112.887 112.902 112.935 112.948 112.995 113.018 113.048 113.132 113.185 113.238 113.29 113.317 113.382 113.432 113.475 113.503
111.043 112.268 110.712 110.695 110.715 110.753 110.86 110.905 110.967 110.98 111.015 111.045 111.103 111.13 111.155 111.17 111.225 111.247 111.292 111.31 111.36 111.405 111.455 111.485 111.512 111.55 111.588 111.63 111.698 111.728 111.772 111.817 111.885 111.925 111.955 112 112.04 112.105 112.152 112.217 112.247 112.327 112.363 112.405 112.442 112.463 112.503 112.527 112.555 112.565 112.562 112.583 112.597 112.632 112.645 112.685 112.7 112.725 112.777 112.753 112.823 112.825 112.86 112.893 112.915 112.955 112.997 113.003 113.02 113.04 113.07 113.073 113.1 113.137 113.152 113.168 113.185 113.185 113.217 113.232 113.22 113.223 113.23 113.185 113.185 113.185 113.115 113.132 113.098 113.065 113.088 113.022 113.035 113.548 114.292 112.805 112.495 112.515 112.54 112.562 112.562 112.537 112.52 112.482 112.452 112.432 112.38 112.338 112.287 112.23 112.213 112.165 112.125 112.067 112.042 111.97 111.923 111.833 111.783 111.728 111.662 111.613 111.5 111.427 111.34 111.277 111.182 111.105 111.022 110.952 110.89 110.815 110.728 110.635 110.54 110.46 110.385 110.32 110.255 110.183 110.103 110.035 109.973 109.893 109.805 109.705 109.632 109.512 109.438 109.34 109.238 109.15 109.012 108.908 108.787 108.658 108.545 108.41 108.295 108.177 108.062 107.925 107.787 107.685 107.562 107.435 107.32 107.208 107.09 106.978 106.863 106.72 106.615 106.51 106.378 106.27 106.183 106.06 106.012 105.912 106.725 105.325 104.87 104.915 104.87 104.835 104.738 104.658 104.55 104.415 104.295 104.153 104.022 103.878 103.72 103.54 103.355 103.165 102.967 102.76 102.537 102.332 102.153 101.982 101.838 101.685 101.58 101.543 101.525 101.518 101.562 101.592 101.673 101.76 101.835 101.923 101.988 102.073 102.135 102.2 102.245 102.29 102.325 102.363 102.412 102.438 102.467 102.495 102.518 102.54 102.573 102.595 102.625 102.658 102.7 102.74 102.783 102.82 102.842 102.872 102.917 102.945 102.982 103.005 103.03 103.07 103.12 103.158 103.23 103.245 103.287 103.355 103.463 105.228 103.93 103.48 103.67 103.76 103.887 104.003 104.122 104.238 104.35 104.438 104.54 104.645 104.755 104.855 104.952 105.035 105.125 105.213 105.305 105.4 105.485 105.567 105.667 105.755 105.853 105.935 106.012 106.098 106.178 106.28 106.35 106.427 106.473 106.552 106.62 106.685 106.783 106.863 106.95 107.033 107.107 107.195 107.283 107.34 107.41 107.482 107.552 107.618 107.68 107.75 107.815 107.86 107.915 107.98 108.038 108.107 108.185 108.223 108.27 108.325 108.387 108.47 108.76 109.895 109.2 108.402 108.535 108.598 108.715 108.787 108.868 108.92 108.988 109.058 109.118 109.22 109.312 109.423 109.493 109.56 109.632 109.653 109.675 109.7 109.743 109.792 109.865 109.912 109.978 110.053 110.143 110.208 110.277 110.315 110.35 110.395 110.467 110.535 110.622 110.707 110.8 110.86 110.945 111.003 111.062 111.138 111.19 111.272 111.353 111.438 111.505 111.565 111.61 111.637 111.678 111.705 111.757 111.787 111.848 111.893 111.935 111.975 111.975 111.988 112.037 113.412 112.673 112.34 112.423 112.482 112.542 112.62 112.695 112.772 112.83 112.903 112.943 112.94 112.965 112.985 113.01 113.035 113.088 113.098 113.13 113.192 113.265 113.315 113.348 113.4 113.463 113.53 113.548 113.582
111.13 112.357 111.225 110.835 110.857 110.897 110.99 111.057 111.085 111.14 111.15 111.185 111.235 111.29 111.307 111.323 111.382 111.387 111.465 111.493 111.537 111.56 111.595 111.637 111.67 111.71 111.75 111.807 111.842 111.893 111.945 111.963 112.027 112.085 112.125 112.158 112.195 112.268 112.323 112.365 112.425 112.485 112.507 112.552 112.595 112.62 112.683 112.67 112.705 112.712 112.738 112.738 112.73 112.772 112.783 112.83 112.853 112.89 112.925 112.925 112.975 112.988 113.025 113.077 113.088 113.125 113.167 113.175 113.175 113.232 113.247 113.255 113.3 113.32 113.34 113.382 113.38 113.4 113.402 113.405 113.418 113.427 113.44 113.41 113.397 113.36 113.347 113.33 113.332 113.27 113.302 113.26 113.24 113.507 114.93 113.495 112.7 112.71 112.74 112.75 112.76 112.743 112.708 112.685 112.66 112.63 112.583 112.548 112.493 112.452 112.415 112.395 112.36 112.302 112.26 112.19 112.17 112.07 112.007 111.94 111.868 111.815 111.728 111.645 111.565 111.485 111.405 111.325 111.235 111.158 111.103 111.015 110.923 110.818 110.728 110.66 110.568 110.505 110.427 110.34 110.283 110.215 110.143 110.06 109.967 109.885 109.827 109.69 109.605 109.522 109.395 109.32 109.205 109.09 108.965 108.85 108.73 108.61 108.478 108.342 108.24 108.113 107.97 107.86 107.732 107.62 107.493 107.38 107.255 107.135 107.018 106.878 106.747 106.63 106.485 106.393 106.312 106.183 106.155 106.135 107.223 105.553 104.967 105.043 105.003 104.952 104.857 104.765 104.668 104.573 104.447 104.305 104.163 104.003 103.842 103.698 103.507 103.32 103.105 102.905 102.705 102.518 102.35 102.177 102.058 101.938 101.835 101.812 101.802 101.812 101.87 101.905 101.988 102.058 102.122 102.198 102.25 102.322 102.372 102.423 102.475 102.507 102.543 102.58 102.62 102.645 102.662 102.688 102.723 102.732 102.765 102.78 102.805 102.842 102.882 102.923 102.963 103.003 103.03 103.065 103.085 103.118 103.145 103.175 103.21 103.253 103.292 103.327 103.4 103.415 103.473 103.525 103.69 105.213 104.615 103.695 103.832 103.927 104.05 104.173 104.298 104.402 104.518 104.6 104.71 104.817 104.92 105.022 105.115 105.2 105.298 105.38 105.467 105.558 105.647 105.728 105.815 105.908 105.99 106.09 106.16 106.262 106.333 106.438 106.497 106.58 106.635 106.698 106.76 106.833 106.94 107.015 107.103 107.18 107.26 107.325 107.412 107.475 107.553 107.62 107.705 107.765 107.823 107.895 107.96 108.022 108.065 108.125 108.18 108.253 108.335 108.372 108.42 108.475 108.537 108.61 108.8 109.832 109.03 108.555 108.692 108.743 108.868 108.913 108.997 109.057 109.107 109.195 109.247 109.363 109.43 109.542 109.615 109.705 109.762 109.77 109.79 109.812 109.86 109.908 109.973 110.02 110.098 110.158 110.243 110.31 110.365 110.417 110.45 110.493 110.573 110.637 110.717 110.815 110.88 110.958 111.035 111.103 111.155 111.232 111.287 111.363 111.448 111.527 111.595 111.662 111.702 111.73 111.777 111.798 111.842 111.875 111.93 111.982 112.018 112.067 112.055 112.075 112.158 113.452 112.647 112.43 112.512 112.575 112.635 112.7 112.775 112.855 112.915 112.973 113.007 113.027 113.042 113.06 113.088 113.118 113.145 113.19 113.22 113.26 113.332 113.393 113.415 113.465 113.533 113.595 113.607 113.645
111.225 112.465 111.188 111.01 110.98 111.022 111.137 111.185 111.225 111.275 111.31 111.35 111.385 111.428 111.455 111.47 111.525 111.548 111.618 111.635 111.683 111.715 111.755 111.81 111.84 111.868 111.912 111.952 112.003 112.04 112.095 112.122 112.19 112.225 112.268 112.327 112.34 112.397 112.465 112.533 112.59 112.647 112.66 112.688 112.732 112.775 112.8 112.815 112.84 112.863 112.872 112.872 112.885 112.905 112.96 112.963 112.98 113.04 113.052 113.08 113.125 113.173 113.2 113.208 113.262 113.31 113.342 113.355 113.365 113.393 113.412 113.425 113.488 113.503 113.53 113.552 113.568 113.595 113.603 113.595 113.622 113.62 113.6 113.59 113.58 113.568 113.565 113.52 113.51 113.515 113.5 113.452 113.455 113.635 115.03 114.3 112.915 112.917 112.915 112.923 112.938 112.938 112.91 112.88 112.86 112.827 112.78 112.755 112.705 112.67 112.628 112.59 112.562 112.5 112.45 112.393 112.378 112.302 112.215 112.173 112.088 112.02 111.932 111.853 111.778 111.673 111.613 111.543 111.458 111.368 111.312 111.215 111.09 111.018 110.918 110.86 110.757 110.692 110.628 110.525 110.455 110.368 110.312 110.243 110.143 110.052 109.985 109.89 109.787 109.705 109.585 109.5 109.378 109.277 109.143 109.02 108.915 108.785 108.647 108.52 108.402 108.29 108.14 108.025 107.897 107.823 107.717 107.543 107.417 107.277 107.162 107.1 106.928 106.753 106.628 106.497 106.397 106.298 106.295 106.205 107.55 106.11 105.12 105.175 105.122 105.085 104.997 104.917 104.798 104.688 104.565 104.43 104.31 104.155 103.993 103.838 103.65 103.47 103.28 103.085 102.897 102.702 102.552 102.395 102.292 102.19 102.113 102.09 102.105 102.113 102.165 102.208 102.27 102.342 102.408 102.47 102.52 102.572 102.605 102.645 102.685 102.728 102.747 102.78 102.818 102.84 102.865 102.893 102.905 102.925 102.95 102.975 103.005 103.037 103.06 103.103 103.147 103.188 103.208 103.24 103.26 103.29 103.327 103.348 103.382 103.42 103.455 103.488 103.577 103.583 103.63 103.693 103.75 105.217 104.292 103.822 104.01 104.098 104.22 104.348 104.46 104.562 104.68 104.772 104.875 104.988 105.083 105.183 105.275 105.375 105.463 105.535 105.628 105.708 105.79 105.875 105.967 106.06 106.155 106.243 106.327 106.408 106.488 106.567 106.662 106.745 106.792 106.857 106.912 106.985 107.095 107.155 107.247 107.315 107.408 107.48 107.562 107.632 107.707 107.765 107.84 107.915 107.98 108.037 108.107 108.173 108.215 108.27 108.338 108.41 108.467 108.525 108.565 108.63 108.688 108.772 109.042 110 109.19 108.698 108.848 108.902 109.02 109.077 109.145 109.185 109.247 109.322 109.378 109.48 109.567 109.677 109.745 109.827 109.875 109.895 109.91 109.923 109.98 110.012 110.082 110.137 110.215 110.265 110.348 110.41 110.463 110.507 110.545 110.592 110.667 110.73 110.82 110.91 110.98 111.052 111.122 111.195 111.255 111.318 111.382 111.45 111.537 111.615 111.683 111.753 111.792 111.817 111.86 111.882 111.932 111.973 112.015 112.057 112.1 112.147 112.138 112.155 112.253 113.405 112.973 112.51 112.582 112.64 112.7 112.768 112.842 112.943 113.005 113.062 113.073 113.107 113.137 113.152 113.162 113.185 113.217 113.253 113.295 113.342 113.4 113.465 113.497 113.548 113.618 113.66 113.683 113.705
111.357 112.225 111.83 111.135 111.132 111.147 111.26 111.305 111.363 111.408 111.438 111.493 111.52 111.567 111.595 111.625 111.685 111.698 111.745 111.802 111.825 111.865 111.923 111.963 111.993 112.033 112.052 112.12 112.143 112.18 112.247 112.285 112.355 112.385 112.415 112.507 112.515 112.565 112.588 112.655 112.725 112.775 112.8 112.84 112.885 112.91 112.952 112.965 112.985 112.99 113 113.03 113.04 113.06 113.077 113.118 113.128 113.19 113.23 113.238 113.268 113.312 113.34 113.412 113.415 113.427 113.485 113.522 113.53 113.577 113.568 113.598 113.65 113.67 113.7 113.717 113.753 113.755 113.792 113.8 113.798 113.798 113.785 113.78 113.743 113.732 113.673 113.723 113.72 113.697 113.675 113.632 113.637 113.74 115.007 114.033 113.095 113.105 113.107 113.11 113.125 113.122 113.09 113.067 113.052 113.018 112.965 112.95 112.905 112.868 112.823 112.775 112.765 112.708 112.665 112.59 112.557 112.493 112.415 112.38 112.295 112.223 112.147 112.073 111.99 111.902 111.82 111.747 111.677 111.56 111.467 111.395 111.308 111.213 111.125 111.04 110.96 110.882 110.802 110.72 110.647 110.545 110.482 110.402 110.323 110.235 110.147 110.052 109.955 109.878 109.757 109.665 109.555 109.463 109.327 109.217 109.107 108.973 108.83 108.705 108.583 108.47 108.325 108.2 108.073 107.99 107.9 107.717 107.567 107.438 107.32 107.255 107.085 106.91 106.77 106.66 106.54 106.427 106.405 106.395 107.705 106.583 105.253 105.285 105.243 105.217 105.132 105.055 104.927 104.802 104.695 104.56 104.435 104.283 104.14 103.982 103.808 103.62 103.43 103.26 103.08 102.908 102.778 102.628 102.52 102.463 102.402 102.375 102.395 102.412 102.452 102.495 102.557 102.61 102.665 102.715 102.743 102.8 102.838 102.872 102.885 102.925 102.963 102.985 103.027 103.043 103.06 103.085 103.107 103.125 103.145 103.168 103.192 103.223 103.262 103.31 103.338 103.36 103.382 103.417 103.445 103.455 103.493 103.512 103.557 103.603 103.632 103.663 103.743 103.755 103.798 103.863 103.887 105.25 104.69 104.007 104.182 104.275 104.378 104.488 104.622 104.735 104.84 104.93 105.045 105.145 105.257 105.353 105.438 105.533 105.625 105.71 105.787 105.868 105.945 106.048 106.115 106.21 106.315 106.382 106.467 106.552 106.64 106.72 106.81 106.885 106.945 107.005 107.062 107.15 107.24 107.312 107.393 107.47 107.56 107.628 107.702 107.78 107.857 107.938 108.01 108.067 108.135 108.182 108.25 108.308 108.37 108.438 108.49 108.562 108.625 108.675 108.725 108.792 108.835 108.92 109.18 110.13 109.137 108.887 109 109.055 109.173 109.217 109.287 109.323 109.393 109.458 109.518 109.607 109.707 109.817 109.88 109.958 109.997 110.022 110.045 110.05 110.095 110.14 110.205 110.257 110.325 110.38 110.467 110.518 110.562 110.607 110.635 110.695 110.757 110.838 110.925 111.015 111.092 111.16 111.235 111.29 111.353 111.413 111.475 111.552 111.628 111.71 111.77 111.84 111.87 111.895 111.952 111.967 112.025 112.055 112.113 112.137 112.188 112.23 112.22 112.243 112.403 113.71 113.312 112.59 112.662 112.713 112.79 112.85 112.933 113.02 113.092 113.147 113.153 113.188 113.21 113.225 113.223 113.255 113.305 113.33 113.368 113.418 113.45 113.522 113.562 113.622 113.68 113.735 113.762 113.787
111.39 112.158 111.802 111.275 111.253 111.283 111.39 111.463 111.493 111.545 111.582 111.63 111.667 111.702 111.725 111.777 111.823 111.848 111.923 111.967 111.973 112.022 112.075 112.107 112.14 112.18 112.208 112.243 112.305 112.348 112.385 112.45 112.503 112.552 112.603 112.637 112.673 112.695 112.745 112.79 112.838 112.902 112.943 112.982 113.03 113.04 113.075 113.098 113.125 113.14 113.155 113.162 113.175 113.185 113.24 113.24 113.28 113.327 113.363 113.38 113.42 113.455 113.495 113.552 113.57 113.598 113.645 113.69 113.7 113.72 113.75 113.77 113.812 113.827 113.868 113.88 113.905 113.933 113.955 113.945 113.963 113.952 113.963 113.978 113.945 113.895 113.865 113.923 113.9 113.845 113.85 113.83 113.823 113.79 114.897 114.17 113.268 113.283 113.28 113.28 113.298 113.287 113.27 113.257 113.238 113.202 113.165 113.135 113.098 113.062 113.018 112.98 112.96 112.895 112.855 112.805 112.757 112.72 112.647 112.6 112.495 112.443 112.372 112.29 112.193 112.11 112.033 111.94 111.863 111.745 111.655 111.585 111.482 111.417 111.317 111.235 111.155 111.065 110.973 110.893 110.818 110.728 110.665 110.58 110.493 110.403 110.315 110.225 110.137 110.055 109.945 109.857 109.738 109.625 109.493 109.402 109.293 109.167 109.022 108.887 108.755 108.64 108.503 108.372 108.24 108.12 108.005 107.853 107.715 107.59 107.465 107.327 107.205 107.055 106.925 106.79 106.673 106.567 106.548 106.49 107.682 106.075 105.38 105.42 105.37 105.335 105.25 105.173 105.053 104.95 104.827 104.685 104.568 104.427 104.27 104.122 103.948 103.78 103.603 103.44 103.283 103.115 102.975 102.85 102.757 102.72 102.662 102.647 102.668 102.683 102.732 102.775 102.82 102.875 102.912 102.963 102.985 103.022 103.055 103.065 103.098 103.14 103.162 103.195 103.228 103.245 103.265 103.295 103.315 103.317 103.342 103.363 103.393 103.41 103.445 103.473 103.52 103.55 103.58 103.6 103.613 103.63 103.667 103.688 103.732 103.765 103.805 103.85 103.917 103.935 103.957 104.025 104.048 105.448 105.193 104.18 104.335 104.433 104.537 104.658 104.77 104.895 104.997 105.11 105.217 105.323 105.41 105.51 105.595 105.702 105.777 105.857 105.933 106.02 106.113 106.193 106.275 106.372 106.47 106.535 106.62 106.705 106.787 106.88 106.96 107.035 107.098 107.155 107.222 107.307 107.395 107.467 107.552 107.615 107.705 107.777 107.868 107.938 108.018 108.083 108.143 108.21 108.28 108.332 108.405 108.473 108.53 108.592 108.652 108.708 108.772 108.83 108.88 108.935 108.985 109.062 109.36 110.412 109.245 109.062 109.173 109.213 109.318 109.372 109.445 109.482 109.552 109.6 109.673 109.76 109.848 109.95 110.01 110.08 110.12 110.152 110.162 110.19 110.228 110.278 110.332 110.38 110.443 110.515 110.57 110.635 110.67 110.71 110.747 110.805 110.87 110.95 111.03 111.12 111.202 111.26 111.33 111.38 111.443 111.512 111.565 111.647 111.732 111.805 111.863 111.935 111.955 111.997 112.045 112.058 112.11 112.153 112.19 112.23 112.27 112.305 112.292 112.317 112.52 113.485 112.818 112.662 112.732 112.783 112.857 112.92 112.993 113.085 113.158 113.21 113.235 113.262 113.28 113.29 113.31 113.322 113.353 113.397 113.442 113.5 113.513 113.573 113.635 113.688 113.765 113.812 113.85 113.863
111.497 112.317 112.48 111.397 111.428 111.42 111.522 111.595 111.635 111.685 111.74 111.762 111.812 111.842 111.885 111.918 111.975 112.003 112.048 112.12 112.132 112.188 112.213 112.262 112.29 112.34 112.348 112.38 112.448 112.497 112.542 112.61 112.645 112.695 112.723 112.775 112.812 112.857 112.887 112.932 112.993 113.045 113.083 113.105 113.137 113.185 113.21 113.208 113.27 113.262 113.275 113.29 113.298 113.332 113.37 113.405 113.433 113.47 113.507 113.53 113.585 113.622 113.64 113.695 113.73 113.765 113.792 113.84 113.855 113.882 113.893 113.925 113.975 113.997 114.022 114.025 114.057 114.092 114.113 114.128 114.14 114.125 114.122 114.13 114.14 114.103 114.07 114.077 114.07 114.045 114.02 114.033 114.025 113.985 114.848 114.39 113.45 113.45 113.45 113.443 113.465 113.455 113.458 113.43 113.402 113.378 113.34 113.32 113.277 113.25 113.215 113.162 113.147 113.088 113.042 112.99 112.947 112.92 112.838 112.795 112.715 112.652 112.587 112.49 112.397 112.325 112.238 112.125 112.055 111.965 111.893 111.803 111.705 111.607 111.5 111.42 111.33 111.253 111.152 111.062 110.997 110.897 110.825 110.743 110.662 110.575 110.478 110.382 110.295 110.223 110.107 110.005 109.9 109.802 109.688 109.585 109.448 109.342 109.198 109.083 108.933 108.822 108.665 108.543 108.408 108.285 108.15 108.003 107.857 107.74 107.62 107.48 107.348 107.197 107.045 106.93 106.818 106.715 106.662 106.577 107.655 106.355 105.515 105.545 105.497 105.482 105.393 105.298 105.18 105.07 104.96 104.842 104.72 104.577 104.415 104.272 104.1 103.945 103.77 103.6 103.46 103.31 103.192 103.09 103 102.967 102.925 102.923 102.942 102.97 103.007 103.025 103.075 103.128 103.16 103.198 103.21 103.247 103.283 103.302 103.33 103.35 103.365 103.39 103.438 103.452 103.473 103.497 103.51 103.522 103.54 103.552 103.575 103.6 103.64 103.682 103.717 103.74 103.753 103.79 103.812 103.83 103.848 103.868 103.908 103.952 103.993 104.018 104.092 104.098 104.137 104.21 104.23 105.36 105.682 104.43 104.518 104.605 104.702 104.822 104.952 105.07 105.18 105.265 105.37 105.493 105.57 105.675 105.757 105.868 105.948 106.033 106.1 106.198 106.275 106.355 106.447 106.533 106.625 106.702 106.77 106.865 106.95 107.04 107.107 107.195 107.26 107.317 107.385 107.46 107.543 107.63 107.713 107.777 107.85 107.938 108.015 108.1 108.17 108.243 108.292 108.368 108.435 108.5 108.558 108.62 108.68 108.738 108.8 108.857 108.912 108.98 109.05 109.095 109.162 109.205 109.662 110.228 109.228 109.228 109.32 109.378 109.47 109.522 109.59 109.622 109.695 109.743 109.815 109.893 109.993 110.095 110.165 110.215 110.26 110.285 110.295 110.323 110.363 110.4 110.46 110.51 110.56 110.637 110.695 110.745 110.78 110.83 110.857 110.923 110.975 111.068 111.15 111.223 111.302 111.36 111.44 111.485 111.555 111.613 111.667 111.755 111.825 111.908 111.948 112.018 112.058 112.085 112.135 112.162 112.195 112.238 112.298 112.325 112.357 112.395 112.385 112.412 112.64 113.38 112.807 112.74 112.815 112.865 112.945 112.99 113.07 113.162 113.22 113.257 113.31 113.325 113.353 113.357 113.378 113.39 113.433 113.458 113.51 113.573 113.577 113.653 113.682 113.738 113.822 113.893 113.912 113.927
