ncols 431
nrows 32
xllcorner    246012
yllcorner    139092
cellsize     2
NODATA_value -9999
74.918 75.928 77.21 77.007 77.185 76.647 75.815 76.325 76.527 76.548 76.842 76.055 76.912 77.368 78.247 79.088 77.97 77.73 77.79 76.43 76.348 76.312 76.257 76.188 76.073 75.99 75.882 75.745 75.655 75.52 75.362 75.213 75.098 74.988 74.872 74.705 74.595 74.512 74.46 74.335 74.238 74.143 74.05 73.923 73.777 73.628 73.488 73.37 73.19 73.003 72.85 72.692 72.515 72.363 72.18 71.997 71.82 71.66 71.512 71.34 71.173 71.007 70.847 70.71 70.558 70.405 70.278 70.145 70.045 69.893 69.78 69.595 69.44 69.32 69.183 69.065 69.025 68.897 68.842 68.825 68.825 68.938 68.882 69.632 69.088 69.037 69.455 68.38 68.113 68.115 68.495 68.348 68.39 67.94 68.005 68.235 68.355 68.497 68.772 68.488 68.167 68.375 68.033 67.965 67.91 69.09 68.583 68.857 68.893 68.75 68.717 68.808 68.923 69.015 69.315 69.705 70.565 69.927 69.895 70 70.177 70.312 70.452 70.622 70.793 70.955 71.132 71.31 71.518 71.73 71.96 72.215 72.435 72.65 72.853 73.045 73.22 73.425 73.673 73.93 74.173 74.39 74.598 74.798 74.973 75.143 75.33 75.518 75.705 75.88 76.072 76.245 76.43 76.62 76.815 77 77.192 77.403 77.583 77.743 77.905 78.07 78.2 78.348 78.47 78.58 78.698 78.81 78.917 79.045 79.165 79.253 79.33 79.415 79.49 79.753 79.915 80.083 80.49 80.863 81.082 81.353 82.11 82.727 81.8 81.772 81.872 82 82.113 82.255 82.86 83.53 85.555 86.753 83.613 82.952 82.945 82.995 83.045 83.115 83.205 83.29 83.368 83.432 83.512 83.592 83.677 83.72 83.783 83.87 83.897 83.965 84.022 84.105 84.168 84.247 84.295 84.342 84.42 84.452 84.495 84.552 84.595 84.637 84.682 84.738 84.785 84.777 84.87 86.395 85.62 85.378 85.29 85.188 85.107 85.073 85.037 85.015 85.007 85 84.99 84.975 84.955 84.947 84.923 84.887 84.875 84.895 84.893 84.908 84.935 84.942 84.975 85.012 85.043 85.088 85.135 85.18 85.26 85.342 85.36 85.35 85.405 85.397 85.438 85.52 85.47 85.465 85.442 85.423 85.357 85.265 85.185 85.073 85 84.897 84.78 84.685 84.575 84.448 84.323 84.162 83.987 83.948 84.802 84.61 83.165 82.812 82.522 82.213 81.838 81.435 81.018 80.568 80.052 79.535 78.94 78.503 77.963 77.402 76.863 76.365 75.868 75.37 74.95 74.495 74.01 73.545 73.003 72.357 72.18 71.575 70.333 71.015 70.735 71.538 70.86 69.598 69.717 69.787 69.795 69.872 69.895 69.868 70.305 69.848 69.837 69.912 70 70.022 70.04 70.01 70.17 70.32 70.493 70.68 70.85 71.012 71.17 71.28 71.482 71.58 71.705 71.807 71.98 72.167 72.34 72.632 72.943 73.12 73.42 73.725 73.905 74.085 74.283 74.527 74.812 75.05 75.298 75.55 75.785 76.073 76.348 76.637 76.91 77.18 77.46 77.755 78.02 78.268 78.505 78.723 78.94 79.132 79.323 79.48 79.652 79.817 79.955 80.088 80.198 80.318 80.438 80.565 80.698 80.805 80.923 81.015 81.107 81.195 81.285 81.385 81.457 81.51 81.583 81.628 81.673 81.715 81.747 81.772 81.842 81.908 81.963 82.045 82.095 82.958 84.505 83.09 82.637 82.338 82.423 82.485 82.55 82.615 82.65 82.677 82.688 82.708 82.74 82.78 82.848 82.875 82.915 82.94 82.932 82.94 82.943 82.975 83.015 83.073 83.14
74.265 75.515 76.305 76.698 75.82 74.952 74.978 75.193 75.213 75.945 76.573 76.177 76.825 77.21 77.272 75.827 76.533 76.3 76.948 75.765 75.653 75.618 75.537 75.458 75.372 75.262 75.168 75.055 74.912 74.78 74.643 74.467 74.338 74.228 74.107 73.96 73.827 73.713 73.613 73.537 73.45 73.32 73.19 73.095 72.948 72.798 72.64 72.495 72.333 72.165 71.997 71.825 71.668 71.473 71.292 71.113 70.952 70.795 70.643 70.485 70.338 70.16 70 69.84 69.69 69.548 69.432 69.323 69.21 69.08 68.932 68.82 68.685 68.64 68.5 68.545 68.283 68.775 68.43 68.548 68.348 68.16 68.33 67.698 67.705 68.033 67.83 67.228 67.048 67.042 67.055 67.037 67.048 67.033 67.057 66.99 67.552 67.645 67.67 67.37 67.3 68.595 67.27 67.537 67.643 67.083 67.65 67.853 67.923 67.943 67.938 68.04 68.757 68.317 68.735 69.025 69.103 69.628 69.525 69.265 69.423 69.548 69.71 69.845 70.012 70.19 70.372 70.57 70.762 70.997 71.235 71.47 71.702 71.927 72.137 72.325 72.505 72.745 72.98 73.24 73.507 73.717 73.94 74.15 74.335 74.507 74.688 74.88 75.075 75.265 75.443 75.632 75.82 76.015 76.205 76.405 76.605 76.787 77.012 77.193 77.348 77.503 77.645 77.787 77.927 78.07 78.183 78.298 78.43 78.565 78.682 78.815 78.96 79.05 79.143 79.255 79.412 79.697 80.132 81.33 81.595 80.885 82.443 82.183 81.628 81.967 84.382 83.467 81.173 81.505 81.71 82.425 83.817 84.315 82.52 82.493 82.518 82.56 82.62 82.665 82.755 82.865 82.938 83 83.068 83.13 83.2 83.275 83.315 83.387 83.44 83.48 83.537 83.635 83.667 83.772 83.82 83.897 83.973 84.027 84.075 84.13 84.17 84.22 84.28 84.348 84.372 84.405 84.355 85.338 85.64 85.007 84.94 84.84 84.74 84.72 84.67 84.645 84.65 84.64 84.625 84.615 84.595 84.575 84.575 84.537 84.51 84.518 84.525 84.52 84.515 84.543 84.585 84.622 84.692 84.693 84.717 84.705 84.73 84.785 84.827 84.855 84.932 84.97 85.01 85.035 85.042 85.04 85 84.997 84.95 84.88 84.808 84.693 84.622 84.49 84.38 84.257 84.122 83.99 83.863 83.777 83.65 83.925 84.503 84.393 83.912 82.632 82.103 81.798 81.493 81.118 80.728 80.183 79.667 79.085 78.58 78.042 77.47 76.918 76.405 75.938 75.385 74.965 74.512 74.04 73.605 73.105 72.567 71.948 71.86 71.283 70.217 70.188 70.152 69.372 69.327 69.485 69.598 69.705 69.745 69.77 69.925 70.04 70.098 69.765 69.755 69.825 69.905 69.938 69.945 70.107 70.277 70.423 70.708 70.845 71.055 71.18 71.323 71.45 71.618 71.803 71.965 72.048 72.177 72.42 72.762 73.11 73.23 73.47 73.685 73.91 74.098 74.3 74.533 74.825 75.06 75.305 75.555 75.815 76.097 76.393 76.655 76.93 77.22 77.51 77.798 78.092 78.35 78.607 78.845 79.075 79.298 79.455 79.628 79.807 79.967 80.147 80.287 80.44 80.567 80.675 80.808 80.917 81.025 81.152 81.262 81.355 81.475 81.552 81.652 81.75 81.81 81.887 81.927 81.98 82.022 82.058 82.08 82.105 82.158 82.213 82.28 82.357 82.405 82.993 84.315 84.277 83.225 82.697 82.738 82.81 82.857 82.925 82.975 83.007 83.018 83.045 83.073 83.118 83.167 83.217 83.262 83.27 83.262 83.265 83.272 83.295 83.333 83.393 83.473
73.645 74.5 75.292 75.438 74.635 74.415 74.375 74.515 75.155 75.967 76.08 75.938 75.808 76.592 77.57 76.15 76.81 76.027 75.7 75.147 74.963 74.908 74.863 74.755 74.683 74.575 74.482 74.348 74.19 74.057 73.93 73.765 73.59 73.47 73.31 73.195 73.06 72.957 72.85 72.753 72.637 72.505 72.385 72.265 72.122 71.965 71.79 71.622 71.455 71.285 71.122 70.963 70.78 70.603 70.443 70.28 70.09 69.938 69.8 69.638 69.473 69.327 69.165 69.027 68.905 68.803 68.7 68.71 68.482 68.317 68.243 68.872 68.732 68.327 68.482 67.882 68.798 68.465 67.713 67.615 67.12 66.98 66.753 66.723 66.62 66.71 66.505 66.405 66.503 66.463 66.397 66.317 66.228 66.14 66.4 66.245 66.865 66.503 68.31 66.115 66.995 66.607 66.18 66.363 66.982 66.463 67.068 67.082 67.04 66.962 68.135 69.415 67.28 67.575 67.978 68.705 68.893 68.675 69.087 68.62 68.662 68.8 68.96 69.13 69.3 69.452 69.632 69.83 70.042 70.275 70.515 70.735 70.988 71.2 71.43 71.635 71.842 72.062 72.33 72.568 72.822 73.037 73.278 73.497 73.692 73.87 74.058 74.245 74.445 74.64 74.835 75.012 75.21 75.397 75.603 75.81 76.033 76.223 76.417 76.603 76.76 76.942 77.075 77.235 77.385 77.515 77.647 77.777 77.902 78.04 78.173 78.327 78.49 78.618 78.715 78.845 78.978 79.152 79.435 80.93 80.84 80.333 80.037 79.935 79.897 83.065 84.848 83.51 80.512 80.643 81.957 81.615 81.838 81.723 81.723 81.81 81.915 81.985 82.095 82.182 82.283 82.372 82.455 82.533 82.6 82.675 82.76 82.827 82.882 82.92 82.975 83.037 83.09 83.147 83.213 83.278 83.35 83.427 83.497 83.595 83.652 83.732 83.78 83.825 83.882 83.965 84.01 84.055 83.993 84.525 85.375 84.625 84.658 84.535 84.452 84.4 84.342 84.303 84.31 84.302 84.29 84.275 84.247 84.23 84.198 84.188 84.17 84.147 84.122 84.145 84.165 84.153 84.137 84.152 84.175 84.207 84.235 84.245 84.27 84.323 84.365 84.412 84.478 84.518 84.557 84.598 84.63 84.61 84.618 84.585 84.52 84.438 84.355 84.28 84.162 84.03 83.897 83.79 83.662 83.552 83.425 83.295 83.15 83.393 84.018 85.217 84.48 82.202 81.685 81.403 81.097 80.708 80.292 79.79 79.22 78.667 78.14 77.542 77.01 76.455 75.872 75.405 74.967 74.503 74.067 73.613 73.132 72.673 72.095 71.497 71.643 70.592 71.62 71.603 70.037 69.185 69.245 69.387 69.512 69.59 69.622 69.613 69.528 69.615 69.607 69.618 69.717 69.75 69.868 69.985 70.745 70.38 70.387 70.635 70.863 71.092 71.255 71.415 71.5 71.667 71.838 72.03 72.23 72.397 72.585 72.885 73.225 73.432 73.55 73.74 73.87 74.085 74.325 74.585 74.835 75.08 75.325 75.57 75.855 76.143 76.427 76.702 76.975 77.265 77.54 77.838 78.122 78.402 78.688 78.96 79.202 79.42 79.607 79.78 79.973 80.152 80.325 80.515 80.65 80.772 80.902 81.028 81.14 81.265 81.372 81.503 81.618 81.72 81.825 81.925 82.018 82.113 82.177 82.24 82.292 82.325 82.355 82.395 82.433 82.452 82.485 82.537 82.6 82.655 82.715 82.86 83.505 83.87 84.165 83.145 83.02 83.098 83.173 83.245 83.27 83.315 83.327 83.378 83.403 83.442 83.493 83.548 83.585 83.613 83.603 83.598 83.595 83.605 83.647 83.713 83.785
73.065 74.025 74.19 74.445 73.51 73.553 73.662 74.345 74.958 75.145 74.775 74.13 74.065 75.522 75.81 76.29 75.905 75.515 74.93 74.357 74.262 74.21 74.147 74.04 73.965 73.857 73.753 73.61 73.482 73.34 73.195 73.012 72.87 72.71 72.577 72.425 72.28 72.175 72.062 71.925 71.78 71.655 71.533 71.412 71.265 71.077 70.91 70.762 70.603 70.41 70.26 70.098 69.925 69.76 69.588 69.427 69.287 69.122 69.012 68.87 68.708 68.55 68.425 68.395 68.275 68.245 68.12 68.188 67.923 67.802 68.158 68.577 68.192 67.347 68.425 68.085 68.253 68.173 68.973 67.708 66.283 66.162 66.81 66.463 66.965 66.368 66.168 66.12 65.878 65.512 65.105 65.09 65.128 65.292 65.527 65.485 65.277 66.363 69.01 65.618 66.223 66.868 66.257 65.715 66.185 65.512 66.167 66.092 66.145 66.143 66.235 66.868 68.19 66.575 67 68.4 68.86 68.988 68.098 67.853 67.932 68.077 68.217 68.372 68.552 68.708 68.902 69.107 69.307 69.528 69.79 70.03 70.26 70.49 70.717 70.958 71.16 71.378 71.645 71.897 72.155 72.372 72.622 72.848 73.045 73.238 73.423 73.618 73.805 74.01 74.198 74.408 74.607 74.812 75.003 75.217 75.412 75.625 75.802 76 76.19 76.355 76.522 76.685 76.825 76.98 77.118 77.243 77.372 77.497 77.655 77.805 77.948 78.113 78.27 78.39 78.525 78.775 78.88 79.853 80.683 79.905 79.545 79.57 79.592 80.535 81.272 79.91 80.05 80.185 80.5 80.405 80.93 80.71 80.893 81.062 81.198 81.35 81.463 81.558 81.632 81.768 81.857 81.982 82.07 82.158 82.243 82.345 82.417 82.488 82.525 82.603 82.66 82.71 82.775 82.83 82.908 82.975 83.04 83.143 83.243 83.323 83.388 83.45 83.51 83.568 83.622 83.647 83.658 84.265 85.073 85.53 85.188 84.53 84.198 84.12 84.075 84.01 83.988 83.98 83.95 83.923 83.913 83.887 83.853 83.812 83.73 83.697 83.647 83.618 83.637 83.658 83.647 83.675 83.688 83.728 83.77 83.848 83.872 83.912 83.988 84.022 84.077 84.115 84.152 84.15 84.177 84.202 84.162 84.128 84.037 83.995 83.908 83.807 83.673 83.55 83.445 83.305 83.195 83.098 82.935 82.79 82.63 82.705 83.035 84.16 82.028 81.95 81.283 80.978 80.645 80.277 79.83 79.318 78.76 78.285 77.628 77.048 76.48 75.917 75.375 74.935 74.495 74.022 73.585 73.15 72.705 72.167 71.673 71.082 70.93 70.562 71.637 71.518 70.665 69.137 69.197 69.28 69.318 69.3 69.318 69.308 69.382 69.467 70.298 70.177 69.895 69.753 69.963 70.497 70.997 70.7 70.635 70.783 71.073 71.257 71.408 71.59 71.76 71.925 72.145 72.327 72.542 72.757 73.05 73.26 73.473 73.682 73.795 73.895 74.087 74.345 74.605 74.855 75.103 75.34 75.607 75.887 76.17 76.448 76.743 77.035 77.315 77.6 77.878 78.168 78.473 78.775 79.06 79.298 79.528 79.745 79.95 80.13 80.33 80.5 80.66 80.815 80.967 81.095 81.238 81.37 81.495 81.615 81.725 81.848 81.967 82.08 82.18 82.285 82.368 82.465 82.54 82.603 82.647 82.69 82.717 82.753 82.777 82.795 82.817 82.86 82.912 82.988 83.018 83.188 84.022 83.507 83.93 83.272 83.312 83.397 83.463 83.54 83.6 83.647 83.662 83.695 83.725 83.772 83.81 83.875 83.925 83.94 83.938 83.93 83.932 83.948 83.988 84.04 84.105
72.408 73.723 73.445 73.84 72.83 72.83 72.923 73.14 73.18 73.99 73.887 74.055 73.37 74.25 74.81 74.658 74.728 74.145 73.955 73.94 73.588 73.505 73.44 73.365 73.27 73.155 73.065 72.917 72.777 72.61 72.438 72.268 72.115 71.952 71.812 71.675 71.557 71.393 71.235 71.103 70.985 70.835 70.693 70.553 70.4 70.195 70.043 69.885 69.73 69.592 69.45 69.292 69.162 68.975 68.897 68.757 68.787 68.66 68.425 68.28 68.185 68.29 68.158 68.3 68.262 68.088 67.757 67.722 67.575 67.795 67.93 67.973 66.938 67.01 66.945 66.64 67.075 66.647 66.393 66.585 66.545 67.29 66.195 64.94 64.708 65.33 65.69 65.232 65.185 64.82 64.598 64.045 64.425 65.048 64.923 65.113 64.848 65.245 64.765 65.32 65.272 65.647 65.27 66.128 65.49 65.327 65.315 65.68 65.32 65.412 65.46 65.772 67.345 66.403 67.785 70.015 69.77 67.927 67.147 67.052 67.173 67.312 67.465 67.643 67.812 67.973 68.145 68.357 68.562 68.798 69.04 69.31 69.565 69.802 70.037 70.257 70.478 70.702 70.955 71.217 71.488 71.717 71.958 72.185 72.408 72.61 72.793 72.99 73.177 73.38 73.575 73.775 73.978 74.198 74.408 74.62 74.812 75.018 75.215 75.425 75.618 75.768 75.933 76.098 76.257 76.38 76.525 76.683 76.823 76.942 77.095 77.262 77.438 77.59 77.725 77.88 78.04 78.145 78.26 78.73 79.77 80.405 79.003 79.073 79.162 79.235 79.338 79.425 79.605 79.787 79.905 79.982 80.088 80.243 80.387 80.535 80.673 80.8 80.908 81.005 81.107 81.198 81.29 81.382 81.467 81.555 81.65 81.775 81.86 81.955 82.033 82.092 82.177 82.247 82.32 82.378 82.472 82.565 82.665 82.768 82.875 82.963 83.033 83.095 83.158 83.173 83.223 83.3 83.338 83.44 84.445 84.552 84.95 84.595 83.98 83.783 83.72 83.658 83.643 83.61 83.552 83.518 83.467 83.375 83.312 83.283 83.253 83.21 83.2 83.202 83.188 83.202 83.247 83.26 83.285 83.35 83.395 83.438 83.495 83.56 83.588 83.65 83.682 83.708 83.732 83.78 83.755 83.738 83.683 83.645 83.6 83.505 83.417 83.312 83.193 83.065 82.945 82.837 82.723 82.56 82.402 82.277 82.13 82.205 82.275 83.033 81.653 81.232 81.088 80.46 80.107 79.717 79.265 78.735 78.295 77.695 77.058 76.417 75.905 75.375 74.885 74.425 73.98 73.533 73.092 72.67 72.2 71.772 71.315 70.783 70.473 70.243 70.095 70.033 70.027 69.17 69.125 69.12 69.09 69.195 69.245 69.863 69.835 70.11 70.06 69.985 70.137 69.973 70.708 70.59 70.68 71.217 70.897 70.885 71.113 71.372 71.613 71.793 71.995 72.215 72.405 72.635 72.885 73.15 73.363 73.53 73.692 73.807 73.917 74.115 74.375 74.62 74.868 75.125 75.365 75.658 75.927 76.208 76.51 76.805 77.075 77.375 77.652 77.933 78.225 78.53 78.84 79.118 79.378 79.635 79.87 80.105 80.308 80.5 80.66 80.815 80.967 81.145 81.295 81.435 81.573 81.71 81.842 81.96 82.085 82.21 82.327 82.427 82.542 82.65 82.745 82.84 82.92 82.975 83.012 83.065 83.077 83.105 83.125 83.122 83.168 83.19 83.238 83.295 83.308 83.765 84.728 84.795 83.658 83.503 83.592 83.683 83.76 83.855 83.915 83.96 83.98 84.015 84.062 84.118 84.152 84.21 84.257 84.277 84.277 84.27 84.265 84.28 84.312 84.35 84.415
72.47 73.52 72.99 73.285 72.118 72.088 73.03 73.245 72.905 72.545 72.482 73.095 73.15 74.295 74.503 73.715 74.068 74.05 73.54 73.455 73.027 72.798 72.715 72.618 72.525 72.42 72.302 72.175 72.038 71.86 71.677 71.5 71.338 71.197 71.055 70.92 70.772 70.618 70.46 70.318 70.168 70.042 69.923 69.845 69.643 69.425 69.28 69.07 68.963 68.865 68.677 68.505 68.365 68.345 68.607 68.685 68.805 69.167 67.872 68.415 68.15 67.715 67.838 67.36 67.11 66.725 66.302 66.255 66.802 67.618 66.85 66.693 66.793 67.05 64.967 64.935 67.35 66.347 65.105 66.458 65.125 64.947 65.705 63.798 63.967 63.94 64.025 64.36 64.223 64.1 64.257 63.942 64.243 64.128 64.015 64.247 64.287 64.577 64.56 65.057 64.458 64.575 64.967 65.298 65.622 65.59 65.283 64.74 64.503 64.54 64.595 64.743 64.893 65.033 69.298 70.618 69.605 67.702 66.25 66.257 66.327 66.52 66.705 66.87 67.027 67.2 67.385 67.598 67.823 68.073 68.31 68.565 68.827 69.08 69.312 69.545 69.79 70.027 70.265 70.522 70.795 71.048 71.302 71.535 71.772 71.993 72.158 72.348 72.543 72.757 72.948 73.145 73.355 73.567 73.79 73.985 74.2 74.408 74.615 74.812 74.993 75.18 75.353 75.51 75.665 75.83 75.973 76.113 76.257 76.393 76.555 76.702 76.857 77.012 77.18 77.345 77.48 77.618 77.695 77.768 78.695 79.257 78.58 78.64 78.702 78.772 78.875 78.995 79.103 79.243 79.412 79.56 79.647 79.753 79.912 80.04 80.155 80.28 80.425 80.533 80.605 80.723 80.815 80.91 80.98 81.048 81.112 81.177 81.275 81.318 81.393 81.505 81.603 81.693 81.787 81.893 81.985 82.105 82.238 82.37 82.505 82.628 82.73 82.802 82.87 82.882 82.842 82.887 82.967 82.925 83.22 83.48 83.105 83.088 83.23 83.202 83.19 83.145 83.088 83.062 83.01 82.96 82.935 82.897 82.865 82.835 82.822 82.8 82.778 82.78 82.798 82.803 82.832 82.868 82.9 82.952 83.007 83.07 83.12 83.185 83.223 83.27 83.302 83.32 83.353 83.363 83.335 83.265 83.225 83.182 83.122 83.035 82.965 82.87 82.735 82.613 82.49 82.375 82.208 82.07 81.905 81.743 81.61 81.908 82.018 82.155 81.795 82.15 80.42 79.825 79.48 79.003 78.565 78.122 77.548 76.93 76.357 75.74 75.307 74.827 74.355 73.872 73.44 73.012 72.595 72.152 71.768 71.355 70.912 70.503 70.315 70.155 70.072 69.662 70.887 69.868 69.472 69.088 69.305 69.713 70.09 70.397 69.912 69.683 69.92 69.902 69.938 70.365 70.5 70.61 70.882 71.445 70.8 70.978 71.255 71.518 71.755 71.967 72.185 72.435 72.695 72.978 73.228 73.408 73.567 73.693 73.787 73.93 74.14 74.393 74.637 74.885 75.135 75.408 75.685 75.958 76.26 76.545 76.838 77.13 77.423 77.71 77.993 78.3 78.595 78.882 79.173 79.452 79.717 79.978 80.235 80.463 80.64 80.812 80.988 81.137 81.3 81.457 81.62 81.777 81.928 82.055 82.188 82.318 82.438 82.57 82.682 82.795 82.917 83.007 83.118 83.21 83.275 83.327 83.37 83.412 83.432 83.467 83.475 83.48 83.507 83.525 83.573 83.607 83.615 83.988 85.137 84.842 83.765 83.787 83.885 83.967 84.055 84.143 84.217 84.26 84.287 84.353 84.387 84.438 84.478 84.54 84.603 84.613 84.635 84.64 84.595 84.603 84.64 84.682 84.745
71.412 71.832 72.247 73.762 71.387 71.567 73.2 72.192 71.745 71.643 71.715 72.11 73.438 73.423 73.055 72.885 73.512 73.168 73.455 72.9 72.155 71.98 71.923 71.795 71.71 71.637 71.545 71.415 71.272 71.1 70.927 70.75 70.583 70.455 70.378 70.215 70.08 69.905 69.787 69.965 70.057 70.035 69.655 69.588 68.895 68.645 68.482 68.335 68.195 68.027 67.822 67.895 68.22 67.948 68.607 67.635 67.912 68.238 66.722 67.27 66.772 67.228 67.61 65.762 65.945 66.062 66.673 66.088 66.283 66.04 65.723 65.43 66.075 64.195 63.952 63.91 64.728 64.835 64.003 64.173 63.927 62.84 62.855 63.057 63.255 63.245 63 63.695 63.588 63.268 65.34 63.283 64.003 62.873 63.237 63.982 63.897 63.448 63.7 63.83 63.43 63.915 63.463 64.52 64.647 65.378 65.033 64.26 64.71 65.005 63.783 63.89 64.397 64.27 65.202 68.228 69.053 66.917 65.357 65.412 65.52 65.723 65.908 66.085 66.253 66.427 66.618 66.83 67.05 67.298 67.545 67.823 68.088 68.34 68.605 68.875 69.122 69.35 69.615 69.857 70.13 70.368 70.637 70.895 71.113 71.33 71.522 71.73 71.915 72.113 72.31 72.527 72.72 72.935 73.152 73.36 73.583 73.808 74.02 74.21 74.4 74.6 74.765 74.935 75.092 75.247 75.387 75.54 75.677 75.81 75.988 76.135 76.295 76.452 76.618 76.78 76.92 77.042 77.122 77.217 77.827 79.433 78.13 78.095 78.225 78.298 78.408 78.53 78.647 78.777 78.882 79.018 79.15 79.257 79.357 79.485 79.628 79.76 79.868 79.97 80.073 80.167 80.277 80.36 80.467 80.518 80.582 80.67 80.77 80.805 80.845 80.917 81 81.065 81.15 81.255 81.38 81.555 81.74 81.957 82.085 82.2 82.298 82.408 82.493 82.46 82.553 83.025 83.692 83.035 83.33 83.25 82.497 82.568 82.675 82.658 82.618 82.605 82.567 82.575 82.573 82.52 82.507 82.463 82.458 82.42 82.42 82.432 82.415 82.427 82.455 82.452 82.478 82.527 82.552 82.615 82.67 82.705 82.745 82.795 82.838 82.875 82.89 82.927 82.965 82.95 82.9 82.853 82.805 82.738 82.685 82.63 82.543 82.43 82.318 82.162 82.012 81.86 81.725 81.59 81.412 81.215 81.04 80.997 81.78 81.31 81.505 81.185 79.632 79.645 78.99 78.333 77.865 77.323 76.755 76.192 75.713 75.122 74.74 74.272 73.777 73.315 72.905 72.52 72.075 71.662 71.33 70.927 70.588 70.235 70.128 69.805 69.53 69.503 71.232 70.652 70.205 69.368 69.195 70.768 70.097 69.333 69.433 69.48 69.643 69.838 70.118 70.36 70.67 71.268 71.255 70.887 70.785 71.14 71.438 71.62 71.897 72.15 72.41 72.708 73.012 73.22 73.385 73.55 73.713 73.798 73.945 74.158 74.402 74.647 74.887 75.14 75.43 75.702 75.988 76.285 76.577 76.872 77.177 77.467 77.77 78.082 78.37 78.662 78.948 79.228 79.505 79.79 80.082 80.357 80.565 80.765 80.957 81.155 81.318 81.475 81.625 81.795 81.963 82.128 82.268 82.4 82.533 82.662 82.798 82.92 83.027 83.173 83.268 83.36 83.457 83.54 83.618 83.682 83.735 83.77 83.818 83.827 83.842 83.842 83.865 83.863 83.872 83.887 83.905 84.21 84.955 84.615 83.985 84.095 84.18 84.265 84.348 84.435 84.505 84.565 84.605 84.65 84.697 84.74 84.802 84.872 84.94 84.96 84.965 84.957 84.942 84.927 84.975 85.01 85.073
70.963 71.978 71.993 72.713 72.65 71.185 72.01 72.438 71.177 70.967 71.658 71.438 71.738 72.173 72.533 73.38 72.65 72.98 72.885 71.408 71.425 71.17 71.105 70.995 70.917 70.87 70.787 70.653 70.505 70.37 70.185 70.185 70.152 69.895 69.83 69.595 69.48 69.47 69.43 69.51 69.693 69.503 69.26 68.878 68.065 67.905 67.677 67.58 67.423 67.235 67.12 67.3 67.21 67.603 66.878 67.835 68.272 67.465 66.525 66.143 66.088 65.6 66.917 66.285 65.775 64.562 65.205 64.878 64.317 64.785 64.955 64.673 65.327 63.943 63.69 63.107 63.807 63.34 62.927 63.07 63.673 62.405 62.647 62.542 62.713 62.84 62.713 62.725 62.705 61.982 62.85 63.197 63.322 63.1 62.708 62.845 63.442 62.52 62.925 63.095 62.377 62.685 62.612 63.858 63.603 64.777 65 63.658 64.537 65.295 62.993 64.48 63.9 63.478 63.99 66.555 70.985 67.402 64.495 64.54 64.698 64.905 65.08 65.285 65.465 65.65 65.835 66.053 66.272 66.535 66.8 67.052 67.32 67.603 67.88 68.138 68.4 68.675 68.92 69.16 69.427 69.702 69.96 70.225 70.46 70.683 70.895 71.077 71.275 71.472 71.7 71.89 72.085 72.302 72.522 72.745 72.97 73.185 73.395 73.613 73.8 73.978 74.158 74.335 74.497 74.655 74.81 74.95 75.1 75.24 75.408 75.562 75.72 75.875 76.048 76.202 76.338 76.473 76.575 76.662 77.205 78.052 78.165 77.63 77.747 77.777 77.88 78.005 78.12 78.257 78.382 78.5 78.607 78.735 78.863 78.957 79.062 79.185 79.323 79.452 79.568 79.632 79.715 79.812 79.91 79.985 80.05 80.118 80.215 80.262 80.31 80.387 80.463 80.51 80.615 80.713 80.85 81.037 81.255 81.467 81.59 81.688 81.738 81.785 81.807 81.825 81.772 81.79 81.805 81.955 82.363 82.36 82.09 82.115 82.12 82.122 82.12 82.125 82.095 82.12 82.107 82.09 82.073 82.055 82.08 82.08 82.065 82.045 82.045 82.057 82.077 82.11 82.15 82.147 82.192 82.268 82.3 82.35 82.403 82.43 82.455 82.493 82.52 82.533 82.54 82.537 82.495 82.433 82.387 82.335 82.255 82.177 82.098 81.963 81.838 81.673 81.548 81.375 81.22 81.057 80.868 80.66 80.467 80.413 80.452 81.042 80.238 81.772 81.22 80.275 78.448 77.597 77.067 76.537 76.048 75.567 75.065 74.558 74.068 73.618 73.155 72.75 72.308 71.928 71.527 71.188 70.863 70.515 70.243 69.927 69.86 69.713 69.67 69.768 71.893 69.537 69.725 69.973 70.595 69.378 70.452 70.007 69.448 70.175 70.073 69.967 70.162 70.46 70.64 70.755 70.675 70.695 70.94 71.245 71.513 71.838 72.075 72.355 72.662 72.985 73.21 73.348 73.507 73.667 73.783 73.957 74.19 74.405 74.65 74.887 75.14 75.423 75.713 75.997 76.298 76.61 76.925 77.235 77.52 77.825 78.125 78.433 78.738 78.995 79.268 79.548 79.853 80.16 80.408 80.66 80.89 81.103 81.308 81.49 81.64 81.805 81.97 82.128 82.285 82.443 82.605 82.723 82.875 82.993 83.132 83.255 83.393 83.51 83.607 83.708 83.82 83.902 83.988 84.055 84.083 84.118 84.15 84.155 84.158 84.152 84.145 84.145 84.153 84.173 84.165 84.6 85.177 85.503 84.31 84.378 84.467 84.54 84.645 84.738 84.83 84.875 84.915 84.958 85.005 85.062 85.122 85.18 85.24 85.272 85.29 85.28 85.255 85.255 85.295 85.33 85.372
71.792 72.36 71.393 72.18 71 71.155 71.725 71.253 70.875 70.2 70.645 71.08 71.747 72.55 71.19 72.49 71.647 71.113 71.393 70.568 70.84 70.542 70.415 70.293 70.135 70.115 69.902 69.847 69.723 69.652 70.262 70.95 71.073 69.735 69.052 68.965 68.93 68.94 68.995 69.012 69.075 68.558 68.19 67.845 67.607 67.47 67.045 67.165 68.048 66.8 66.402 66.768 66.247 65.632 66.507 65.283 66.22 65.435 65.348 65.198 65.088 64.668 65.615 65.365 64.635 63.995 64.735 64.155 63.94 64.115 63.897 64.14 63.693 62.998 63.41 63.02 63.06 62.955 62.743 62.47 62.472 62.338 62.217 62.298 62.31 62 62.127 61.775 61.558 61.17 61.153 61.975 61.995 61.702 62.073 62.342 62.388 62.342 62.698 61.987 62.927 62.482 62.003 61.965 61.222 63.105 63.245 62.463 62.963 62.138 62.25 62.987 63.65 62.625 63.147 64.113 67.098 65.238 63.743 63.73 63.882 64.065 64.275 64.452 64.65 64.835 65.027 65.277 65.507 65.747 66.012 66.283 66.577 66.857 67.145 67.408 67.677 67.943 68.202 68.47 68.747 69.007 69.27 69.545 69.795 70.033 70.235 70.427 70.64 70.842 71.04 71.25 71.458 71.667 71.895 72.12 72.35 72.57 72.795 73.003 73.202 73.395 73.562 73.743 73.917 74.037 74.215 74.363 74.495 74.652 74.827 74.985 75.145 75.295 75.467 75.622 75.777 75.915 76.02 76.095 76.52 77.805 78.025 77.335 77.295 77.277 77.375 77.482 77.595 77.745 77.857 77.97 78.103 78.23 78.33 78.43 78.55 78.685 78.783 78.908 79.018 79.11 79.22 79.303 79.378 79.438 79.493 79.56 79.635 79.688 79.77 79.827 79.912 79.97 80.06 80.167 80.32 80.455 80.695 80.78 80.935 80.91 80.833 80.87 80.888 81.022 81.052 81.088 81.18 81.205 81.262 81.415 81.533 81.603 81.643 81.652 81.665 81.66 81.667 81.695 81.685 81.67 81.683 81.675 81.68 81.68 81.68 81.665 81.68 81.695 81.72 81.75 81.792 81.835 81.84 81.908 81.952 81.98 82.03 82.037 82.1 82.095 82.098 82.113 82.107 82.077 82.033 81.975 81.92 81.882 81.803 81.712 81.61 81.49 81.347 81.195 81.027 80.84 80.675 80.5 80.285 80.08 79.845 79.868 80.588 80.348 80.973 79.682 80.743 80.765 77.275 76.99 76.295 75.817 75.36 74.835 74.39 73.918 73.465 72.995 72.49 72.113 71.755 71.378 71.03 70.692 70.433 70.198 69.963 69.658 69.53 69.56 69.988 69.89 70.808 69.915 70.7 68.942 69.253 69.988 70.665 69.423 69.525 70.17 70.253 70.278 70.348 70.467 70.588 70.81 70.89 70.99 71.202 71.365 71.647 71.993 72.285 72.567 72.89 73.177 73.323 73.48 73.58 73.74 73.93 74.16 74.395 74.625 74.868 75.147 75.427 75.705 76.005 76.31 76.62 76.938 77.272 77.572 77.875 78.17 78.488 78.798 79.057 79.353 79.613 79.917 80.217 80.485 80.745 80.995 81.215 81.445 81.647 81.81 81.975 82.12 82.293 82.45 82.598 82.763 82.905 83.057 83.183 83.323 83.448 83.585 83.71 83.84 83.955 84.06 84.143 84.228 84.287 84.355 84.397 84.425 84.452 84.47 84.457 84.438 84.425 84.43 84.443 84.445 84.455 84.895 85.385 85.988 84.56 84.67 84.76 84.838 84.938 85.027 85.112 85.173 85.217 85.275 85.318 85.37 85.44 85.5 85.55 85.59 85.598 85.6 85.575 85.57 85.607 85.637 85.69
70.59 70.935 71.435 71.335 70.488 70.878 71.132 70.555 69.537 69.82 69.577 71.143 70.438 71.543 70.96 70.45 70.59 70.58 70.908 70.755 70.07 69.798 69.43 69.307 69.145 68.94 68.753 68.755 68.655 69.198 70.082 70.247 70.01 70.958 71.878 68.675 68.037 68.352 68.45 68.097 68.197 67.69 68.275 67.09 67.027 66.495 66.927 68.262 66.308 65.22 65.285 65.062 65.268 65.567 64.57 65.51 64.548 64.99 63.772 65.02 64.582 64.167 64.798 64.022 64.35 63.798 63.055 64.035 63.292 62.583 61.97 62.092 62.72 62.372 61.573 61.542 61.888 61.775 61.68 61.305 61.66 61.695 61.388 61.18 61.33 61.49 61.423 61.127 62.472 61.71 61.435 61.597 61.042 61.778 60.792 61.27 61.903 61.827 61.292 61.645 62.007 61.725 61.395 60.948 60.995 62.347 64.305 61.498 61.41 61.537 61.665 61.77 61.747 61.795 61.998 62.993 63.22 63.37 62.952 62.923 63.083 63.27 63.478 63.662 63.857 64.058 64.272 64.485 64.702 64.98 65.238 65.533 65.83 66.098 66.4 66.665 66.93 67.213 67.497 67.783 68.035 68.32 68.6 68.875 69.132 69.37 69.585 69.785 69.99 70.2 70.393 70.613 70.815 71.033 71.26 71.497 71.713 71.94 72.152 72.375 72.572 72.785 72.95 73.143 73.305 73.46 73.603 73.765 73.908 74.065 74.217 74.382 74.562 74.73 74.902 75.052 75.205 75.35 75.467 75.607 75.857 76.868 77.962 77.97 77.49 76.8 76.845 76.94 77.077 77.21 77.333 77.45 77.575 77.68 77.812 77.917 78.01 78.11 78.253 78.357 78.463 78.57 78.658 78.757 78.825 78.9 78.978 79.012 79.085 79.145 79.19 79.24 79.327 79.412 79.485 79.588 79.693 79.768 80.38 80.11 80.035 79.978 79.978 80.073 80.215 80.69 81.42 80.64 80.673 80.753 80.83 80.92 81.027 81.103 81.132 81.165 81.19 81.19 81.215 81.222 81.255 81.25 81.265 81.287 81.298 81.32 81.32 81.33 81.323 81.357 81.375 81.42 81.427 81.45 81.482 81.52 81.562 81.615 81.65 81.662 81.685 81.705 81.695 81.662 81.658 81.64 81.58 81.533 81.475 81.397 81.323 81.23 81.115 80.978 80.838 80.682 80.505 80.307 80.128 79.935 79.713 79.482 79.225 79.262 80.238 79.923 79.738 78.26 78.658 78.113 77.785 75.995 75.717 75.097 74.625 74.122 73.705 73.21 72.78 72.287 71.878 71.542 71.215 70.87 70.567 70.353 70.103 69.855 69.637 69.473 69.39 69.36 69.473 69.24 69.327 69.232 69.455 70.143 70.387 70.06 70.245 69.625 69.785 70.368 70.31 70.457 70.622 70.72 70.848 71.003 71.1 71.253 71.393 71.585 71.855 72.14 72.473 72.753 73.045 73.247 73.365 73.497 73.682 73.9 74.122 74.348 74.585 74.848 75.122 75.423 75.692 75.993 76.312 76.625 76.945 77.277 77.577 77.918 78.235 78.522 78.835 79.12 79.393 79.695 79.985 80.272 80.52 80.802 81.073 81.32 81.555 81.753 81.948 82.122 82.29 82.435 82.592 82.757 82.91 83.07 83.223 83.357 83.5 83.635 83.757 83.893 84.018 84.15 84.247 84.335 84.435 84.503 84.58 84.643 84.685 84.7 84.74 84.755 84.745 84.725 84.728 84.725 84.732 84.738 84.73 84.855 85.51 85.745 84.833 84.963 85.06 85.137 85.23 85.327 85.41 85.48 85.515 85.55 85.598 85.67 85.747 85.808 85.855 85.893 85.908 85.908 85.89 85.89 85.9 85.942 86.007
68.308 69.292 70.198 70.13 70.382 69.97 69.945 69.445 69.417 68.475 69.033 68.662 70.72 69.562 70.353 70.128 69.853 70.01 70.893 68.872 69.15 69.682 70.148 69.03 68.62 68.717 68.128 68.893 68.665 68.82 72.64 70.1 69.618 70.807 70.048 70.865 69.303 67.78 67.875 67.122 66.985 66.952 67.49 65.747 65.963 65.478 65.423 65.573 64.717 64.45 64.573 65.17 64.575 65.34 63.94 63.56 63.982 63.715 63.382 64.205 63.833 64.22 63.757 63.26 63.18 63.487 62.37 62.315 62.268 62.182 61.202 61.188 61.592 61.772 61.805 60.99 61.365 60.972 61.412 60.897 61.007 60.55 60.45 60.83 60.835 59.603 59.507 60.33 59.338 59.565 59.493 61.475 61.495 60.888 61.533 60.475 61.252 60.365 61.01 60.942 60.77 60.54 61.03 60.507 59.66 60.14 60.55 62.842 63.923 61.185 60.86 61.213 62.257 61.307 61.118 62.105 62.397 62.65 62.122 62.112 62.285 62.463 62.66 62.873 63.073 63.278 63.51 63.72 63.952 64.22 64.475 64.757 65.025 65.33 65.613 65.91 66.202 66.488 66.775 67.077 67.335 67.62 67.912 68.21 68.485 68.735 68.943 69.147 69.35 69.55 69.76 69.965 70.19 70.408 70.622 70.847 71.073 71.307 71.527 71.728 71.955 72.15 72.345 72.525 72.693 72.868 73.015 73.17 73.33 73.488 73.65 73.842 73.982 74.14 74.333 74.48 74.628 74.772 74.905 75.1 75.238 75.99 76.705 76.927 78.02 76.39 76.378 76.463 76.562 76.655 76.803 76.925 77.03 77.165 77.28 77.395 77.5 77.62 77.717 77.835 77.93 78.027 78.128 78.217 78.325 78.382 78.44 78.503 78.56 78.628 78.688 78.74 78.81 78.878 78.925 79.035 79.098 79.223 79.49 79.228 79.25 79.333 79.43 79.553 79.702 79.882 80.158 80.088 80.158 80.257 80.37 80.465 80.543 80.588 80.613 80.63 80.658 80.702 80.762 80.79 80.817 80.84 80.87 80.895 80.92 80.93 80.923 80.955 80.975 80.982 81.01 81.052 81.057 81.068 81.115 81.158 81.208 81.228 81.245 81.283 81.3 81.298 81.308 81.268 81.23 81.22 81.152 81.105 81.025 80.93 80.823 80.728 80.603 80.457 80.312 80.13 79.925 79.747 79.555 79.333 79.11 78.848 78.625 78.53 79.165 79.375 79.033 78.463 77.202 77.688 78.385 76.003 74.863 74.335 73.885 73.397 72.952 72.543 72.092 71.673 71.323 71.018 70.723 70.425 70.147 69.933 69.725 69.527 69.402 69.317 69.255 69.193 69.062 68.918 68.817 69.475 69.35 69.957 69.85 69.628 69.77 70.015 70.23 70.507 70.505 70.68 70.81 70.93 71.045 71.175 71.295 71.393 71.552 71.775 72.083 72.35 72.55 72.815 73.088 73.305 73.452 73.675 73.863 74.09 74.323 74.555 74.787 75.08 75.39 75.69 75.988 76.295 76.613 76.927 77.25 77.575 77.9 78.232 78.555 78.85 79.15 79.435 79.747 80.043 80.3 80.558 80.847 81.137 81.402 81.662 81.885 82.067 82.257 82.438 82.592 82.755 82.885 83.048 83.228 83.363 83.513 83.645 83.8 83.93 84.055 84.158 84.29 84.415 84.527 84.598 84.69 84.775 84.845 84.89 84.945 84.963 84.997 85.012 85.003 85.003 84.982 84.98 85 85.003 84.995 84.98 85.405 86.235 85.717 85.253 85.348 85.423 85.503 85.615 85.71 85.762 85.81 85.842 85.888 85.95 86.022 86.098 86.152 86.192 86.198 86.217 86.188 86.195 86.223 86.232 86.29
67.238 68.302 69.558 70.567 70.173 68.762 68.458 68.382 68.405 68.268 67.702 68.152 68.662 68.99 70.16 69.467 68.495 69.885 70.463 69.03 69.135 69.515 69.175 68.777 68.708 67.817 67.698 67.972 68.183 68.287 70.225 68.945 68.645 67.643 68.342 68.607 66.887 66.753 66.143 65.78 66.245 65.878 65.9 65.722 66 65.643 64.917 64.838 64.29 63.673 63.528 64.018 63.335 64 63.928 63.528 62.967 63.472 63.382 63.167 63.452 63.34 62.982 63.21 62.457 62.145 61.542 62.115 62.033 62.548 61.018 60.298 60.55 61.62 60.985 60.923 59.38 60.228 60.132 59.49 60.33 60.252 60.185 59.625 60.08 60.94 58.693 58.577 58.708 59.287 59.522 59.89 60.745 60.455 60.785 60.675 60.378 59.952 59.588 59.71 60.142 59.83 59.555 59.035 59.112 60.647 60.19 62.455 61.597 60.05 60.205 60.645 65.833 60.673 61.357 62.442 62.335 62.077 61.443 61.393 61.53 61.697 61.882 62.097 62.31 62.542 62.73 62.967 63.205 63.45 63.715 63.99 64.262 64.573 64.863 65.16 65.452 65.747 66.033 66.33 66.647 66.945 67.247 67.548 67.842 68.095 68.305 68.507 68.717 68.9 69.107 69.325 69.545 69.753 69.98 70.213 70.45 70.675 70.91 71.11 71.317 71.545 71.735 71.94 72.08 72.243 72.405 72.562 72.732 72.87 73.067 73.255 73.41 73.568 73.757 73.938 74.09 74.22 74.37 74.567 74.66 75.49 76.16 76.728 76.662 75.85 75.85 75.94 76.035 76.138 76.272 76.395 76.518 76.628 76.757 76.863 76.99 77.095 77.217 77.33 77.405 77.488 77.605 77.692 77.78 77.85 77.912 77.982 78.045 78.103 78.155 78.202 78.268 78.368 78.447 78.503 78.56 78.675 78.838 78.762 78.798 78.88 78.995 79.105 79.213 79.338 79.42 79.525 79.64 79.745 79.845 79.917 80.018 80.067 80.107 80.145 80.23 80.247 80.28 80.34 80.37 80.397 80.438 80.488 80.497 80.52 80.552 80.595 80.598 80.577 80.625 80.632 80.665 80.747 80.757 80.777 80.783 80.845 80.87 80.887 80.912 80.887 80.865 80.86 80.818 80.768 80.72 80.628 80.527 80.43 80.312 80.18 80.05 79.9 79.798 79.562 79.36 79.158 78.915 78.67 78.45 78.225 77.98 77.658 77.695 78.802 79.122 78.785 75.655 75.713 75.387 75.38 74.055 73.72 73.232 72.738 72.243 71.817 71.465 71.08 70.805 70.522 70.253 70.018 69.772 69.572 69.427 69.402 69.32 69.173 69.06 68.912 68.772 68.957 68.822 69.665 69.64 69.543 69.585 70.247 70.533 71.01 70.372 70.557 70.715 70.84 70.97 71.09 71.182 71.323 71.48 71.645 71.81 71.935 72.225 72.51 72.765 72.955 73.098 73.35 73.632 73.84 74.052 74.28 74.515 74.732 75.012 75.312 75.65 75.967 76.27 76.582 76.905 77.223 77.562 77.885 78.213 78.528 78.857 79.167 79.47 79.785 80.073 80.34 80.615 80.885 81.18 81.452 81.725 81.958 82.173 82.372 82.548 82.735 82.893 83.052 83.185 83.345 83.48 83.645 83.803 83.945 84.09 84.202 84.308 84.417 84.537 84.662 84.765 84.833 84.927 84.99 85.065 85.132 85.173 85.213 85.23 85.235 85.238 85.232 85.205 85.21 85.22 85.255 85.257 85.228 85.878 85.735 85.42 85.53 85.625 85.71 85.798 85.882 85.978 86.04 86.08 86.115 86.158 86.23 86.283 86.363 86.435 86.478 86.507 86.505 86.49 86.488 86.505 86.53 86.565
66.622 67.458 68.833 68.598 69.775 67.912 67.17 67.235 67.485 66.842 67.077 66.932 67.192 68.012 68.902 67.632 68.17 68.045 67.757 67.458 68.253 68.372 71.033 68.72 69.06 67.488 66.94 66.795 66.607 66.457 66.755 66.645 66.805 66.618 65.988 66.07 66.14 65.84 65.02 64.95 65.185 65.303 65.092 65.082 65.088 64.49 64.975 64.427 63.597 63.052 63.33 63.307 64.197 63.798 63.667 63.265 63.007 62.537 62.237 62.065 62.055 62.945 62.67 62.535 63.13 62.695 61.493 61.803 60.487 61.09 61.103 60.48 60.085 60.572 60.438 59.335 59.077 59.34 59.028 58.995 58.685 59.702 59.515 59.338 59.752 60.16 58.298 58.438 58.903 58.825 58.893 58.478 58.583 58.597 59.268 59.338 58.863 59.162 59.147 58.465 58.715 58.698 58.56 58.555 58.583 59.305 60.135 59.47 59.42 59.487 59.575 59.662 61.397 61.06 62.283 60.653 60.95 61.012 60.823 60.677 60.83 61.003 61.177 61.38 61.575 61.772 62.013 62.24 62.478 62.735 62.987 63.255 63.55 63.827 64.118 64.42 64.717 65.018 65.34 65.673 65.935 66.238 66.562 66.875 67.17 67.428 67.655 67.87 68.062 68.277 68.482 68.683 68.917 69.132 69.345 69.583 69.825 70.03 70.268 70.475 70.702 70.927 71.128 71.298 71.482 71.652 71.805 71.948 72.11 72.283 72.455 72.635 72.792 72.973 73.167 73.333 73.5 73.65 73.81 73.942 74.155 74.24 75.037 76.573 75.24 75.342 75.312 75.397 75.512 75.61 75.705 75.853 75.99 76.1 76.208 76.333 76.458 76.568 76.688 76.802 76.905 77.003 77.062 77.147 77.24 77.307 77.382 77.43 77.497 77.57 77.628 77.68 77.74 77.802 77.882 77.96 78.025 78.255 78.848 79.298 78.375 78.402 78.505 78.613 78.697 78.787 78.88 78.988 79.1 79.188 79.3 79.38 79.472 79.565 79.615 79.677 79.72 79.772 79.84 79.895 79.94 79.982 80.015 80.068 80.092 80.132 80.158 80.188 80.188 80.202 80.202 80.263 80.283 80.3 80.327 80.338 80.378 80.427 80.452 80.46 80.488 80.458 80.43 80.425 80.353 80.285 80.217 80.132 80.01 79.888 79.762 79.635 79.493 79.333 79.167 78.943 78.712 78.485 78.293 78.07 77.817 77.537 77.243 76.905 76.542 77.26 77.81 76.375 76.775 75.603 75.457 74.253 73.845 74.103 72.825 72.053 71.63 71.24 70.902 70.605 70.342 70.103 69.872 69.607 69.458 69.44 69.27 69.63 69.295 68.848 68.808 68.688 68.853 69.19 69.723 69.682 69.448 69.973 70.395 70.55 70.423 70.34 70.51 70.668 70.815 70.98 71.14 71.247 71.36 71.507 71.695 71.865 72.048 72.15 72.36 72.665 72.845 73.048 73.188 73.442 73.747 74.003 74.225 74.473 74.705 74.963 75.253 75.573 75.897 76.22 76.55 76.868 77.195 77.542 77.882 78.19 78.522 78.833 79.188 79.505 79.812 80.087 80.363 80.645 80.923 81.192 81.478 81.738 82.015 82.243 82.473 82.673 82.863 83.012 83.188 83.33 83.475 83.595 83.77 83.912 84.067 84.193 84.3 84.427 84.53 84.66 84.772 84.882 84.98 85.048 85.13 85.2 85.262 85.338 85.365 85.405 85.415 85.427 85.433 85.425 85.415 85.42 85.442 85.473 85.49 85.467 86.198 86.53 85.667 85.8 85.89 85.978 86.067 86.158 86.232 86.29 86.345 86.375 86.408 86.5 86.562 86.632 86.695 86.755 86.78 86.79 86.785 86.775 86.783 86.802 86.853
65.982 66.285 68.195 68.363 67.192 66.45 66.475 66.63 66.945 66.32 66.842 66.2 66.333 67.34 67.715 68.098 67.4 68.19 68.69 67.51 67.555 67.478 67.495 66.632 67.333 66.807 66.072 65.57 65.57 65.63 65.933 66.083 65.845 65.87 65.637 65.598 65.45 64.84 64.655 65.277 64.885 64.65 64.527 64.53 64.308 63.655 63.778 63.065 62.783 62.66 62.778 62.678 63.213 63.53 62.467 62.662 62.573 61.912 61.217 62.802 62.167 62.033 61.19 61.73 60.795 60.838 60.3 60.213 59.978 61.083 60.755 60.157 59.875 59.147 58.685 58.018 58.105 58.76 58.268 58.28 57.632 58.342 57.455 57.893 57.73 57.118 57.423 57.4 58.265 57.625 57.803 57.577 57.645 57.76 57.88 58.153 58.178 58.395 58.38 58.155 58.033 58.08 58.155 58.298 58.193 58.24 58.335 59.02 59.147 59.11 59.28 59.39 59.415 59.415 60.732 59.787 60.013 60.393 59.978 60.107 60.228 60.385 60.55 60.722 60.895 61.103 61.315 61.542 61.76 62.003 62.257 62.535 62.818 63.125 63.39 63.685 63.98 64.272 64.6 64.923 65.24 65.542 65.88 66.213 66.51 66.762 67.005 67.22 67.425 67.65 67.863 68.062 68.283 68.503 68.735 68.967 69.205 69.43 69.64 69.863 70.065 70.288 70.493 70.692 70.857 71.02 71.183 71.34 71.5 71.68 71.872 72.045 72.202 72.408 72.583 72.755 72.918 73.073 73.223 73.375 73.49 73.613 74.25 75.865 74.885 74.815 74.795 74.878 74.982 75.088 75.195 75.315 75.425 75.545 75.67 75.783 75.902 76.015 76.137 76.238 76.363 76.448 76.58 76.65 76.73 76.768 76.827 76.893 76.973 77.025 77.103 77.15 77.18 77.247 77.342 77.408 77.4 77.6 78.722 78.878 77.927 77.958 78.012 78.052 78.162 78.245 78.342 78.435 78.535 78.645 78.743 78.845 78.955 79.045 79.118 79.195 79.25 79.32 79.402 79.47 79.52 79.565 79.622 79.665 79.695 79.743 79.762 79.735 79.75 79.792 79.792 79.825 79.842 79.868 79.92 79.945 79.943 79.96 79.988 80.02 80.02 80.015 79.978 79.943 79.91 79.823 79.713 79.598 79.488 79.33 79.175 79.033 78.878 78.688 78.5 78.318 78.06 77.848 77.625 77.375 77.073 76.78 76.458 76.115 75.75 75.435 76.537 75.645 75.415 73.955 73.835 73.94 73.103 72.347 72.348 71.56 71.042 70.732 70.448 70.152 69.923 69.69 69.455 69.305 69.18 69.192 69.033 68.833 69.497 68.6 68.777 69.36 69.98 69.845 69.3 69.375 70.652 70.15 70.85 70.257 70.35 70.475 70.615 70.775 70.933 71.11 71.302 71.428 71.542 71.713 71.917 72.065 72.247 72.395 72.545 72.825 72.993 73.21 73.345 73.618 73.887 74.143 74.368 74.63 74.92 75.215 75.53 75.823 76.158 76.507 76.82 77.147 77.482 77.812 78.185 78.488 78.817 79.145 79.482 79.798 80.092 80.375 80.66 80.94 81.215 81.482 81.743 82.027 82.285 82.525 82.745 82.952 83.12 83.277 83.435 83.588 83.73 83.868 84 84.155 84.285 84.417 84.535 84.658 84.77 84.88 84.978 85.088 85.183 85.265 85.338 85.397 85.46 85.512 85.548 85.56 85.598 85.598 85.583 85.573 85.583 85.6 85.618 85.668 85.692 85.678 86.57 86.56 85.97 86.05 86.14 86.21 86.308 86.412 86.467 86.56 86.577 86.62 86.67 86.74 86.805 86.878 86.95 87.007 87.05 87.05 87.045 87.045 87.06 87.075 87.125
64.967 65.875 66.088 67.205 65.497 66.405 66.512 66.565 65.872 65.495 66.033 65.84 65.35 65.387 66.245 67.107 67.577 67.677 68.5 66.675 66.125 67.555 65.855 65.338 65.175 65.068 64.98 64.945 64.902 65.05 65.312 65.72 65.125 65.177 64.545 64.783 64.58 64.537 64.043 64.033 64.29 63.182 63.25 63.345 63.528 63.32 63.1 62.607 61.8 61.728 61.43 61.74 62.035 62.8 62.695 61.42 61.44 61.283 61.318 61.61 61.728 60.362 60.427 60.135 61.482 61.467 60.863 59.895 60.235 61.495 58.943 59.353 59.17 58.403 57.485 57.315 57.595 56.783 56.945 56.89 56.63 56.673 56.857 57.222 56.842 56.903 57.385 57.388 57.778 57.807 57.853 57.498 57.518 57.423 57.575 57.597 57.7 57.755 57.667 57.688 58.013 57.803 59.478 60.265 58.128 57.91 58.05 58.32 58.537 58.68 58.86 58.93 59.035 59.77 62.415 59.34 59.57 59.498 59.53 59.625 59.757 59.893 60.06 60.208 60.36 60.537 60.74 61.003 61.48 61.57 61.715 61.845 62.097 62.377 62.67 62.972 63.243 63.552 63.87 64.213 64.533 64.855 65.195 65.52 65.875 66.132 66.36 66.592 66.802 67.012 67.217 67.432 67.675 67.875 68.097 68.327 68.573 68.8 69.015 69.235 69.458 69.692 69.895 70.083 70.25 70.395 70.582 70.732 70.9 71.07 71.223 71.418 71.607 71.815 71.978 72.165 72.315 72.482 72.66 72.818 72.942 73.072 73.662 74.402 74.385 74.283 74.293 74.34 74.42 74.535 74.655 74.765 74.882 75.015 75.125 75.24 75.357 75.467 75.588 75.688 75.792 75.908 75.988 76.107 76.192 76.277 76.315 76.363 76.408 76.49 76.548 76.585 76.662 76.738 76.805 76.835 76.85 77.042 77.552 77.417 77.438 77.45 77.48 77.52 77.62 77.698 77.81 77.905 78.012 78.128 78.232 78.335 78.44 78.537 78.64 78.732 78.817 78.9 78.97 79.037 79.107 79.135 79.177 79.217 79.253 79.277 79.32 79.345 79.36 79.348 79.363 79.397 79.423 79.44 79.46 79.49 79.51 79.518 79.555 79.548 79.528 79.518 79.495 79.463 79.387 79.277 79.173 79.035 78.868 78.7 78.548 78.378 78.228 78.035 77.838 77.643 77.4 77.155 76.887 76.598 76.323 76.035 75.72 75.382 75.027 74.675 74.63 75.548 75.705 75.302 74.855 74.33 72.515 72.147 72.182 70.982 71.238 70.308 70.04 69.835 69.625 69.448 69.33 69.082 68.835 68.72 68.622 69.053 68.887 69.235 69.08 69.3 69.915 69.283 69.72 69.985 70.155 69.993 70.168 70.31 70.475 70.63 70.762 70.925 71.107 71.253 71.425 71.603 71.757 71.917 72.105 72.275 72.43 72.632 72.807 73.018 73.217 73.413 73.577 73.808 74.052 74.31 74.56 74.83 75.125 75.452 75.757 76.085 76.42 76.743 77.09 77.415 77.772 78.12 78.46 78.79 79.097 79.455 79.772 80.088 80.385 80.675 80.96 81.232 81.495 81.76 82.018 82.298 82.545 82.787 82.993 83.195 83.35 83.533 83.695 83.817 83.965 84.073 84.217 84.353 84.485 84.635 84.753 84.865 84.96 85.077 85.177 85.268 85.357 85.452 85.507 85.562 85.61 85.635 85.667 85.667 85.685 85.7 85.71 85.732 85.747 85.78 85.835 85.875 85.91 85.902 86.41 86.417 86.19 86.277 86.368 86.442 86.527 86.618 86.693 86.775 86.805 86.857 86.905 86.97 87.035 87.11 87.19 87.235 87.3 87.317 87.305 87.298 87.3 87.325 87.38
64.025 64.815 66.21 65 66.265 66.357 66.025 65.405 65.618 64.825 64.757 64.81 64.537 64.82 65.275 65.188 67.202 66.9 65.053 65.71 65.605 66.762 65.02 64.335 64.3 64.255 64.26 64.265 64.228 64.235 64.56 64.628 64.428 64.4 63.887 63.778 63.02 63.757 63.495 62.6 62.765 62.795 62.2 62.202 62.247 62.225 61.545 61.31 61.272 61.125 60.787 60.592 60.99 60.362 60.68 60.803 62.518 61.555 60.733 59.48 60.2 59.253 59.208 59.193 60.135 59.482 59.482 59.158 58.69 59.585 58.737 58.235 57.728 57.722 56.452 56.247 56.405 56.315 56.335 56.388 56.445 56.655 56.688 56.757 56.915 58.467 57.388 56.487 56.635 57.21 57.505 57.35 57.67 57.728 57.785 57.673 57.985 58.085 58.022 57.84 57.938 57.985 58.463 58.46 58.062 58.268 58.022 58.06 58.353 58.503 58.675 58.595 58.683 58.785 58.835 58.89 58.915 58.99 59.105 59.237 59.368 59.503 59.645 59.792 60.028 60.248 60.618 61.195 60.627 61.03 61.278 61.583 61.658 61.75 61.998 62.272 62.57 62.878 63.195 63.518 63.837 64.19 64.537 64.87 65.202 65.49 65.732 65.967 66.175 66.372 66.59 66.795 67.033 67.265 67.49 67.72 67.952 68.188 68.408 68.632 68.842 69.052 69.247 69.45 69.607 69.785 69.952 70.1 70.28 70.475 70.637 70.818 70.993 71.215 71.382 71.55 71.745 71.908 72.06 72.23 72.348 72.495 72.908 75.06 73.595 73.73 73.768 73.812 73.895 74.018 74.107 74.23 74.355 74.475 74.577 74.68 74.795 74.915 75.025 75.147 75.25 75.34 75.463 75.55 75.645 75.71 75.802 75.845 75.897 75.978 76.025 76.088 76.13 76.188 76.257 76.357 76.38 76.46 76.745 76.84 76.932 76.938 76.97 77.025 77.075 77.16 77.265 77.375 77.478 77.58 77.717 77.827 77.935 78.035 78.147 78.245 78.317 78.405 78.512 78.603 78.655 78.683 78.745 78.775 78.815 78.853 78.875 78.882 78.9 78.92 78.925 78.935 78.98 78.978 78.99 79.005 79.033 79.043 79.055 79.04 79.015 78.975 78.942 78.9 78.802 78.637 78.505 78.382 78.23 78.073 77.94 77.762 77.545 77.357 77.145 76.895 76.66 76.41 76.143 75.872 75.605 75.292 74.99 74.692 74.345 73.993 73.62 74.632 75.315 74.322 74.607 74.232 73.08 71.842 72.432 71.853 71.26 70.685 70.08 69.598 69.827 69.41 68.973 68.777 68.618 68.473 68.637 68.787 69.075 70.88 69.312 69.105 70.025 69.497 69.482 69.658 69.923 70.152 70.29 70.433 70.603 70.783 70.942 71.107 71.298 71.452 71.605 71.768 71.935 72.115 72.31 72.495 72.628 72.827 72.975 73.152 73.37 73.592 73.793 74.027 74.243 74.52 74.79 75.02 75.333 75.665 76 76.342 76.67 77.012 77.39 77.723 78.048 78.395 78.743 79.095 79.427 79.728 80.042 80.357 80.667 80.96 81.253 81.503 81.77 82.015 82.285 82.53 82.768 82.993 83.21 83.4 83.587 83.762 83.887 84.007 84.147 84.268 84.385 84.535 84.677 84.81 84.938 85.048 85.158 85.265 85.345 85.427 85.51 85.583 85.635 85.685 85.717 85.74 85.775 85.78 85.823 85.863 85.875 85.895 85.912 85.948 85.995 86.07 86.097 86.12 86.683 86.833 86.38 86.482 86.575 86.653 86.732 86.827 86.897 86.98 87.02 87.07 87.113 87.177 87.262 87.322 87.402 87.46 87.522 87.558 87.558 87.542 87.548 87.562 87.615
63.19 64.46 66.105 65.257 66.265 65.435 63.925 63.748 64.225 63.728 63.72 63.988 63.785 64.493 64.003 64.757 65.598 65.405 63.96 64.325 63.577 63.53 64.137 63.607 63.472 63.6 63.507 63.522 63.458 63.385 63.272 63.415 63.055 63.145 63.233 62.62 62.278 62.36 61.865 61.84 61.75 62.25 62.245 61.643 60.885 60.673 60.81 60.548 60.338 60.013 59.917 59.67 59.67 59.385 59.368 59.938 59.698 60.362 58.912 58.73 58.618 58.52 58.518 58.335 58.385 58.22 57.807 57.478 57.603 58.213 58.055 57.557 57.155 56.245 56.24 56.05 56.34 56.21 56.333 56.537 56.76 57.583 57.138 57.013 57.425 62.443 56.638 56.353 57.55 56.987 58.47 56.458 57.092 57.295 57.943 57.677 60.35 59.49 57.8 57.823 57.897 57.7 61.428 59.923 59.245 59.998 58.035 57.972 58.215 58.478 59.15 58.55 58.79 58.995 58.95 61.853 59.055 60.028 62.173 64.033 59.285 59.208 59.355 59.635 59.798 60.295 60.485 60.76 60.552 61.037 61.562 61.215 61.153 61.673 61.68 62.057 61.995 62.233 62.515 62.833 63.175 63.507 63.882 64.23 64.565 64.857 65.12 65.345 65.565 65.768 65.982 66.202 66.423 66.655 66.902 67.115 67.353 67.567 67.798 68.015 68.235 68.45 68.643 68.84 69.018 69.2 69.365 69.518 69.68 69.868 70.04 70.223 70.408 70.598 70.787 70.955 71.165 71.327 71.49 71.658 71.81 71.94 72.173 73.4 73.75 73.143 73.257 73.27 73.34 73.438 73.575 73.695 73.805 73.925 74.03 74.143 74.255 74.37 74.482 74.583 74.688 74.793 74.905 74.99 75.09 75.175 75.245 75.3 75.375 75.46 75.53 75.613 75.662 75.723 75.765 75.783 75.8 75.89 76.348 76.33 76.425 76.435 76.482 76.515 76.583 76.68 76.783 76.887 77.01 77.105 77.21 77.33 77.443 77.56 77.702 77.805 77.92 78.003 78.075 78.17 78.205 78.245 78.27 78.312 78.348 78.37 78.395 78.42 78.428 78.438 78.448 78.447 78.443 78.46 78.503 78.52 78.515 78.507 78.505 78.488 78.46 78.427 78.357 78.287 78.188 78.055 77.93 77.75 77.565 77.402 77.217 77.042 76.842 76.645 76.423 76.192 75.948 75.683 75.435 75.165 74.875 74.597 74.283 73.985 73.658 73.31 72.975 72.94 72.785 72.57 73.692 73.938 73.762 73.5 71.622 71.45 70.605 70.257 70.217 70.05 69.36 68.715 68.395 68.845 70.197 69.59 69.057 69.567 69.505 69.062 69.005 69.77 69.705 69.527 69.7 69.9 70.08 70.25 70.448 70.597 70.76 70.96 71.122 71.285 71.467 71.635 71.805 71.942 72.11 72.272 72.457 72.647 72.827 72.98 73.115 73.33 73.57 73.765 73.973 74.21 74.435 74.728 75.005 75.298 75.55 75.842 76.223 76.577 76.945 77.287 77.65 77.985 78.327 78.677 79.03 79.393 79.692 80.005 80.327 80.647 80.952 81.238 81.51 81.765 82.018 82.27 82.512 82.747 82.967 83.188 83.405 83.585 83.755 83.908 84.027 84.177 84.32 84.448 84.552 84.717 84.822 84.96 85.09 85.202 85.33 85.412 85.485 85.545 85.615 85.68 85.745 85.795 85.835 85.872 85.893 85.915 85.935 85.965 85.988 86.005 86.033 86.075 86.135 86.198 86.25 86.265 86.995 88.387 86.643 86.65 86.753 86.823 86.905 87.018 87.067 87.162 87.208 87.25 87.3 87.378 87.438 87.512 87.592 87.66 87.732 87.775 87.777 87.755 87.755 87.79 87.853
62.355 62.925 64.455 63.805 64.753 64.205 63.26 63.105 62.89 63.653 63.493 63.87 63.635 63.19 63.195 64.705 64.787 64.99 64.253 63.44 64.393 63.278 62.945 62.943 63 62.825 62.745 62.74 62.653 62.56 62.432 62.243 62.142 61.905 61.618 61.755 61.483 61.243 61.067 60.915 60.74 60.747 60.535 60.34 60.147 60.04 60.235 60.185 60.167 59.965 60.362 59.265 59.143 58.737 58.607 58.48 58.347 58.325 58.197 58.073 57.93 57.798 57.645 58.283 59.097 57.485 57.097 56.963 57.583 57.188 57.108 56.312 55.875 55.838 55.905 56.103 57.605 57.858 56.518 56.408 56.417 57.18 56.202 56.412 56.325 56.722 57.127 56.967 57.085 57.055 57.022 57.075 58.228 58.717 58.162 57.198 57.515 59.815 58.67 57.463 57.435 57.177 59.165 57.805 62.458 58.055 58.493 57.98 57.665 58.215 63.505 64.665 61.717 58.435 59.64 58.503 59.485 63.033 65.043 65.457 62.63 58.965 59.263 59.385 59.485 60.02 60.105 59.68 59.735 59.923 61.188 61.16 61.84 61.332 61.17 61.85 62.11 61.88 61.925 62.213 62.54 62.905 63.252 63.592 63.94 64.24 64.53 64.775 64.973 65.173 65.382 65.605 65.825 66.052 66.298 66.53 66.747 66.98 67.195 67.41 67.632 67.855 68.04 68.22 68.405 68.6 68.765 68.917 69.085 69.268 69.435 69.618 69.835 70.022 70.177 70.372 70.582 70.755 70.917 71.073 71.247 71.37 71.5 72.465 73.917 72.908 72.747 72.735 72.792 72.893 73 73.107 73.26 73.375 73.512 73.6 73.702 73.81 73.923 74.05 74.162 74.26 74.347 74.445 74.545 74.63 74.728 74.79 74.868 74.938 75.033 75.11 75.17 75.235 75.292 75.35 75.363 75.315 75.44 75.69 75.932 75.982 75.995 76.033 76.115 76.217 76.31 76.418 76.535 76.64 76.747 76.863 76.963 77.068 77.195 77.308 77.4 77.493 77.577 77.65 77.728 77.78 77.845 77.942 77.885 77.945 77.982 77.993 77.993 77.99 77.973 77.993 77.988 77.995 77.98 77.995 77.995 78 77.978 77.955 77.925 77.85 77.76 77.673 77.507 77.368 77.217 77.06 76.895 76.71 76.512 76.325 76.12 75.92 75.688 75.45 75.222 74.96 74.713 74.463 74.185 73.893 73.62 73.295 72.985 72.665 72.338 72.033 71.732 71.685 72.368 72.365 71.423 71.632 71.265 70.785 69.495 69.695 70.3 70.39 69.71 70.2 68.47 69.168 71.235 70.412 69.29 69.975 68.853 69.84 69.807 70.17 69.588 69.675 69.857 70.033 70.22 70.397 70.592 70.775 70.947 71.143 71.315 71.48 71.647 71.817 71.98 72.135 72.277 72.432 72.605 72.77 72.935 73.132 73.29 73.512 73.712 73.94 74.165 74.425 74.665 74.942 75.22 75.588 75.855 76.14 76.425 76.832 77.188 77.555 77.92 78.262 78.592 78.958 79.315 79.635 79.97 80.292 80.592 80.905 81.21 81.497 81.755 82.007 82.255 82.485 82.725 82.94 83.158 83.375 83.577 83.74 83.905 84.045 84.195 84.335 84.467 84.59 84.698 84.855 84.975 85.13 85.223 85.323 85.417 85.505 85.585 85.66 85.743 85.802 85.865 85.908 85.963 85.995 85.993 86.03 86.048 86.08 86.113 86.125 86.137 86.21 86.257 86.305 86.378 86.408 87.408 88.545 87.173 86.798 86.895 86.978 87.065 87.16 87.25 87.32 87.382 87.43 87.47 87.542 87.62 87.69 87.78 87.87 87.935 87.975 87.975 87.965 87.98 88 88.067
61.625 61.833 62.935 62.95 63.763 63.885 62.062 62.377 62.162 62.493 63.55 63.717 63.717 64.033 63.76 63.545 63.975 64.177 62.808 63.123 63.022 63.278 61.967 62.025 61.928 61.998 61.972 61.948 61.858 61.805 61.605 61.443 61.222 60.995 60.985 60.805 60.54 60.425 60.243 60.09 59.978 59.838 59.737 59.533 59.405 59.263 59.202 59.435 59.68 59.825 59.232 58.673 58.37 58.34 58.175 58.028 57.785 57.637 57.567 57.4 57.285 57.41 57.537 57.428 56.958 56.8 56.557 56.577 56.665 56.335 56.042 55.792 55.845 56.158 56.792 57.045 56.938 57.178 57.097 56.165 56.307 56.533 56.548 56.93 57.15 56.95 57.062 57.088 57.16 57.247 57.362 57.312 57.497 57.548 57.58 57.77 57.783 57.967 58.03 57.868 58.143 57.882 58.178 58.232 59.23 58.283 58.26 59.092 58.307 59.085 59.45 60.44 59.005 61.092 62.815 60.202 61.535 64.87 63.653 65.065 65.262 61.45 60.012 60.068 61.295 61.3 60.56 59.412 59.52 59.647 59.875 60.705 60.885 60.408 60.445 60.592 61.045 61.29 61.525 61.912 62.4 62.37 62.678 63.01 63.345 63.643 63.96 64.173 64.4 64.603 64.795 65.015 65.235 65.475 65.725 65.952 66.175 66.397 66.607 66.838 67.04 67.245 67.435 67.62 67.808 68.003 68.148 68.327 68.522 68.677 68.872 69.022 69.232 69.41 69.61 69.798 69.995 70.152 70.32 70.48 70.655 70.775 71.018 71.247 72.552 72.52 72.19 72.188 72.235 72.327 72.43 72.57 72.697 72.81 72.915 73.028 73.15 73.272 73.393 73.505 73.615 73.73 73.81 73.92 74.025 74.1 74.19 74.255 74.338 74.423 74.5 74.573 74.637 74.725 74.82 74.897 75 75.068 75.26 75.228 75.382 75.467 75.507 75.58 75.665 75.763 75.85 75.955 76.052 76.155 76.253 76.37 76.488 76.59 76.717 76.85 76.927 77.03 77.1 77.19 77.24 77.268 77.34 77.385 77.42 77.435 77.458 77.465 77.475 77.452 77.438 77.445 77.44 77.427 77.438 77.432 77.408 77.382 77.355 77.295 77.257 77.19 77.125 76.965 76.837 76.688 76.535 76.345 76.177 75.975 75.792 75.592 75.395 75.188 74.973 74.738 74.522 74.235 73.985 73.73 73.47 73.18 72.912 72.632 72.345 72.062 71.745 71.458 71.177 71.007 71.533 71.965 72.387 72.232 71.493 71.35 70.317 69.952 69.717 69.57 69.3 71.198 69.075 69.19 69.003 68.812 68.738 69.43 70.14 69.52 69.66 69.46 69.63 69.803 69.98 70.17 70.372 70.55 70.753 70.972 71.147 71.33 71.5 71.65 71.808 71.99 72.165 72.307 72.442 72.588 72.743 72.9 73.062 73.243 73.45 73.667 73.882 74.122 74.365 74.605 74.89 75.185 75.497 75.87 76.173 76.48 76.803 77.107 77.455 77.812 78.18 78.527 78.882 79.243 79.562 79.9 80.228 80.558 80.868 81.173 81.455 81.72 81.978 82.238 82.467 82.688 82.887 83.118 83.327 83.518 83.715 83.87 84.04 84.185 84.315 84.452 84.61 84.738 84.84 84.97 85.1 85.21 85.31 85.425 85.54 85.615 85.707 85.798 85.863 85.93 85.957 86.007 86.05 86.073 86.085 86.122 86.173 86.2 86.213 86.217 86.247 86.307 86.368 86.443 86.512 86.527 87.8 88.283 87.07 86.938 87.025 87.115 87.225 87.322 87.405 87.495 87.53 87.588 87.637 87.702 87.762 87.853 87.942 88.033 88.11 88.155 88.158 88.158 88.16 88.192 88.245
60.87 61.395 62.815 62.432 62.573 63.34 62.07 61.835 61.78 61.967 62.14 63.11 63.237 63.248 62.882 63.092 62.198 63.305 61.99 61.862 62.485 62.345 61.853 61.182 61.175 61.177 61.132 61.112 61.03 60.938 60.81 60.61 60.48 60.303 60.085 59.86 59.762 59.635 59.467 59.395 59.237 59.1 58.985 58.875 58.743 58.61 58.455 58.365 59.083 58.985 58.605 58.465 58.075 57.817 57.912 57.638 57.427 57.208 57.232 57.035 56.62 56.805 57.28 57.443 56.728 56.138 55.895 55.732 55.603 55.66 55.722 56.103 56.73 56.158 56.013 56.21 56.107 56.175 56.732 56.95 57.103 56.91 56.812 56.9 57.002 57.062 57.085 57.135 57.202 57.263 57.312 57.378 57.42 57.522 57.588 57.68 57.778 57.835 57.91 57.927 57.967 58.033 58.088 58.147 58.22 58.298 58.355 58.833 58.972 59.287 59.74 59.537 59.55 59.533 58.357 58.99 61.14 62.393 62.593 62.452 65.135 63.655 63.267 59.193 59.753 59.287 59.02 59.255 60.278 63.11 60.085 60.925 60.885 59.965 60.873 64.195 61.097 60.653 60.93 61.208 61.732 62.24 62.442 62.542 62.785 63.067 63.353 63.6 63.802 64.015 64.245 64.455 64.69 64.915 65.15 65.382 65.613 65.832 66.033 66.253 66.475 66.67 66.857 67.042 67.22 67.397 67.565 67.73 67.917 68.088 68.265 68.45 68.65 68.838 69.027 69.205 69.382 69.562 69.738 69.897 70.052 70.223 70.452 70.732 72.75 73.077 71.607 71.632 71.677 71.78 71.88 72 72.12 72.247 72.365 72.482 72.603 72.72 72.838 72.945 73.045 73.155 73.257 73.372 73.465 73.57 73.653 73.725 73.793 73.9 73.972 74.055 74.113 74.192 74.285 74.395 74.458 74.518 74.978 75.06 74.99 75.015 75.035 75.12 75.192 75.277 75.385 75.482 75.585 75.695 75.802 75.925 76.025 76.137 76.287 76.38 76.47 76.55 76.628 76.705 76.765 76.812 76.842 76.882 76.897 76.923 76.95 76.95 76.95 76.927 76.905 76.902 76.885 76.87 76.845 76.825 76.815 76.757 76.708 76.653 76.59 76.478 76.375 76.25 76.107 75.96 75.798 75.637 75.455 75.26 75.072 74.88 74.658 74.45 74.243 74 73.768 73.515 73.27 73.035 72.765 72.515 72.25 71.995 71.71 71.44 71.18 70.905 70.66 70.445 70.455 71.25 71.355 70.438 71.045 69.91 69.673 69.798 68.52 69.488 68.542 69.048 68.96 69.232 68.54 69.272 68.875 69.262 69.277 69.213 69.378 69.55 69.728 69.918 70.122 70.302 70.522 70.735 70.93 71.145 71.325 71.512 71.695 71.842 71.988 72.167 72.31 72.475 72.618 72.75 72.893 73.048 73.202 73.368 73.577 73.81 74.037 74.29 74.557 74.812 75.11 75.44 75.777 76.143 76.488 76.827 77.122 77.425 77.705 78.042 78.418 78.772 79.15 79.48 79.823 80.17 80.49 80.81 81.115 81.397 81.67 81.925 82.182 82.42 82.637 82.855 83.062 83.272 83.47 83.65 83.835 84.007 84.173 84.31 84.445 84.59 84.735 84.85 84.938 85.052 85.197 85.31 85.44 85.545 85.652 85.732 85.81 85.893 85.96 86.005 86.05 86.095 86.132 86.183 86.188 86.232 86.26 86.285 86.307 86.353 86.353 86.42 86.478 86.548 86.613 86.655 87.768 87.893 87.327 87.068 87.152 87.245 87.345 87.455 87.54 87.62 87.683 87.74 87.785 87.863 87.918 87.997 88.1 88.188 88.287 88.32 88.335 88.335 88.348 88.38 88.425
60.178 60.295 62.022 62.963 63.275 62.795 61.548 61.132 61.147 61.815 61.975 61.515 61.713 61.82 61.705 62.045 61.04 61.903 62.263 62.345 62.635 62.217 61.222 60.795 60.805 60.6 60.385 60.285 60.237 60.115 60.033 59.857 59.675 59.478 59.34 59.185 59.052 58.912 58.76 58.653 58.54 58.485 58.373 58.2 58.107 57.993 57.853 57.818 57.615 57.545 57.605 58.2 57.583 57.145 57.007 57.18 56.647 56.952 56.99 56.265 55.893 56.393 55.755 56.287 55.81 55.612 55.525 55.498 55.84 56 56.23 57.737 56.95 55.552 56.627 56.827 56.368 56.565 56.792 56.792 56.9 57.022 57.088 57.21 57.27 57.29 57.345 57.372 57.41 57.458 57.507 57.573 57.632 57.693 57.757 57.838 57.917 57.995 58.03 58.077 58.135 58.188 58.208 58.25 58.307 58.345 58.41 58.482 58.595 58.715 58.752 58.865 59.143 59.522 59.075 59.963 60.253 60.408 60.49 59.697 60.285 60.643 58.735 59.873 59.847 59.67 58.897 59.61 62.013 63.432 60.005 60.142 60.16 60.248 60.84 60.188 60.062 60.285 60.53 60.775 61.095 61.792 62.018 62.237 62.635 62.91 62.868 63.04 63.255 63.475 63.695 63.93 64.132 64.36 64.575 64.825 65.043 65.268 65.475 65.682 65.895 66.113 66.292 66.47 66.655 66.825 66.997 67.152 67.305 67.503 67.692 67.878 68.037 68.23 68.418 68.597 68.827 68.995 69.152 69.325 69.475 69.622 69.762 69.945 70.792 72.7 71.618 71.062 71.107 71.205 71.335 71.44 71.585 71.702 71.812 71.923 72.043 72.158 72.285 72.382 72.51 72.62 72.72 72.825 72.935 73.02 73.113 73.195 73.255 73.34 73.432 73.53 73.595 73.66 73.757 73.85 73.935 73.963 74.33 74.652 74.575 74.645 74.64 74.693 74.772 74.83 74.938 75.04 75.132 75.232 75.327 75.447 75.558 75.677 75.805 75.895 75.98 76.067 76.152 76.217 76.27 76.305 76.335 76.378 76.382 76.405 76.405 76.39 76.393 76.39 76.382 76.353 76.31 76.285 76.26 76.215 76.165 76.13 76.045 75.952 75.865 75.743 75.62 75.467 75.34 75.217 75.05 74.882 74.705 74.512 74.323 74.132 73.938 73.72 73.512 73.287 73.075 72.815 72.573 72.345 72.113 71.872 71.622 71.382 71.137 70.91 70.688 70.428 70.2 70.01 69.855 70.308 70.805 71 69.743 69.927 69.372 68.917 68.77 68.312 68.777 69 68.525 69.173 68.927 68.72 68.78 68.98 69.13 69.305 69.463 69.637 69.842 70.045 70.268 70.47 70.688 70.908 71.103 71.318 71.51 71.7 71.87 72.035 72.173 72.312 72.478 72.63 72.78 72.92 73.048 73.198 73.37 73.55 73.738 73.95 74.178 74.438 74.73 75.035 75.353 75.695 76.05 76.44 76.812 77.135 77.445 77.762 78.098 78.425 78.698 79.003 79.382 79.755 80.09 80.41 80.713 81.025 81.312 81.598 81.855 82.107 82.355 82.575 82.808 83.003 83.19 83.408 83.588 83.783 83.94 84.12 84.257 84.39 84.533 84.675 84.81 84.927 85.037 85.167 85.3 85.423 85.548 85.647 85.743 85.827 85.925 85.988 86.04 86.09 86.122 86.178 86.225 86.268 86.29 86.317 86.348 86.38 86.387 86.42 86.452 86.512 86.577 86.677 86.725 86.745 87.84 87.885 87.122 87.183 87.292 87.372 87.485 87.592 87.677 87.762 87.827 87.887 87.94 88.005 88.065 88.143 88.255 88.347 88.45 88.478 88.485 88.497 88.507 88.565 88.592
59.48 59.58 60.95 62.4 61.955 62.34 61.522 60.728 60.72 60.983 61.12 61.318 60.8 60.778 60.485 60.222 60.905 62.188 62.81 61.855 62 60.812 59.853 59.717 59.855 59.653 59.618 59.533 59.452 59.357 59.325 59.257 58.947 58.82 58.708 58.682 58.49 58.265 58.107 58.015 57.93 57.91 57.725 57.597 57.592 57.415 57.287 57.188 57.105 57.015 57.02 57.077 56.975 56.91 57.097 56.963 56.3 56.323 55.975 55.405 55.292 55.222 55.305 55.382 55.36 55.37 55.51 56.49 56.46 56.015 55.568 55.653 55.943 56.575 56.4 56.447 56.528 56.643 56.823 57.055 57.268 57.458 57.607 57.702 57.755 57.753 57.748 57.755 57.76 57.778 57.825 57.868 57.925 57.982 58.028 58.095 58.165 58.217 58.263 58.31 58.335 58.362 58.385 58.445 58.487 58.542 58.605 58.632 58.722 58.795 58.85 58.993 59.162 59.228 59.307 59.47 59.885 60.423 60.4 60.323 60.072 59.845 59.257 59.912 60.062 60.635 60.835 60.385 62.59 61.938 59.833 59.425 59.62 60.103 60.725 62.67 62.283 61.118 61.662 60.493 60.743 61.03 61.278 61.65 62.068 62.065 62.4 62.912 63.105 63.217 63.202 63.4 63.618 63.842 64.058 64.298 64.515 64.735 64.938 65.147 65.338 65.552 65.757 65.923 66.098 66.262 66.425 66.592 66.747 66.912 67.083 67.27 67.447 67.64 67.822 68.025 68.215 68.397 68.58 68.753 68.935 69.062 69.17 69.295 70.72 72.3 71.345 70.535 70.53 70.643 70.74 70.87 70.988 71.107 71.232 71.353 71.465 71.588 71.702 71.827 71.94 72.052 72.165 72.283 72.38 72.482 72.58 72.658 72.728 72.805 72.923 72.997 73.085 73.152 73.247 73.34 73.435 73.47 73.662 74.24 74.113 74.192 74.213 74.27 74.37 74.442 74.518 74.605 74.695 74.785 74.88 75 75.11 75.217 75.338 75.442 75.525 75.59 75.652 75.715 75.765 75.787 75.81 75.835 75.842 75.848 75.827 75.838 75.842 75.808 75.805 75.75 75.728 75.683 75.618 75.59 75.54 75.463 75.345 75.27 75.162 75.025 74.908 74.768 74.622 74.463 74.31 74.14 73.955 73.76 73.58 73.417 73.24 73.02 72.798 72.607 72.363 72.155 71.928 71.702 71.49 71.283 71.045 70.827 70.613 70.417 70.215 69.99 69.81 69.643 69.488 69.427 70.035 69.64 69.607 70.105 69.49 68.912 68.177 68.507 68.905 68.647 68.677 68.928 68.583 68.723 68.927 69.068 69.22 69.382 69.555 69.74 69.985 70.21 70.44 70.645 70.845 71.088 71.307 71.493 71.692 71.878 72.055 72.228 72.372 72.485 72.645 72.798 72.923 73.07 73.22 73.38 73.545 73.732 73.938 74.122 74.36 74.615 74.915 75.255 75.615 75.948 76.295 76.71 77.105 77.467 77.78 78.098 78.48 78.785 79.09 79.348 79.61 79.978 80.333 80.65 80.935 81.223 81.495 81.762 82.042 82.27 82.485 82.735 82.945 83.128 83.312 83.493 83.685 83.86 84.042 84.213 84.338 84.465 84.603 84.753 84.912 85.037 85.16 85.295 85.41 85.53 85.637 85.735 85.848 85.925 85.993 86.048 86.13 86.18 86.213 86.255 86.302 86.342 86.375 86.397 86.442 86.48 86.507 86.525 86.552 86.625 86.698 86.78 86.842 86.853 87.853 88.535 87.292 87.305 87.415 87.503 87.592 87.717 87.815 87.895 87.97 88.028 88.073 88.132 88.205 88.312 88.395 88.48 88.585 88.628 88.635 88.66 88.667 88.7 88.743
58.775 58.885 60.46 60.653 60.737 60.7 60.423 60.622 59.507 60.375 59.888 59.838 60.285 59.66 59.917 59.103 59.595 60.833 59.972 61.04 60.515 59.425 59.28 58.963 59.005 58.875 58.818 58.763 58.775 58.612 58.52 58.435 58.232 58.143 58.25 58.43 58.278 58.088 57.695 57.382 57.303 57.225 57.138 57.055 56.978 56.893 56.833 56.697 56.6 56.552 56.423 56.397 56.28 56.205 56.007 56.175 55.542 55.29 55.463 56.97 55.143 55.375 55.335 55.408 55.713 55.838 57.222 59.71 59.03 56.525 55.785 56.263 56.485 56.57 56.457 56.56 56.692 56.91 57.24 57.518 57.732 57.888 57.997 58.083 58.122 58.107 58.103 58.09 58.087 58.107 58.15 58.195 58.245 58.275 58.33 58.382 58.44 58.48 58.518 58.558 58.58 58.597 58.635 58.675 58.728 58.778 58.815 58.888 58.958 59.04 59.112 59.24 59.41 59.487 59.64 59.72 59.74 59.785 59.905 59.917 60.057 60.178 60.298 60.58 61.02 60.35 60.88 60.567 60.943 60.31 59.783 60.522 60.58 60.287 59.537 60.202 61.51 61.925 60.615 60.178 60.368 60.643 60.85 61.222 61.713 61.967 61.86 62.1 62.365 62.755 63.15 63.27 63.178 63.345 63.565 63.803 64.02 64.223 64.423 64.64 64.818 65.033 65.213 65.397 65.548 65.72 65.868 66.05 66.188 66.342 66.53 66.708 66.905 67.088 67.268 67.438 67.622 67.802 68.01 68.158 68.32 68.48 68.595 68.81 70.42 71.155 70.433 69.942 69.985 70.083 70.188 70.315 70.452 70.553 70.682 70.783 70.905 71.003 71.128 71.257 71.38 71.488 71.607 71.728 71.832 71.923 72.033 72.128 72.2 72.287 72.395 72.507 72.613 72.682 72.763 72.85 72.94 73.01 73.122 73.75 73.64 73.765 73.798 73.872 73.96 74.022 74.105 74.195 74.3 74.382 74.478 74.573 74.667 74.755 74.857 74.965 75.028 75.09 75.162 75.22 75.253 75.283 75.302 75.318 75.308 75.287 75.28 75.243 75.223 75.215 75.208 75.155 75.092 75.042 74.97 74.923 74.855 74.777 74.685 74.565 74.452 74.323 74.18 74.05 73.893 73.732 73.555 73.408 73.215 73.058 72.878 72.7 72.52 72.325 72.143 71.938 71.73 71.518 71.31 71.103 70.912 70.715 70.512 70.34 70.158 69.973 69.783 69.62 69.467 69.317 69.19 69.073 69.507 69.598 69.105 69.29 68.878 70.79 69.25 69.022 69.092 69.065 68.94 68.52 68.67 68.85 68.993 69.138 69.285 69.478 69.682 69.887 70.12 70.363 70.603 70.835 71.045 71.268 71.478 71.67 71.872 72.05 72.23 72.382 72.533 72.658 72.795 72.947 73.1 73.23 73.395 73.562 73.747 73.94 74.13 74.325 74.568 74.85 75.152 75.482 75.857 76.21 76.607 77.025 77.465 77.805 78.132 78.465 78.81 79.132 79.423 79.698 79.917 80.198 80.53 80.835 81.11 81.37 81.647 81.923 82.188 82.395 82.61 82.83 83.035 83.213 83.405 83.6 83.775 83.94 84.103 84.255 84.397 84.545 84.697 84.853 85.003 85.137 85.24 85.365 85.49 85.613 85.717 85.795 85.893 85.993 86.052 86.118 86.177 86.235 86.27 86.325 86.375 86.445 86.472 86.51 86.548 86.585 86.603 86.645 86.69 86.753 86.805 86.882 86.95 86.99 87.948 88.075 87.4 87.452 87.537 87.63 87.723 87.845 87.952 88.04 88.115 88.165 88.202 88.283 88.365 88.418 88.525 88.65 88.745 88.785 88.79 88.82 88.822 88.857 88.902
58.077 58.305 59.59 60.35 60.645 60.062 59.752 59.385 59.68 59.522 58.765 59.12 59.46 59.375 59.4 59.085 58.597 61.653 58.65 59.435 58.713 59.155 58.93 58.772 59.077 58.823 58.26 58.378 58.853 58.435 57.95 57.725 57.588 57.745 58.058 58.16 58.475 57.842 57.35 56.97 56.732 56.725 56.6 56.518 56.45 56.403 56.292 56.25 56.135 55.98 55.892 55.753 55.717 55.475 55.085 55.333 57.522 55.095 56.052 57.09 55.638 55.66 55.825 55.833 55.975 57.583 55.897 56.088 56.757 56.053 56.298 56.38 56.315 56.435 56.542 56.725 57.007 57.347 57.645 57.865 58.04 58.2 58.32 58.368 58.423 58.425 58.408 58.397 58.405 58.42 58.463 58.513 58.583 58.63 58.678 58.728 58.787 58.838 58.88 58.91 58.948 58.982 58.998 59.028 59.067 59.107 59.132 59.18 59.248 59.355 59.443 59.548 59.698 59.765 59.925 60.01 60.068 60.1 60.11 60.097 60.058 60.037 60.04 60 59.955 59.948 60.053 60.012 60.103 60.213 60.573 60.588 60.26 60.46 59.622 61.455 61.025 61.518 60.188 60.042 60.057 62.588 65.098 62.222 61.11 61.397 61.615 61.667 61.857 62.08 62.323 62.7 63.13 63.505 63.21 63.35 63.528 63.74 63.95 64.16 64.327 64.515 64.7 64.878 65.05 65.188 65.338 65.49 65.637 65.808 65.982 66.15 66.308 66.515 66.698 66.86 67.042 67.23 67.415 67.572 67.75 67.9 68.027 68.15 68.925 68.975 69.787 69.323 69.42 69.493 69.622 69.77 69.905 70.003 70.12 70.253 70.342 70.482 70.598 70.702 70.83 70.963 71.073 71.195 71.3 71.385 71.497 71.575 71.677 71.78 71.88 71.963 72.072 72.173 72.257 72.368 72.447 72.537 72.662 73.37 73.38 74.27 73.38 73.432 73.515 73.6 73.698 73.792 73.86 73.958 74.06 74.145 74.215 74.285 74.36 74.452 74.54 74.603 74.645 74.695 74.738 74.753 74.74 74.723 74.735 74.717 74.728 74.69 74.637 74.59 74.56 74.515 74.452 74.39 74.33 74.27 74.162 74.062 73.975 73.88 73.743 73.61 73.49 73.333 73.175 73.022 72.863 72.68 72.507 72.368 72.19 72 71.82 71.628 71.45 71.257 71.077 70.902 70.71 70.545 70.37 70.205 70.042 69.882 69.738 69.595 69.425 69.287 69.18 69.073 68.938 68.87 68.818 68.663 68.23 68.012 68.037 68.772 69.07 68.91 68.908 69.005 68.527 68.673 68.832 68.942 69.06 69.215 69.387 69.595 69.82 70.043 70.285 70.522 70.775 71.015 71.228 71.432 71.665 71.872 72.048 72.23 72.395 72.558 72.707 72.845 72.97 73.107 73.247 73.397 73.583 73.743 73.923 74.12 74.348 74.58 74.817 75.098 75.415 75.725 76.098 76.493 76.895 77.312 77.755 78.125 78.47 78.833 79.16 79.497 79.78 80.003 80.232 80.438 80.693 81.052 81.315 81.565 81.785 82.05 82.29 82.49 82.69 82.908 83.103 83.293 83.48 83.667 83.825 84.005 84.17 84.338 84.505 84.643 84.79 84.943 85.088 85.205 85.31 85.412 85.555 85.673 85.795 85.878 85.963 86.048 86.125 86.188 86.245 86.33 86.36 86.42 86.47 86.562 86.548 86.583 86.64 86.673 86.713 86.747 86.795 86.878 86.923 87.012 87.07 87.098 87.857 88.268 87.457 87.572 87.678 87.75 87.848 87.978 88.088 88.183 88.238 88.305 88.368 88.425 88.493 88.57 88.677 88.765 88.893 88.935 88.93 88.947 88.972 89.003 89.05
57.425 57.53 58.27 58.628 59.208 57.585 58.245 58.59 58.772 58.158 57.728 58.173 58.397 58.37 58.57 58.46 58.725 58.285 60.175 61.303 58.873 57.772 57.783 58.215 58.685 58.56 57.927 58.228 58.647 58.12 57.555 57.43 56.995 57.213 57.528 58.167 58.355 57.435 56.895 56.498 56.225 56.17 56.1 56.062 56.003 55.96 55.935 55.805 55.868 56.302 55.673 55.18 54.997 54.963 55.083 56.33 58.005 56.007 55.635 55.693 55.537 55.683 56.285 56.05 55.385 56.353 56.445 55.778 55.958 56.09 56.153 56.305 56.43 56.562 56.755 57.048 57.393 57.665 57.915 58.123 58.298 58.43 58.533 58.612 58.67 58.705 58.735 58.745 58.757 58.79 58.837 58.923 58.997 59.073 59.115 59.165 59.217 59.272 59.323 59.36 59.397 59.417 59.425 59.463 59.47 59.495 59.542 59.585 59.647 59.735 59.805 59.88 59.982 60.068 60.23 60.318 60.347 60.39 60.417 60.423 60.397 60.365 60.347 60.325 60.305 60.325 60.323 60.232 60.2 60.178 60.158 60.143 60.123 60.41 61.052 60.77 59.408 59.553 59.865 62.667 64.53 66.81 63.993 60.588 61.035 61.625 61.485 62.14 61.58 62.495 62.403 62.55 62.445 62.607 63.11 63.21 63.283 63.385 63.535 63.69 63.868 64.04 64.223 64.393 64.537 64.675 64.805 64.963 65.107 65.25 65.412 65.572 65.765 65.938 66.11 66.268 66.45 66.635 66.825 66.988 67.188 67.338 67.473 67.588 68.375 70.018 69.26 68.75 68.855 68.943 69.065 69.188 69.338 69.438 69.562 69.702 69.815 69.927 70.042 70.162 70.295 70.418 70.518 70.645 70.745 70.857 70.965 71.07 71.16 71.253 71.357 71.473 71.577 71.662 71.765 71.875 71.965 72.065 72.152 72.643 72.823 72.935 72.97 72.993 73.07 73.155 73.232 73.345 73.435 73.522 73.605 73.705 73.763 73.83 73.885 73.98 74.012 74.067 74.092 74.137 74.185 74.185 74.175 74.14 74.128 74.132 74.122 74.065 74.022 73.985 73.927 73.857 73.795 73.76 73.65 73.573 73.518 73.408 73.3 73.185 73.067 72.933 72.76 72.645 72.485 72.295 72.122 71.978 71.805 71.645 71.5 71.32 71.155 70.96 70.812 70.66 70.5 70.338 70.19 70.048 69.908 69.772 69.63 69.488 69.372 69.232 69.115 69.033 68.935 68.827 68.728 68.65 68.478 68.2 67.893 69.762 68.402 68.2 68.552 68.755 69.78 68.56 68.655 68.82 68.93 69.025 69.155 69.32 69.505 69.725 69.985 70.215 70.465 70.695 70.935 71.182 71.418 71.618 71.845 72.05 72.235 72.393 72.57 72.725 72.875 73.02 73.137 73.283 73.427 73.585 73.755 73.92 74.118 74.332 74.57 74.82 75.077 75.36 75.673 76.003 76.372 76.757 77.158 77.585 78.042 78.472 78.838 79.178 79.49 79.827 80.11 80.37 80.52 80.725 80.935 81.223 81.548 81.745 81.932 82.143 82.372 82.555 82.753 82.963 83.143 83.327 83.493 83.688 83.882 84.077 84.22 84.38 84.535 84.685 84.84 85.007 85.137 85.272 85.375 85.482 85.615 85.745 85.845 85.952 86.037 86.135 86.195 86.287 86.335 86.393 86.438 86.49 86.555 86.607 86.655 86.69 86.75 86.787 86.832 86.872 86.928 87 87.065 87.14 87.217 87.235 87.655 88.045 87.572 87.71 87.812 87.885 87.985 88.118 88.22 88.315 88.395 88.438 88.49 88.558 88.63 88.708 88.815 88.918 89.018 89.062 89.085 89.098 89.128 89.145 89.2
56.778 56.853 57.79 57.43 57 56.815 56.897 57.465 57.455 57.165 57.147 57.217 57.448 57.575 57.757 57.825 57.817 57.307 58.27 59.372 58.16 57.01 56.995 57.443 57.603 57.575 57.17 57.355 57.678 57.503 57.272 57.068 56.415 56.465 56.698 56.873 56.748 56.378 56.165 55.882 55.76 55.702 55.655 55.597 55.575 55.533 55.403 55.162 55.092 56.018 54.93 55.088 55.3 55.62 55.627 55.23 55.845 54.798 54.88 54.985 55.717 58.085 56.853 55.925 56.467 55.882 55.85 55.963 56.085 56.182 56.323 56.467 56.627 56.815 57.068 57.417 57.685 57.943 58.15 58.342 58.495 58.632 58.772 58.87 58.94 59.025 59.06 59.08 59.127 59.173 59.24 59.325 59.423 59.487 59.522 59.583 59.632 59.695 59.74 59.772 59.808 59.84 59.857 59.88 59.878 59.903 59.943 60.002 60.06 60.107 60.155 60.208 60.272 60.327 60.47 60.577 60.632 60.647 60.667 60.67 60.665 60.67 60.65 60.65 60.64 60.647 60.608 60.535 60.5 60.463 60.395 60.342 60.278 60.205 60.208 60.942 60.91 59.713 60.61 62.51 65.147 63.825 61.395 60.882 60.647 60.95 61.368 61.533 62.097 61.993 61.842 61.778 61.925 62.63 62.342 62.908 63.375 63.67 63.81 63.925 63.682 63.653 63.74 63.912 64.052 64.188 64.308 64.455 64.592 64.725 64.87 65.015 65.193 65.353 65.527 65.698 65.897 66.073 66.238 66.435 66.603 66.757 66.89 66.99 67.95 68.738 68.287 68.268 68.303 68.385 68.503 68.628 68.76 68.897 69.025 69.15 69.257 69.382 69.505 69.622 69.732 69.863 69.973 70.095 70.213 70.338 70.455 70.54 70.628 70.745 70.845 70.967 71.083 71.195 71.29 71.41 71.505 71.622 71.683 72.128 72.415 72.503 72.577 72.597 72.66 72.747 72.82 72.885 72.963 73.02 73.103 73.195 73.28 73.348 73.412 73.465 73.505 73.53 73.577 73.61 73.607 73.58 73.56 73.565 73.518 73.46 73.455 73.42 73.363 73.323 73.275 73.225 73.137 73.062 72.963 72.89 72.787 72.688 72.605 72.482 72.355 72.237 72.095 71.952 71.798 71.625 71.475 71.32 71.173 70.985 70.84 70.685 70.548 70.395 70.262 70.132 69.967 69.86 69.738 69.605 69.49 69.385 69.255 69.143 69.03 68.943 68.885 68.777 68.757 68.853 68.573 68.315 68.027 68 67.933 68.562 68.607 69.34 68.588 68.368 68.425 68.583 68.762 68.895 68.997 69.122 69.262 69.442 69.658 69.882 70.145 70.4 70.645 70.872 71.12 71.345 71.583 71.805 72 72.208 72.41 72.577 72.728 72.897 73.033 73.192 73.335 73.478 73.615 73.775 73.943 74.12 74.317 74.543 74.775 75.045 75.327 75.64 75.952 76.3 76.652 77.045 77.458 77.895 78.345 78.787 79.162 79.527 79.86 80.18 80.458 80.683 80.875 81.075 81.22 81.463 81.717 81.897 82.103 82.275 82.427 82.613 82.795 82.978 83.158 83.327 83.512 83.715 83.885 84.052 84.23 84.385 84.557 84.732 84.87 85.042 85.195 85.323 85.45 85.552 85.683 85.81 85.923 86.022 86.118 86.217 86.283 86.36 86.433 86.485 86.535 86.577 86.645 86.705 86.757 86.802 86.863 86.908 86.963 87.007 87.058 87.128 87.182 87.265 87.315 87.353 87.778 88.115 87.715 87.833 87.933 88.018 88.122 88.253 88.368 88.45 88.522 88.582 88.63 88.69 88.77 88.84 88.952 89.045 89.147 89.2 89.213 89.243 89.265 89.29 89.335
56.145 56.197 56.792 56.635 56.397 56.263 56.228 56.455 56.395 56.708 56.713 56.812 57.34 56.815 56.658 57.167 57.06 57.463 56.73 56.48 56.45 56.395 56.362 56.425 56.798 56.515 56.327 56.425 56.537 56.347 56.228 56.05 55.945 55.853 55.845 55.79 55.62 55.528 55.5 55.405 55.35 55.315 55.27 55.205 55.103 55.018 54.92 54.838 54.708 55.14 55.575 55.717 56.585 56.167 56.028 54.855 54.965 54.982 55.942 55.91 56.097 56.298 56.165 55.965 55.785 55.89 56.028 56.162 56.315 56.455 56.635 56.812 57.01 57.245 57.49 57.752 57.972 58.202 58.417 58.592 58.77 58.927 59.042 59.138 59.213 59.298 59.347 59.393 59.447 59.515 59.607 59.698 59.778 59.835 59.9 59.978 60.022 60.105 60.153 60.193 60.237 60.255 60.27 60.27 60.295 60.325 60.37 60.41 60.452 60.485 60.505 60.533 60.548 60.588 60.688 60.798 60.86 60.91 60.917 60.912 60.93 60.935 60.963 60.96 60.93 60.903 60.868 60.81 60.78 60.74 60.665 60.603 60.513 60.438 60.323 60.243 60.7 61.325 61.007 60.353 61.408 60.24 60.583 61.938 60.84 60.8 60.975 60.912 61.13 61.188 61.265 61.428 61.603 61.838 61.998 62.545 62.927 63.17 63.362 63.202 63.565 63.69 63.768 63.822 63.735 63.685 63.8 63.95 64.083 64.2 64.338 64.482 64.625 64.785 64.955 65.125 65.307 65.51 65.688 65.855 66.022 66.198 66.323 66.412 67.575 69.247 67.61 67.715 67.785 67.827 67.942 68.07 68.198 68.333 68.467 68.58 68.717 68.825 68.955 69.075 69.183 69.31 69.42 69.548 69.682 69.798 69.902 70.007 70.113 70.213 70.342 70.465 70.585 70.702 70.798 70.925 71.027 71.158 71.2 71.575 72.03 72.072 72.137 72.167 72.225 72.305 72.372 72.448 72.52 72.567 72.628 72.717 72.762 72.833 72.882 72.938 72.982 73.007 73.05 73.062 73.053 73.037 72.993 72.958 72.933 72.882 72.8 72.743 72.735 72.625 72.545 72.497 72.445 72.333 72.235 72.17 72.107 71.995 71.893 71.81 71.65 71.552 71.455 71.285 71.132 71.005 70.818 70.66 70.535 70.397 70.272 70.143 69.995 69.86 69.717 69.61 69.51 69.4 69.32 69.192 69.113 69.025 68.923 68.83 68.772 68.717 68.637 68.562 68.878 69.167 68.717 67.865 68.02 67.855 67.825 68.573 69.787 69.64 68.645 68.318 68.503 68.688 68.82 68.945 69.09 69.245 69.41 69.603 69.818 70.05 70.29 70.565 70.827 71.06 71.29 71.522 71.757 71.993 72.173 72.393 72.582 72.735 72.9 73.048 73.215 73.387 73.545 73.677 73.825 73.98 74.155 74.333 74.533 74.757 75.01 75.285 75.592 75.91 76.225 76.59 76.975 77.382 77.78 78.215 78.673 79.1 79.5 79.88 80.238 80.533 80.783 80.985 81.213 81.415 81.512 81.717 81.952 82.162 82.205 82.368 82.548 82.725 82.853 82.997 83.188 83.338 83.525 83.69 83.87 84.058 84.245 84.415 84.583 84.755 84.92 85.098 85.253 85.395 85.515 85.675 85.76 85.885 86.01 86.113 86.213 86.308 86.375 86.445 86.507 86.585 86.635 86.688 86.755 86.815 86.87 86.915 86.985 87.03 87.083 87.118 87.158 87.243 87.302 87.382 87.432 87.458 88.51 88.365 87.848 87.97 88.053 88.158 88.26 88.387 88.5 88.592 88.67 88.73 88.76 88.817 88.893 88.978 89.065 89.17 89.292 89.33 89.365 89.368 89.41 89.425 89.47
55.597 55.715 56.115 56.82 55.823 55.518 55.638 55.847 55.885 55.978 56.243 56.71 57.022 56.722 56.17 56.248 56.515 56.567 56.265 55.978 55.91 55.865 55.857 55.875 55.865 55.805 55.792 55.77 55.697 55.64 55.597 55.51 55.463 55.423 55.335 55.28 55.2 55.177 55.08 55.07 55.02 54.965 54.875 54.818 54.787 54.815 54.865 54.978 54.938 55.345 55.513 54.982 55.537 56.232 54.745 55.013 55.2 55.745 55.397 55.475 55.452 55.487 55.565 55.748 55.943 56.123 56.268 56.435 56.635 56.825 57.033 57.225 57.428 57.662 57.87 58.1 58.33 58.542 58.722 58.895 59.04 59.177 59.278 59.375 59.458 59.525 59.592 59.67 59.76 59.825 59.917 60.04 60.132 60.21 60.29 60.385 60.432 60.507 60.565 60.618 60.675 60.688 60.705 60.732 60.76 60.785 60.8 60.838 60.86 60.885 60.893 60.895 60.897 60.905 60.975 61.013 61.088 61.16 61.158 61.173 61.182 61.202 61.21 61.21 61.228 61.22 61.17 61.105 61.087 61.04 60.993 60.89 60.798 60.705 60.597 60.5 60.408 60.4 61.16 60.993 61.483 60.695 60.165 60.327 60.452 60.812 60.94 60.513 60.732 60.912 61.028 61.173 61.353 61.542 62.308 62.985 62.625 62.205 62.432 62.753 62.662 62.752 62.92 63.062 63.548 63.56 63.59 63.475 63.545 63.66 63.79 63.945 64.092 64.23 64.41 64.565 64.745 64.945 65.118 65.305 65.488 65.637 65.78 65.905 66.92 68.253 67.598 68.262 67.882 67.28 67.395 67.522 67.655 67.795 67.915 68.045 68.152 68.272 68.4 68.518 68.635 68.755 68.893 69.007 69.132 69.26 69.37 69.482 69.585 69.697 69.83 69.965 70.1 70.2 70.315 70.448 70.56 70.693 70.77 70.97 71.685 71.655 71.707 71.713 71.753 71.827 71.89 71.98 72.042 72.1 72.143 72.22 72.293 72.315 72.365 72.408 72.435 72.443 72.465 72.48 72.467 72.423 72.423 72.378 72.338 72.302 72.2 72.132 72.07 72 71.975 71.895 71.785 71.685 71.56 71.475 71.355 71.257 71.15 71.055 70.995 70.875 70.762 70.63 70.493 70.34 70.205 70.085 69.95 69.82 69.72 69.58 69.465 69.357 69.247 69.165 69.062 68.985 68.925 68.878 68.8 68.708 68.652 68.598 68.527 68.467 68.42 68.662 69.067 68.57 68.378 68.96 68.932 68.075 69.015 68.902 68.635 68.505 68.27 68.427 68.61 68.76 68.882 69.025 69.207 69.378 69.56 69.753 69.982 70.238 70.467 70.743 71.012 71.243 71.485 71.72 71.935 72.152 72.342 72.542 72.73 72.908 73.068 73.228 73.397 73.57 73.735 73.88 74.045 74.198 74.365 74.545 74.76 75.005 75.255 75.525 75.85 76.175 76.545 76.925 77.295 77.713 78.118 78.565 79.018 79.42 79.802 80.2 80.525 80.838 81.107 81.302 81.537 81.698 81.845 82.033 82.24 82.4 82.417 82.427 82.55 82.802 82.94 83.077 83.213 83.35 83.505 83.668 83.853 84.052 84.238 84.463 84.628 84.802 84.995 85.145 85.3 85.467 85.58 85.713 85.835 85.967 86.092 86.2 86.305 86.385 86.47 86.552 86.613 86.69 86.73 86.775 86.855 86.923 86.98 87.048 87.095 87.147 87.188 87.235 87.3 87.38 87.45 87.518 87.557 87.598 89.14 88.58 87.995 88.107 88.198 88.298 88.405 88.52 88.632 88.738 88.815 88.865 88.912 88.98 89.052 89.105 89.212 89.31 89.412 89.463 89.482 89.493 89.533 89.55 89.605
54.7 54.905 55.357 55.48 55.732 54.823 55.2 55.335 55.237 55.36 55.868 56.19 56.68 56.335 56.138 55.842 55.6 55.845 55.923 55.568 55.433 55.408 55.382 55.415 55.358 55.333 55.333 55.305 55.25 55.237 55.195 55.167 55.695 55.042 55.018 54.995 54.935 54.87 54.798 54.77 54.76 55.255 56.408 54.78 55.397 54.857 55.028 56.455 57.217 54.91 54.647 54.653 55.24 55.265 55.103 55.295 55.295 55.353 55.397 55.48 55.557 55.655 55.8 55.97 56.147 56.365 56.528 56.732 56.958 57.17 57.382 57.588 57.817 58.055 58.272 58.498 58.677 58.857 59.035 59.173 59.3 59.415 59.513 59.607 59.688 59.763 59.842 59.958 60.057 60.16 60.275 60.375 60.472 60.545 60.64 60.725 60.775 60.853 60.932 60.978 61.042 61.068 61.105 61.132 61.162 61.17 61.167 61.197 61.222 61.263 61.26 61.265 61.26 61.24 61.29 61.335 61.375 61.405 61.43 61.463 61.467 61.452 61.475 61.487 61.465 61.482 61.455 61.415 61.408 61.345 61.27 61.22 61.173 61.062 60.928 60.835 60.72 60.638 60.615 60.77 61.32 61.548 60.757 60.46 60.177 60.89 60.618 60.65 60.44 60.89 62 60.893 61.09 61.31 61.57 62.118 61.888 61.888 62.045 62.403 62.32 62.915 62.47 62.588 62.673 62.757 63.025 63.338 63.295 63.43 63.43 63.485 63.57 63.702 63.873 64.037 64.213 64.405 64.577 64.777 64.942 65.115 65.255 65.362 66.23 67.825 66.985 69.565 67.395 66.765 66.872 66.98 67.107 67.24 67.387 67.512 67.62 67.738 67.853 67.97 68.09 68.22 68.338 68.455 68.592 68.702 68.82 68.948 69.052 69.177 69.318 69.442 69.588 69.713 69.84 69.96 70.09 70.24 70.36 70.448 70.973 71.135 71.257 71.26 71.292 71.36 71.427 71.51 71.555 71.632 71.66 71.708 71.768 71.798 71.845 71.853 71.885 71.878 71.882 71.86 71.863 71.838 71.802 71.76 71.68 71.662 71.575 71.518 71.458 71.368 71.287 71.213 71.12 71.012 70.95 70.84 70.735 70.643 70.54 70.44 70.312 70.225 70.115 69.98 69.848 69.747 69.643 69.51 69.397 69.295 69.198 69.103 69.01 68.9 68.835 68.768 68.715 68.673 68.622 68.57 68.515 68.448 68.393 68.327 68.277 68.215 68.507 68.827 68.652 68.958 68.465 69.155 68.458 69.717 68.762 69.253 68.1 68.208 68.558 68.533 68.695 68.848 68.99 69.152 69.327 69.528 69.732 69.942 70.158 70.397 70.645 70.923 71.202 71.45 71.675 71.903 72.113 72.32 72.522 72.695 72.9 73.075 73.245 73.428 73.595 73.765 73.928 74.107 74.25 74.427 74.592 74.775 74.993 75.228 75.488 75.787 76.113 76.47 76.848 77.247 77.615 78.048 78.485 78.908 79.333 79.725 80.107 80.463 80.817 81.12 81.405 81.605 81.83 81.948 82.135 82.345 82.503 82.622 82.673 82.73 82.785 82.897 82.993 83.16 83.318 83.423 83.548 83.71 83.875 84.06 84.275 84.48 84.675 84.875 85.048 85.208 85.375 85.515 85.66 85.795 85.93 86.055 86.17 86.31 86.4 86.485 86.562 86.637 86.73 86.783 86.842 86.905 86.98 87.037 87.107 87.158 87.213 87.277 87.342 87.397 87.432 87.497 87.575 87.64 87.685 87.893 88.988 88.32 88.112 88.277 88.345 88.448 88.562 88.677 88.785 88.89 88.958 89.012 89.042 89.11 89.17 89.255 89.34 89.45 89.533 89.598 89.61 89.63 89.702 89.7 89.74
53.865 53.942 54.35 55.158 56.175 54.292 54.452 54.568 54.57 55.143 55.935 55.75 56.035 55.213 54.855 54.732 54.975 55.645 55.81 54.95 55.287 54.993 55.005 54.993 55.025 54.972 54.94 54.927 54.945 56.823 55.382 56.79 57.802 56.542 55.708 54.768 54.755 54.71 54.665 54.637 55.44 54.783 57.708 54.917 54.675 55.53 54.368 54.427 54.458 54.952 54.653 55.308 55.15 55.11 55.19 55.25 55.382 55.478 55.545 55.643 55.78 55.908 56.077 56.278 56.45 56.625 56.807 57.007 57.24 57.478 57.725 57.94 58.19 58.405 58.603 58.778 58.95 59.118 59.28 59.408 59.535 59.64 59.738 59.847 59.945 60.042 60.147 60.278 60.393 60.49 60.605 60.708 60.805 60.873 60.987 61.083 61.145 61.215 61.278 61.317 61.35 61.36 61.385 61.41 61.417 61.415 61.423 61.427 61.455 61.49 61.467 61.493 61.518 61.5 61.525 61.542 61.565 61.573 61.612 61.63 61.607 61.618 61.66 61.662 61.645 61.677 61.69 61.69 61.715 61.705 61.635 61.59 61.535 61.458 61.337 61.215 61.135 61.015 60.925 60.817 60.76 61.025 61.455 60.882 60.22 60.252 60.245 60.14 60.175 60.798 60.97 60.885 60.91 61.03 61.17 61.315 61.562 61.57 61.667 61.76 61.868 62.01 62.167 62.143 62.215 62.347 63.077 63.39 63.042 63.15 63.225 63.303 63.503 63.49 63.635 63.662 63.732 63.91 64.103 64.293 64.445 64.628 64.762 64.868 65.747 67.935 68.652 72.24 68.878 66.5 66.345 66.46 66.575 66.702 66.847 66.952 67.06 67.167 67.295 67.415 67.538 67.655 67.775 67.908 68.022 68.152 68.268 68.397 68.52 68.652 68.79 68.935 69.077 69.228 69.36 69.488 69.613 69.775 69.91 69.988 70.505 70.692 70.8 70.808 70.827 70.857 70.93 71.003 71.077 71.125 71.155 71.188 71.225 71.262 71.305 71.298 71.303 71.305 71.295 71.29 71.26 71.223 71.188 71.152 71.128 71.09 70.97 70.882 70.818 70.745 70.65 70.553 70.467 70.342 70.255 70.202 70.113 70.007 69.923 69.848 69.787 69.7 69.605 69.475 69.365 69.202 69.137 69.025 68.933 68.845 68.747 68.655 68.59 68.527 68.49 68.442 68.402 68.382 68.338 68.33 68.277 68.223 68.173 68.12 68.065 68.507 68.408 68.202 67.882 67.79 69.018 68.427 68.52 69.277 68.567 68.105 68.21 68.327 68.49 68.63 68.77 68.945 69.103 69.285 69.48 69.71 69.917 70.122 70.338 70.582 70.865 71.118 71.395 71.643 71.86 72.09 72.3 72.493 72.695 72.878 73.075 73.285 73.445 73.618 73.785 73.963 74.14 74.312 74.488 74.647 74.823 75.015 75.223 75.465 75.732 76.067 76.39 76.743 77.15 77.567 77.99 78.403 78.812 79.223 79.673 80.068 80.42 80.757 81.08 81.375 81.645 81.897 82.088 82.225 82.393 82.632 82.755 82.878 82.917 83.022 83.132 83.202 83.3 83.393 83.47 83.505 83.65 83.808 83.95 84.132 84.357 84.562 84.762 84.965 85.162 85.312 85.467 85.615 85.768 85.89 86.012 86.147 86.272 86.387 86.478 86.58 86.675 86.743 86.82 86.89 86.958 87.02 87.08 87.147 87.23 87.292 87.36 87.44 87.48 87.522 87.582 87.655 87.723 87.8 87.85 88.215 89.35 88.438 88.265 88.425 88.507 88.615 88.728 88.833 88.945 89.058 89.132 89.167 89.188 89.247 89.312 89.375 89.482 89.588 89.67 89.72 89.735 89.77 89.805 89.833 89.89
53.285 53.3 53.87 54.458 53.807 53.795 54.375 53.96 54.058 54.128 54.315 54.318 54.388 55.197 54.692 54.29 54.36 54.903 54.747 54.635 54.577 54.647 54.658 54.682 54.897 54.99 54.715 55.665 54.93 59.292 63.015 60.403 57.805 56.357 57.97 54.695 57.14 55.478 56.388 56.595 55.792 57.54 54.76 54.318 54.27 54.55 54.318 54.487 55.575 55.62 54.845 55.013 55.105 55.165 55.278 55.408 55.585 55.72 55.8 55.882 56.103 56.28 56.452 56.595 56.73 56.89 57.068 57.295 57.535 57.783 58.01 58.23 58.438 58.653 58.855 59.03 59.193 59.342 59.478 59.623 59.757 59.905 60.025 60.13 60.278 60.382 60.493 60.635 60.775 60.89 61.028 61.103 61.188 61.26 61.333 61.375 61.388 61.438 61.485 61.548 61.612 61.655 61.713 61.698 61.698 61.702 61.71 61.692 61.708 61.73 61.728 61.71 61.702 61.705 61.728 61.725 61.762 61.745 61.732 61.7 61.692 61.763 61.815 61.798 61.775 61.81 61.825 61.855 61.827 61.763 61.717 61.732 61.73 61.713 61.732 61.692 61.62 61.498 61.353 61.22 61.1 60.985 61.015 61.193 61.353 60.355 61.585 60.58 60.81 61.305 62.783 61.33 63.042 62.143 62.1 61.255 61.338 62.537 61.515 61.823 61.528 62.667 65.9 63.31 61.792 61.91 62.182 62.89 62.748 62.927 62.815 63.062 63.3 63.628 63.802 63.96 63.965 63.853 64.003 63.88 64.025 64.185 64.32 64.423 64.558 66.908 67.89 69.318 67.08 66.395 65.82 65.932 66.05 66.17 66.305 66.425 66.533 66.64 66.75 66.863 66.967 67.083 67.195 67.312 67.44 67.583 67.715 67.845 67.988 68.143 68.262 68.417 68.552 68.713 68.86 68.995 69.122 69.262 69.442 69.49 70.265 70.323 70.338 70.333 70.33 70.378 70.435 70.482 70.54 70.588 70.618 70.673 70.713 70.682 70.7 70.74 70.74 70.747 70.73 70.728 70.67 70.655 70.603 70.552 70.497 70.46 70.378 70.29 70.19 70.12 70.02 69.895 69.795 69.71 69.622 69.54 69.465 69.368 69.28 69.22 69.152 69.065 68.985 68.902 68.805 68.71 68.647 68.562 68.507 68.443 68.375 68.315 68.295 68.257 68.175 68.143 68.125 68.118 68.08 68.067 68.035 67.988 67.94 67.917 68.375 68.91 67.812 67.793 68.137 68.217 68.72 69.46 68.503 68.22 68.105 68.232 68.355 68.478 68.622 68.743 68.878 69.073 69.275 69.463 69.665 69.89 70.1 70.32 70.555 70.795 71.065 71.33 71.592 71.853 72.082 72.28 72.485 72.673 72.885 73.08 73.275 73.467 73.635 73.802 73.975 74.152 74.338 74.518 74.692 74.868 75.057 75.247 75.482 75.725 76.012 76.32 76.69 77.05 77.473 77.865 78.303 78.723 79.132 79.552 79.99 80.353 80.7 81.025 81.34 81.635 81.908 82.132 82.355 82.525 82.705 82.905 83.062 83.103 83.143 83.27 83.355 83.445 83.535 83.582 83.67 83.74 83.823 83.96 84.09 84.268 84.46 84.688 84.893 85.08 85.265 85.427 85.59 85.728 85.88 86 86.11 86.25 86.375 86.495 86.583 86.673 86.765 86.865 86.925 87 87.077 87.132 87.202 87.3 87.365 87.433 87.493 87.572 87.632 87.688 87.74 87.818 87.887 87.955 88.012 88.427 89.435 88.908 88.432 88.585 88.677 88.795 88.91 89.007 89.103 89.202 89.277 89.325 89.357 89.395 89.452 89.522 89.625 89.738 89.812 89.872 89.887 89.915 89.948 89.978 90.02
52.895 53.217 53.925 53.708 53.345 53.525 53.755 53.698 53.737 53.713 53.722 53.847 53.958 54.358 54.802 54.24 54.015 54.393 54.647 54.275 54.128 54.22 54.302 54.307 54.507 54.63 54.432 55.175 59.812 62.107 62.972 56.145 56.18 57.915 57.143 54.493 54.68 55.215 56.573 55.737 55.73 57.055 55.667 56.118 54.408 55.415 54.825 55.63 55.6 55.035 55.073 55.165 55.255 55.37 55.503 55.662 55.868 56 56.128 56.278 56.46 56.603 56.745 56.87 57.01 57.195 57.385 57.592 57.835 58.052 58.265 58.46 58.67 58.868 59.088 59.272 59.448 59.618 59.763 59.925 60.083 60.232 60.368 60.513 60.653 60.807 60.958 61.1 61.195 61.26 61.31 61.345 61.423 61.548 61.67 61.805 61.96 62.083 62.158 62.228 62.248 62.25 62.232 62.217 62.2 62.19 62.182 62.182 62.188 62.202 62.16 62.12 62.11 62.118 62.145 62.158 62.195 62.198 62.2 62.202 62.205 62.213 62.202 62.147 62.08 62.06 62.058 62.06 62.022 61.972 61.963 61.965 61.92 61.85 61.815 61.755 61.768 61.775 61.783 61.708 61.597 61.487 61.375 61.25 61.055 60.89 60.935 60.952 61.368 61.4 60.665 60.145 60.545 60.643 61.335 61.092 61.068 61.632 61.41 61.595 62 65.175 64.94 63.56 62.003 62.673 61.73 61.855 62.05 61.987 62.175 62.507 62.755 62.715 62.783 62.8 63.055 63.283 63.58 63.638 64.217 64.005 64 64.04 64.085 68.165 71.393 70.035 67.5 65.6 65.3 65.408 65.53 65.637 65.757 65.878 65.982 66.083 66.192 66.307 66.415 66.522 66.64 66.738 66.863 67.005 67.162 67.318 67.442 67.57 67.717 67.868 68.025 68.192 68.327 68.493 68.64 68.795 68.965 69.052 69.855 70.03 69.81 69.868 69.86 69.86 69.9 69.957 70.015 70.06 70.08 70.115 70.15 70.185 70.17 70.175 70.165 70.155 70.128 70.125 70.115 70.075 70.012 69.988 69.93 69.882 69.787 69.7 69.605 69.52 69.4 69.315 69.208 69.105 69 68.92 68.833 68.775 68.707 68.65 68.6 68.533 68.45 68.38 68.29 68.235 68.19 68.143 68.103 68.08 68.055 68.007 67.96 67.925 67.915 67.897 67.882 67.875 67.842 67.815 67.792 67.77 67.772 67.91 68.67 68.503 68.575 67.927 69.24 68.275 69.107 69.16 68.14 68.098 68.262 68.38 68.518 68.637 68.747 68.887 69.027 69.223 69.455 69.665 69.868 70.09 70.323 70.552 70.777 71.02 71.283 71.573 71.815 72.057 72.268 72.473 72.665 72.868 73.07 73.275 73.442 73.652 73.845 74.005 74.17 74.34 74.53 74.715 74.92 75.092 75.287 75.497 75.757 76.015 76.3 76.618 76.97 77.36 77.753 78.188 78.605 79.04 79.46 79.857 80.28 80.658 81.003 81.298 81.595 81.88 82.128 82.382 82.59 82.798 82.948 83.15 83.307 83.345 83.378 83.495 83.59 83.68 83.762 83.825 83.915 84.015 84.073 84.173 84.283 84.45 84.64 84.872 85.065 85.27 85.432 85.58 85.728 85.875 86.018 86.122 86.235 86.38 86.48 86.61 86.69 86.79 86.868 86.947 87.055 87.118 87.19 87.265 87.348 87.43 87.503 87.575 87.655 87.717 87.785 87.842 87.92 88 88.08 88.137 88.19 88.698 89.395 88.628 88.615 88.768 88.86 88.963 89.08 89.17 89.29 89.385 89.448 89.488 89.51 89.56 89.603 89.685 89.792 89.897 89.967 90.02 90.037 90.06 90.11 90.132 90.188
