ncols 500
nrows 33
xllcorner    246000
yllcorner    135562
cellsize     2
NODATA_value -9999
9.125 9.047 8.977 8.99 9.025 9.03 9.007 8.925 8.872 8.858 8.842 8.845 8.872 8.89 8.81 8.8 8.85 8.965 9.148 9.333 9.517 9.68 9.91 9.842 9.725 9.698 9.785 9.87 9.573 9.378 9.25 9.122 9.203 9.113 8.84 8.802 8.85 8.642 8.698 8.71 8.795 8.743 9.24 9.602 9.882 10.142 10.358 10.44 10.435 10.318 10.212 9.943 9.658 9.365 9.252 9.5 9.642 9.775 9.878 9.91 9.922 9.837 9.517 9.233 9.248 8.9 8.913 9.265 9.382 9.273 9.033 8.908 9.108 9.017 9.005 8.983 8.977 9.07 9.047 8.935 8.898 8.86 8.89 9.02 9.28 9.085 9.267 8.938 8.898 8.91 8.65 8.892 8.995 8.648 8.84 8.962 9.055 9.113 8.977 8.957 9.01 9 8.785 8.695 8.82 8.952 9.06 8.967 8.85 8.842 8.94 9.09 9.132 9.46 8.63 8.453 8.45 8.4 8.298 8.352 8.35 8.33 8.302 8.295 8.267 8.24 8.207 8.188 8.17 8.128 8.118 8.118 8.102 8.06 8.055 8.055 8.052 8.03 8.01 7.99 7.997 7.957 7.932 7.932 7.895 7.88 7.855 7.847 7.863 7.878 7.88 7.887 7.882 7.88 7.892 7.895 7.865 7.83 7.83 7.827 7.818 7.805 7.788 7.793 7.778 7.758 7.745 7.735 7.742 7.727 7.71 7.702 7.712 7.712 7.653 7.565 7.602 8.747 9.46 8.4 7.575 7.343 7.615 7.633 7.593 7.6 7.595 7.595 7.602 7.59 7.59 7.592 7.617 7.625 7.628 7.642 7.648 7.637 7.628 7.628 7.64 7.648 7.635 7.635 7.645 7.637 7.63 7.61 7.602 7.597 7.588 7.573 7.557 7.545 7.53 7.515 7.495 7.467 7.445 7.427 7.407 7.385 7.372 7.363 7.352 7.342 7.328 7.332 7.418 7.378 7.33 7.085 7.89 8.73 7.778 7.653 7.5 7.575 8.94 8.445 7.48 7.49 7.543 7.55 7.538 7.53 7.505 7.485 7.445 7.43 7.39 7.338 7.332 7.307 7.285 7.29 7.28 7.255 7.227 7.233 7.193 7.202 7.185 7.177 7.165 7.137 7.133 7.093 7.068 7.065 7.05 7.04 7.005 7 7 7 6.992 6.995 7.005 6.975 6.983 6.972 6.97 6.977 6.972 6.985 6.967 6.935 6.892 6.908 6.872 6.868 6.843 6.815 6.795 6.75 6.738 6.695 6.67 6.635 6.62 6.575 6.543 6.53 6.485 6.49 6.46 6.455 6.44 6.41 6.418 6.395 6.38 6.395 6.365 6.378 6.347 6.355 6.325 6.32 6.327 6.305 6.307 6.31 6.305 6.26 6.21 6.193 6.08 6.105 6.128 6.142 6.117 6.062 6.065 6.055 6.055 6.017 6.005 5.983 5.967 5.945 5.915 5.9 5.9 5.89 5.88 5.86 5.832 5.803 5.793 5.78 5.757 5.745 5.735 5.698 5.695 5.705 5.693 5.677 5.682 5.662 5.653 5.653 5.637 5.642 5.65 5.645 5.64 5.608 5.608 5.593 5.59 5.582 5.575 5.56 5.573 5.573 5.56 5.557 5.538 5.52 5.52 5.523 5.5 5.477 5.47 5.452 5.427 5.435 5.427 5.42 5.425 5.425 5.4 5.38 5.383 5.372 5.387 5.385 5.385 5.372 5.36 5.363 5.358 5.352 5.35 5.345 5.347 5.33 5.332 5.32 5.318 5.305 5.298 5.283 5.283 5.267 5.257 5.26 5.25 5.245 5.253 5.242 5.26 5.278 5.325 5.358 5.42 5.387 5.363 5.412 5.36 5.352 5.283 5.265 5.165 5.102 5.03 4.94 4.745 4.58 4.775 4.71 5.18 6.13 6.492 6.508 6.548 6.072 6.045 5.682 5.14 5.243 4.842 4.815 4.94 5.025 5.097 5.198 4.878 6.67 5.98 5.3 6.173 6.845 5.74 5.195 5.318 5.065 5.055 4.957 4.955 5.132 4.86 4.88 4.935 5.003 5.085 5.502 5.813 6.542 6.307 7.214 6.357 5.46 6.933 7.35 7.163 8.448 8.077 6.64 6.627 6.654 8.324 7.109 6.084 6.094 8.15 6.498
9.205 9.045 8.977 8.972 8.96 8.967 8.972 8.907 8.87 8.86 8.88 8.85 8.833 8.845 8.83 8.81 8.855 8.94 9.065 9.182 9.398 9.682 9.955 9.882 9.648 9.48 9.515 9.597 9.545 9.453 9.403 9.29 9.285 9.172 8.847 8.727 8.635 8.608 8.653 8.663 8.87 9.087 9.375 9.688 9.952 10.282 10.445 10.505 10.39 10.172 10.055 9.785 9.597 9.28 9.282 9.568 9.693 9.812 9.938 9.975 10.048 9.845 9.532 9.1 9.005 8.932 8.995 9.358 9.363 9.368 9.017 8.868 8.9 8.962 9.163 9.158 8.935 9 9.025 8.94 8.88 8.855 8.943 9.257 9.075 9.09 9.185 8.922 8.977 8.783 8.602 8.965 8.783 8.715 8.85 9 9.05 9.132 9.095 9.045 9.052 8.927 8.73 8.74 8.885 9.148 9.023 8.975 8.997 8.96 9.09 9.153 9.733 8.855 8.448 8.443 8.398 8.32 8.358 8.365 8.347 8.307 8.288 8.283 8.25 8.225 8.202 8.188 8.165 8.142 8.12 8.093 8.09 8.093 8.068 8.045 8.025 8.033 8.01 7.983 7.967 7.957 7.945 7.93 7.925 7.892 7.903 7.89 7.858 7.84 7.863 7.875 7.87 7.867 7.865 7.87 7.885 7.925 7.885 7.845 7.835 7.88 7.812 7.802 7.793 7.78 7.755 7.737 7.725 7.717 7.722 7.71 7.71 7.71 7.717 7.695 7.632 7.557 7.967 8.915 9.26 8.233 7.72 7.358 7.565 7.597 7.582 7.582 7.592 7.59 7.59 7.59 7.585 7.602 7.597 7.618 7.633 7.628 7.632 7.617 7.62 7.63 7.63 7.618 7.617 7.617 7.61 7.613 7.617 7.602 7.588 7.58 7.562 7.545 7.537 7.523 7.515 7.483 7.45 7.43 7.415 7.383 7.363 7.338 7.34 7.325 7.305 7.34 7.412 7.35 7.318 7.148 8.445 8.5 7.465 7.628 7.472 8.073 8.823 7.867 7.483 7.512 7.55 7.535 7.53 7.515 7.5 7.46 7.445 7.403 7.36 7.347 7.31 7.287 7.273 7.267 7.262 7.225 7.23 7.215 7.182 7.207 7.17 7.177 7.15 7.135 7.13 7.075 7.055 7.048 7.055 7.017 7.003 7.005 6.99 6.99 6.985 6.987 6.988 6.97 6.972 6.952 6.975 6.965 6.977 6.972 6.955 6.905 6.89 6.898 6.86 6.855 6.827 6.827 6.775 6.745 6.725 6.69 6.665 6.632 6.618 6.562 6.548 6.503 6.483 6.477 6.457 6.45 6.423 6.4 6.415 6.378 6.387 6.38 6.375 6.358 6.332 6.35 6.31 6.325 6.323 6.315 6.328 6.31 6.303 6.243 6.205 6.205 6.025 6.153 6.128 6.145 6.08 6.082 6.065 6.052 6.045 6.02 6.017 6.008 5.997 5.977 5.947 5.915 5.9 5.872 5.87 5.863 5.845 5.82 5.8 5.77 5.76 5.753 5.72 5.702 5.7 5.698 5.7 5.693 5.677 5.65 5.655 5.665 5.655 5.655 5.655 5.635 5.63 5.597 5.59 5.59 5.585 5.57 5.545 5.535 5.54 5.548 5.548 5.535 5.528 5.515 5.517 5.517 5.505 5.488 5.492 5.49 5.488 5.488 5.46 5.438 5.432 5.415 5.415 5.405 5.395 5.375 5.383 5.372 5.367 5.372 5.375 5.372 5.37 5.37 5.365 5.37 5.372 5.343 5.32 5.315 5.32 5.318 5.318 5.305 5.303 5.283 5.275 5.265 5.247 5.255 5.245 5.253 5.24 5.233 5.222 5.207 5.22 5.262 5.275 5.363 5.385 5.338 5.338 5.312 5.245 5.225 5.245 5.185 5.113 5.072 5.015 4.887 4.72 4.535 5.253 5.128 5.528 6.845 6.997 7.795 6.528 6.372 5.693 5.32 5.207 4.903 5.068 5.207 4.82 5.428 5.088 5.597 5.773 5.467 5.26 5.315 5.262 5.045 4.95 4.938 5.108 4.977 4.858 4.868 4.908 5.01 5.07 5.377 5.839 6.673 6.969 6.877 5.703 5.803 6.52 7.449 7.977 8.296 8.845 7.396 7.513 9.049 8.606 8.401 5.984 7.59 6.465 5.873
9.118 9.017 8.962 8.938 8.943 8.95 8.95 8.932 8.872 8.843 8.842 8.858 8.847 8.843 8.815 8.89 8.858 8.932 9.148 9.408 9.528 9.868 10.193 10.045 9.868 9.6 9.565 9.735 9.595 9.538 9.42 9.285 9.267 9.165 8.818 8.675 8.632 8.665 8.63 8.653 8.83 9.215 9.507 9.802 10.11 10.363 10.49 10.545 10.347 10.097 9.88 9.61 9.382 9.24 9.382 9.525 9.61 9.802 9.865 9.882 10.075 9.84 9.77 9.257 8.93 8.965 9.183 9.413 9.392 9.465 9.023 9.127 9.097 9.177 9.29 9.073 8.968 8.925 8.948 8.948 8.917 8.892 8.985 9.557 9.18 8.98 8.913 9.038 8.93 8.775 8.682 9.113 8.917 8.82 8.855 8.903 8.927 8.99 9.04 9.085 9.02 8.842 8.747 8.877 9.122 9.09 8.977 8.892 8.913 9.012 9.09 9.55 9.202 8.435 8.445 8.427 8.327 8.355 8.372 8.363 8.325 8.288 8.28 8.273 8.25 8.225 8.203 8.17 8.153 8.145 8.115 8.12 8.083 8.068 8.07 8.057 8.04 8.035 8.02 8.007 7.983 7.952 7.943 7.935 7.918 7.907 7.9 7.887 7.872 7.855 7.855 7.847 7.86 7.858 7.858 7.867 7.865 7.885 7.883 7.858 7.835 7.838 7.825 7.802 7.843 7.783 7.758 7.745 7.735 7.722 7.71 7.707 7.697 7.698 7.7 7.69 7.702 7.677 7.602 7.537 7.96 9.01 9.015 8.5 7.432 7.392 7.562 7.575 7.58 7.58 7.578 7.58 7.582 7.585 7.602 7.615 7.608 7.613 7.615 7.62 7.62 7.608 7.613 7.608 7.597 7.595 7.605 7.605 7.605 7.597 7.588 7.585 7.575 7.555 7.535 7.51 7.497 7.483 7.462 7.427 7.403 7.383 7.375 7.35 7.33 7.305 7.31 7.338 7.372 7.323 7.102 7.702 8.587 7.99 7.622 7.505 7.505 8.673 8.628 7.515 7.49 7.545 7.56 7.55 7.545 7.515 7.483 7.455 7.427 7.395 7.358 7.338 7.305 7.295 7.265 7.26 7.222 7.215 7.222 7.193 7.188 7.2 7.182 7.177 7.148 7.142 7.11 7.06 7.048 7.043 7.04 7.003 6.997 6.995 6.985 6.985 6.98 6.985 6.975 6.967 6.955 6.952 6.972 6.957 6.963 6.957 6.927 6.89 6.905 6.88 6.865 6.847 6.827 6.815 6.767 6.753 6.717 6.69 6.662 6.653 6.615 6.557 6.535 6.475 6.49 6.472 6.452 6.443 6.403 6.415 6.398 6.37 6.385 6.367 6.382 6.343 6.347 6.335 6.315 6.328 6.31 6.31 6.315 6.3 6.283 6.233 6.18 6.173 6.07 6.165 6.125 6.132 6.065 6.07 6.053 6.045 6.005 5.997 5.988 5.985 5.98 5.977 5.965 5.935 5.92 5.898 5.885 5.865 5.855 5.825 5.805 5.795 5.778 5.742 5.73 5.717 5.705 5.702 5.697 5.672 5.675 5.665 5.653 5.648 5.64 5.628 5.622 5.615 5.608 5.59 5.582 5.585 5.578 5.59 5.577 5.562 5.555 5.555 5.548 5.535 5.523 5.512 5.508 5.497 5.495 5.485 5.483 5.475 5.467 5.472 5.452 5.447 5.463 5.448 5.425 5.412 5.392 5.383 5.385 5.372 5.378 5.378 5.382 5.358 5.355 5.358 5.34 5.335 5.345 5.332 5.327 5.33 5.328 5.312 5.312 5.293 5.29 5.283 5.273 5.28 5.275 5.262 5.25 5.233 5.222 5.197 5.198 5.207 5.202 5.2 5.19 5.185 5.195 5.225 5.312 5.32 5.29 5.273 5.273 5.29 5.293 5.242 5.22 5.168 5.162 5.095 4.923 4.847 4.655 4.517 4.632 5.182 5.65 6.983 6.403 6.83 6.615 6.01 5.053 5.44 5.26 5.148 5.258 5.755 6.465 5.405 5.278 5.383 5.238 5.023 4.947 5.282 6.49 5.405 4.86 4.83 4.87 4.963 5.05 5.93 6.237 6.76 6.086 6.265 5.377 6.774 6.857 6.202 6.131 5.764 6.535 9.748 7.997 7.094 7.896 8.251 7.789 6.365 5.604 5.501
9.01 8.97 8.967 8.952 8.94 8.962 8.988 8.925 8.868 8.863 8.845 8.858 8.873 8.847 8.882 8.887 8.873 9.02 9.227 9.685 9.757 9.82 10.113 10.225 10.195 10.113 9.852 9.797 9.767 9.43 9.335 9.195 9.212 9.07 8.773 8.675 8.645 8.66 8.62 8.73 8.927 9.27 9.547 9.827 10.205 10.405 10.387 10.41 10.32 10.095 9.773 9.4 9.395 9.13 9.403 9.445 9.46 9.66 9.75 9.89 10.038 9.76 9.528 9.3 9.1 9.188 9.38 9.495 9.417 9.41 8.972 8.955 9.105 9.485 9.337 9.06 9.057 9.283 8.983 8.927 9.08 8.94 8.96 8.952 9.102 9.012 9.01 9.592 9.29 8.64 8.815 9.173 8.94 8.903 8.905 8.877 8.93 8.935 8.985 8.965 8.93 8.852 8.925 9.127 9.188 9.04 8.887 8.847 8.885 9.042 9.642 9.5 8.462 8.445 8.438 8.347 8.38 8.403 8.373 8.318 8.295 8.28 8.27 8.247 8.215 8.217 8.17 8.167 8.163 8.158 8.13 8.095 8.12 8.087 8.057 8.045 8.045 8.03 8.045 8 7.99 7.98 7.97 7.943 7.938 7.927 7.903 7.91 7.883 7.875 7.863 7.852 7.832 7.835 7.838 7.84 7.85 7.858 7.852 7.878 7.908 7.85 7.86 7.81 7.8 7.805 7.788 7.767 7.735 7.725 7.725 7.707 7.688 7.693 7.697 7.695 7.672 7.68 7.695 7.658 7.633 7.57 8.19 9.16 9.573 8.323 7.293 7.418 7.57 7.56 7.548 7.562 7.56 7.562 7.57 7.58 7.597 7.613 7.615 7.613 7.6 7.597 7.6 7.597 7.595 7.58 7.578 7.58 7.593 7.595 7.595 7.59 7.573 7.553 7.543 7.528 7.5 7.48 7.448 7.435 7.412 7.39 7.37 7.358 7.36 7.32 7.32 7.33 7.318 7.345 7.077 8.22 8.44 7.503 7.532 7.457 7.963 8.708 8.055 7.492 7.517 7.57 7.543 7.545 7.528 7.515 7.477 7.447 7.408 7.378 7.345 7.33 7.315 7.3 7.267 7.26 7.215 7.222 7.222 7.19 7.213 7.2 7.188 7.165 7.153 7.137 7.095 7.068 7.04 7.037 7.025 7.003 6.992 6.983 6.977 6.972 6.977 6.972 6.963 6.972 6.943 6.96 6.952 6.967 6.943 6.938 6.903 6.883 6.892 6.863 6.852 6.828 6.828 6.803 6.767 6.753 6.707 6.688 6.657 6.645 6.593 6.545 6.512 6.48 6.492 6.467 6.467 6.43 6.405 6.4 6.383 6.387 6.355 6.36 6.372 6.327 6.35 6.312 6.315 6.307 6.29 6.315 6.298 6.293 6.265 6.217 6.172 6.105 6.155 6.16 6.145 6.11 6.065 6.08 6.052 6.05 6.005 5.997 5.972 5.975 5.967 5.97 5.965 5.948 5.925 5.895 5.885 5.87 5.858 5.835 5.793 5.767 5.74 5.743 5.73 5.727 5.707 5.717 5.705 5.695 5.668 5.65 5.637 5.633 5.642 5.635 5.615 5.605 5.58 5.568 5.565 5.55 5.55 5.535 5.535 5.525 5.525 5.545 5.535 5.533 5.528 5.523 5.523 5.515 5.505 5.49 5.48 5.483 5.48 5.467 5.465 5.448 5.432 5.43 5.435 5.425 5.407 5.395 5.395 5.395 5.378 5.375 5.38 5.38 5.38 5.39 5.375 5.365 5.355 5.335 5.325 5.325 5.315 5.298 5.303 5.293 5.29 5.285 5.287 5.258 5.253 5.243 5.25 5.25 5.247 5.217 5.193 5.188 5.193 5.207 5.207 5.195 5.19 5.18 5.17 5.17 5.165 5.195 5.19 5.26 5.26 5.267 5.243 5.262 5.193 5.23 5.207 5.168 5.097 5.01 4.95 4.86 4.735 4.562 4.497 4.84 5.037 5.267 4.995 5.81 5.632 5.162 5.94 6.255 7.322 5.307 5.23 5.755 5.113 5.013 4.965 6.352 7.545 6.525 4.9 4.96 4.835 4.895 5.005 5.19 5.523 5.741 6.022 5.664 5.798 6.54 5.95 6.808 6.249 5.854 6.474 7.413 7.527 6.196 7.391 8.649 8.636 6.829 5.534 5.946
8.972 8.983 8.985 8.94 8.967 8.948 8.975 8.95 8.91 8.847 8.868 8.895 8.87 8.845 8.895 8.983 9.028 9.113 9.212 9.443 9.523 9.515 9.743 9.868 10.065 10.28 10.2 10.188 9.872 9.285 9.305 9.212 9.217 9.075 8.755 8.675 8.63 8.682 8.725 8.875 9.017 9.307 9.545 9.823 10.167 10.333 10.32 10.305 10.235 10.017 9.637 9.243 9.047 9.14 9.472 9.673 9.69 9.69 9.738 9.807 9.82 9.58 9.19 9.04 9.003 9.205 9.438 9.675 9.682 9.532 8.91 8.922 8.913 9.38 9.432 9.667 8.977 8.95 8.895 8.83 8.938 8.892 8.975 8.962 8.89 8.97 9.845 9.802 8.967 8.667 8.948 9.405 9.045 8.94 8.855 8.812 8.917 9 8.905 8.918 8.995 9.01 9.118 9.188 9.083 8.972 8.868 8.86 9.12 10.142 9.788 8.467 8.475 8.448 8.342 8.342 8.403 8.387 8.342 8.31 8.29 8.29 8.278 8.227 8.22 8.172 8.153 8.148 8.132 8.13 8.115 8.097 8.075 8.07 8.055 8.045 8.03 8.028 8.02 8.005 7.992 7.972 7.965 7.972 7.943 7.927 7.923 7.903 7.895 7.865 7.868 7.865 7.847 7.832 7.823 7.818 7.838 7.843 7.852 7.85 7.84 7.847 7.852 7.825 7.818 7.825 7.79 7.767 7.758 7.735 7.733 7.73 7.722 7.693 7.69 7.69 7.688 7.665 7.672 7.685 7.672 7.648 7.565 7.555 8.403 9.645 9.41 8.578 7.475 7.488 7.565 7.57 7.575 7.568 7.588 7.582 7.585 7.588 7.59 7.59 7.585 7.582 7.588 7.578 7.573 7.565 7.573 7.562 7.57 7.573 7.58 7.58 7.577 7.565 7.552 7.525 7.503 7.47 7.45 7.438 7.412 7.382 7.37 7.352 7.37 7.345 7.35 7.302 7.298 7.16 7.58 8.493 7.932 7.585 7.51 7.477 8.765 8.77 7.63 7.497 7.538 7.56 7.528 7.545 7.528 7.497 7.46 7.427 7.405 7.355 7.332 7.315 7.33 7.29 7.267 7.25 7.23 7.227 7.213 7.202 7.212 7.19 7.188 7.168 7.148 7.113 7.092 7.062 7.028 7.045 7.005 7 6.992 6.987 6.975 6.972 6.975 6.967 6.96 6.955 6.943 6.955 6.945 6.945 6.94 6.927 6.887 6.887 6.865 6.867 6.838 6.825 6.828 6.795 6.788 6.753 6.717 6.69 6.657 6.633 6.575 6.545 6.545 6.495 6.49 6.457 6.455 6.403 6.403 6.39 6.375 6.39 6.34 6.365 6.345 6.323 6.347 6.315 6.315 6.295 6.298 6.305 6.295 6.307 6.245 6.202 6.217 6.043 6.182 6.135 6.153 6.102 6.078 6.082 6.062 6.055 6.017 5.977 5.967 5.965 5.967 5.96 5.945 5.935 5.9 5.883 5.865 5.863 5.858 5.838 5.823 5.798 5.763 5.742 5.727 5.722 5.713 5.693 5.69 5.66 5.65 5.648 5.63 5.642 5.633 5.628 5.61 5.622 5.61 5.595 5.597 5.59 5.57 5.557 5.545 5.515 5.515 5.515 5.51 5.51 5.503 5.505 5.503 5.485 5.492 5.48 5.465 5.452 5.448 5.45 5.462 5.45 5.455 5.447 5.448 5.438 5.418 5.403 5.395 5.408 5.41 5.398 5.398 5.39 5.387 5.385 5.365 5.365 5.368 5.355 5.347 5.345 5.325 5.315 5.312 5.303 5.293 5.293 5.26 5.262 5.263 5.242 5.225 5.217 5.205 5.215 5.2 5.202 5.188 5.17 5.165 5.177 5.155 5.153 5.17 5.172 5.168 5.158 5.125 5.122 5.108 5.125 5.13 5.17 5.21 5.217 5.262 5.26 5.188 5.222 5.205 5.177 5.15 5.108 5.05 4.963 4.925 4.995 4.943 4.682 5.04 5.293 6.222 6.92 6.765 5.2 5.082 5.2 5.035 4.995 4.955 6.108 6.168 5.33 5.233 4.858 4.8 4.863 4.945 5.294 5.702 5.806 6.339 5.935 6.627 6.026 5.682 6.67 6.103 6.936 6.643 8.015 7.025 7.274 8.706 10.279 8.656 6.037 6.535 6.529
8.985 8.965 8.977 8.97 8.968 8.96 8.97 8.948 8.895 8.845 8.84 8.877 8.92 8.885 8.938 8.975 9.068 9.087 9.292 9.285 9.288 9.413 9.398 9.573 9.717 10.07 10.205 9.688 9.438 9.35 9.318 9.34 9.212 8.98 8.833 8.738 8.78 8.735 8.802 9.04 9.038 9.148 9.477 9.812 10.048 10.15 10.262 10.237 10.125 9.83 9.54 9.205 8.932 9.227 9.6 9.72 9.9 9.892 9.91 9.922 9.825 9.45 9.038 8.952 8.958 9.182 9.493 9.535 9.573 9.073 8.775 8.86 8.91 9.212 9.373 9.195 9.083 9.118 8.932 8.835 8.812 9.21 9.31 9.125 9.265 8.977 9.483 9.352 9.023 8.702 9.22 11.05 9.673 9.078 8.955 8.842 8.858 8.875 8.955 8.997 9.155 9.19 9.165 9.168 9.08 8.935 8.943 9.14 10.085 9.773 8.523 8.488 8.475 8.403 8.355 8.405 8.418 8.365 8.323 8.302 8.295 8.262 8.243 8.238 8.218 8.188 8.163 8.135 8.128 8.118 8.115 8.113 8.102 8.07 8.058 8.055 8.038 8.035 8.01 8.005 7.99 7.98 7.97 7.97 7.972 7.955 7.92 7.912 7.903 7.892 7.878 7.858 7.845 7.838 7.83 7.827 7.812 7.812 7.818 7.815 7.825 7.823 7.83 7.85 7.83 7.8 7.793 7.82 7.778 7.755 7.735 7.722 7.7 7.693 7.68 7.677 7.675 7.677 7.665 7.673 7.675 7.69 7.688 7.648 7.585 7.8 8.655 9.32 8.852 7.608 7.225 7.512 7.58 7.568 7.573 7.577 7.575 7.58 7.582 7.58 7.575 7.562 7.56 7.562 7.565 7.568 7.57 7.56 7.555 7.55 7.557 7.56 7.565 7.548 7.543 7.528 7.497 7.472 7.445 7.42 7.398 7.38 7.34 7.33 7.363 7.36 7.398 7.34 7.347 7.04 8.203 8.767 7.49 7.705 7.463 7.952 8.807 8.34 7.497 7.525 7.56 7.548 7.533 7.54 7.515 7.492 7.45 7.427 7.387 7.342 7.327 7.315 7.318 7.275 7.278 7.24 7.235 7.222 7.21 7.222 7.205 7.195 7.18 7.168 7.145 7.093 7.088 7.062 7.037 7.028 7.013 7.005 6.99 6.985 6.963 6.967 6.967 6.96 6.96 6.94 6.952 6.945 6.95 6.927 6.93 6.9 6.885 6.88 6.845 6.855 6.818 6.83 6.812 6.788 6.775 6.74 6.717 6.677 6.657 6.613 6.57 6.54 6.495 6.505 6.47 6.452 6.425 6.4 6.403 6.375 6.385 6.378 6.35 6.36 6.328 6.332 6.335 6.312 6.305 6.278 6.3 6.298 6.295 6.278 6.247 6.188 6.173 6.07 6.19 6.142 6.148 6.102 6.115 6.068 6.075 6.05 6.023 5.997 5.985 5.977 5.972 5.96 5.955 5.94 5.912 5.895 5.865 5.835 5.825 5.82 5.818 5.785 5.762 5.76 5.745 5.733 5.713 5.69 5.67 5.655 5.635 5.635 5.613 5.625 5.635 5.62 5.613 5.61 5.595 5.578 5.562 5.548 5.54 5.55 5.552 5.535 5.515 5.515 5.5 5.503 5.505 5.492 5.488 5.477 5.465 5.472 5.467 5.457 5.443 5.45 5.432 5.443 5.443 5.432 5.425 5.415 5.415 5.42 5.412 5.41 5.42 5.423 5.425 5.423 5.403 5.39 5.372 5.352 5.347 5.335 5.345 5.338 5.327 5.32 5.323 5.307 5.295 5.29 5.28 5.255 5.263 5.255 5.255 5.25 5.235 5.22 5.215 5.185 5.162 5.162 5.185 5.168 5.16 5.17 5.135 5.125 5.132 5.142 5.168 5.14 5.12 5.113 5.118 5.108 5.1 5.102 5.11 5.142 5.19 5.177 5.21 5.245 5.195 5.263 5.255 5.165 5.078 4.995 4.892 4.738 5.49 4.997 5.677 5.99 5.468 5.15 5.033 5.048 5.03 4.99 4.952 4.915 4.967 4.863 4.865 5.045 4.843 4.823 4.89 5.24 5.567 5.67 5.769 5.91 6.967 6.47 5.738 6.418 6.998 6.992 6.417 6.854 7.021 8.399 7.636 7.751 6.141 6.252 6.964 6.473
8.997 8.972 8.94 8.935 8.927 8.927 8.913 8.965 8.942 8.852 8.852 8.887 8.908 8.918 8.96 9.062 9.142 9.065 9.4 9.377 9.345 9.203 9.298 9.253 9.415 9.802 10.047 9.882 9.44 9.31 9.375 9.417 9.245 9.045 8.712 8.78 8.898 8.828 9.07 9.118 9.08 9.205 9.483 9.795 10.065 10.14 10.148 10.125 9.922 9.698 9.435 9.11 9.038 9.273 9.613 9.842 9.94 10.01 10.057 9.943 9.75 9.36 8.97 8.927 8.998 9.265 9.535 9.47 9.17 8.753 8.743 8.935 9.1 8.997 9.007 8.92 9.49 8.925 8.807 8.757 8.765 9.483 9.4 9.425 9.378 9.05 9.967 9.57 8.712 8.73 9.235 11.028 9.61 9.615 9.625 8.965 8.915 8.952 8.993 9.1 9.245 9.3 9.19 9.15 9.083 9.055 9.29 9.863 9.855 8.55 8.477 8.495 8.44 8.358 8.413 8.432 8.417 8.355 8.312 8.298 8.288 8.265 8.24 8.22 8.22 8.2 8.173 8.158 8.127 8.113 8.11 8.087 8.087 8.09 8.073 8.057 8.048 8.042 8.02 8.005 7.988 7.98 7.975 7.965 7.945 7.945 7.95 7.938 7.915 7.882 7.878 7.868 7.85 7.852 7.83 7.838 7.828 7.803 7.8 7.812 7.83 7.82 7.823 7.818 7.823 7.823 7.795 7.787 7.778 7.77 7.745 7.737 7.722 7.697 7.68 7.682 7.68 7.662 7.668 7.685 7.695 7.677 7.677 7.707 7.712 7.642 7.573 7.915 9.087 9.13 8.32 7.548 7.26 7.515 7.573 7.57 7.568 7.55 7.553 7.557 7.555 7.555 7.543 7.54 7.545 7.543 7.56 7.575 7.568 7.555 7.543 7.54 7.537 7.53 7.535 7.515 7.485 7.46 7.438 7.412 7.4 7.38 7.342 7.325 7.365 7.368 7.395 7.307 7.293 7.352 8.475 8.4 7.557 7.555 7.483 8.262 8.78 7.755 7.515 7.543 7.56 7.537 7.53 7.533 7.503 7.463 7.448 7.412 7.367 7.345 7.325 7.325 7.3 7.293 7.265 7.238 7.258 7.222 7.222 7.227 7.207 7.193 7.177 7.168 7.117 7.085 7.075 7.043 7.04 7.02 7.003 6.992 6.977 6.975 6.97 6.972 6.952 6.955 6.947 6.932 6.947 6.943 6.938 6.935 6.918 6.878 6.887 6.865 6.852 6.835 6.823 6.82 6.795 6.79 6.758 6.737 6.705 6.685 6.653 6.605 6.578 6.535 6.508 6.5 6.457 6.452 6.403 6.403 6.387 6.37 6.385 6.347 6.347 6.343 6.327 6.355 6.303 6.307 6.293 6.275 6.303 6.285 6.29 6.265 6.233 6.18 6.09 6.145 6.182 6.137 6.137 6.113 6.122 6.073 6.077 6.025 6.01 5.988 5.992 5.995 5.975 5.952 5.922 5.915 5.903 5.885 5.863 5.85 5.843 5.823 5.81 5.793 5.76 5.74 5.715 5.712 5.695 5.67 5.653 5.637 5.63 5.622 5.617 5.613 5.625 5.61 5.61 5.61 5.597 5.585 5.585 5.568 5.557 5.545 5.52 5.503 5.5 5.505 5.503 5.497 5.503 5.485 5.472 5.472 5.46 5.448 5.45 5.44 5.438 5.443 5.438 5.438 5.432 5.418 5.418 5.418 5.4 5.403 5.403 5.398 5.39 5.398 5.395 5.403 5.395 5.387 5.387 5.395 5.387 5.39 5.375 5.36 5.355 5.345 5.34 5.315 5.307 5.303 5.28 5.275 5.25 5.242 5.227 5.233 5.24 5.217 5.222 5.23 5.21 5.202 5.215 5.195 5.18 5.18 5.155 5.148 5.135 5.14 5.16 5.142 5.13 5.115 5.11 5.105 5.115 5.125 5.118 5.113 5.093 5.08 5.075 5.118 5.168 5.215 5.193 5.162 5.055 4.977 4.872 4.62 5.435 5.295 5.73 5.905 5.258 5.102 5.025 5.048 5.037 4.983 4.94 4.903 4.887 4.88 4.875 4.927 4.847 4.823 4.865 5.175 5.453 5.419 5.186 5.728 6.569 5.779 6.064 6.09 6.704 6.831 6.662 7.87 8.277 7.349 6.389 5.494 5.476 6.641 7.411 6.027
8.993 8.983 8.96 8.935 8.948 8.925 8.925 8.955 8.908 8.87 8.892 8.915 8.92 8.932 8.962 9.102 9.06 9.32 9.34 9.495 9.525 9.523 9.523 9.493 9.443 9.782 10.085 10.245 9.517 9.31 9.415 9.39 9.347 9.038 8.738 8.75 8.762 8.812 9.127 9.13 9.153 9.363 9.6 9.818 10.03 10.137 10.142 10 9.773 9.533 9.255 9.015 9.142 9.438 9.73 9.802 9.95 10.045 10.033 9.855 9.595 9.135 8.872 8.935 9.132 9.5 9.528 9.448 9.07 8.925 8.795 9.23 9.677 9.61 8.948 9.135 8.988 8.96 9.045 9.017 8.858 8.903 9.355 9.493 9.168 9.448 8.935 9.28 8.625 8.733 9.083 9.135 8.82 8.972 9 8.985 8.95 9.005 9.07 9.245 9.212 9.195 9.07 9.055 9.062 9.155 9.665 10.05 8.655 8.485 8.5 8.47 8.38 8.438 8.452 8.432 8.38 8.352 8.315 8.3 8.253 8.245 8.235 8.205 8.198 8.182 8.188 8.167 8.145 8.132 8.115 8.097 8.075 8.057 8.068 8.06 8.035 8.015 8.017 7.997 7.99 7.997 7.97 7.967 7.963 7.945 7.927 7.925 7.925 7.9 7.892 7.88 7.875 7.86 7.83 7.82 7.84 7.84 7.818 7.793 7.79 7.787 7.803 7.793 7.81 7.81 7.798 7.793 7.793 7.78 7.763 7.76 7.753 7.72 7.702 7.672 7.675 7.68 7.66 7.67 7.695 7.693 7.665 7.68 7.682 7.702 7.685 7.648 7.66 8.365 8.525 8.727 8.48 8.057 7.278 7.557 7.555 7.54 7.535 7.533 7.545 7.543 7.52 7.508 7.523 7.533 7.54 7.545 7.555 7.545 7.538 7.533 7.52 7.512 7.497 7.492 7.47 7.445 7.43 7.407 7.382 7.372 7.363 7.355 7.367 7.39 7.35 7.31 7.08 8.123 8.698 7.615 7.698 7.46 7.675 8.837 8.44 7.505 7.525 7.568 7.543 7.53 7.533 7.517 7.488 7.465 7.44 7.41 7.372 7.343 7.312 7.328 7.307 7.3 7.258 7.258 7.265 7.233 7.233 7.227 7.205 7.188 7.182 7.157 7.108 7.088 7.088 7.04 7.04 7.013 7.005 6.99 6.98 6.98 6.98 6.965 6.947 6.947 6.94 6.943 6.938 6.952 6.935 6.938 6.903 6.875 6.882 6.858 6.85 6.815 6.832 6.81 6.793 6.79 6.747 6.733 6.693 6.68 6.645 6.608 6.568 6.523 6.515 6.485 6.465 6.43 6.378 6.405 6.372 6.368 6.375 6.347 6.352 6.328 6.33 6.327 6.287 6.29 6.275 6.285 6.285 6.285 6.285 6.255 6.225 6.205 6.068 6.19 6.162 6.15 6.113 6.12 6.108 6.085 6.065 6.04 6.025 5.997 5.983 5.97 5.952 5.93 5.905 5.883 5.898 5.885 5.858 5.83 5.82 5.815 5.818 5.798 5.78 5.758 5.75 5.707 5.682 5.653 5.642 5.625 5.615 5.61 5.605 5.597 5.605 5.575 5.575 5.568 5.553 5.555 5.543 5.533 5.55 5.548 5.543 5.525 5.52 5.523 5.495 5.505 5.508 5.492 5.477 5.485 5.467 5.455 5.457 5.435 5.415 5.403 5.42 5.415 5.407 5.41 5.395 5.39 5.398 5.403 5.398 5.405 5.403 5.4 5.382 5.39 5.387 5.387 5.375 5.365 5.365 5.355 5.358 5.358 5.358 5.352 5.34 5.327 5.312 5.295 5.293 5.298 5.293 5.283 5.278 5.255 5.233 5.235 5.222 5.205 5.21 5.207 5.19 5.188 5.177 5.177 5.165 5.148 5.15 5.14 5.128 5.132 5.125 5.113 5.117 5.085 5.07 5.057 5.057 5.075 5.088 5.068 5.075 5.06 5.08 5.095 5.148 5.13 5.017 4.957 4.892 4.943 5.278 6.23 6.465 7.19 5.312 5.165 5.102 5.113 5.04 4.997 4.96 4.923 4.912 4.88 4.887 5.015 4.965 4.818 4.83 5.019 5.34 5.412 5.327 5.005 5.923 5.582 5.452 5.952 6.893 6.881 5.959 7.737 9.008 6.156 5.441 5.479 6.581 9.359 9.387 8.304
8.977 8.965 8.93 8.97 8.94 8.915 8.89 8.972 8.927 8.88 8.892 8.88 8.923 8.938 8.988 9.125 9.158 9.288 9.292 9.405 9.61 9.887 9.695 9.665 9.837 9.975 10.07 9.743 9.28 9.27 9.363 9.345 9.238 9.055 8.882 8.75 8.773 8.793 9.247 8.988 9.198 9.523 9.677 9.86 10.005 10.03 10.007 9.892 9.738 9.485 9.235 9.055 9.255 9.525 9.773 9.825 9.935 9.93 9.925 9.688 9.337 9.125 9.21 8.998 9.307 9.642 9.55 9.345 8.938 8.735 9.195 9.335 9.15 8.975 9.577 9.818 9.512 9.453 9.365 9.7 9.425 8.805 8.868 9.142 8.985 9.073 9.403 8.66 8.547 8.717 8.987 8.977 8.833 8.825 8.82 8.94 8.925 9.04 9.182 9.247 9.1 9.06 9.005 9.015 9.185 9.315 9.833 8.875 8.485 8.493 8.507 8.398 8.443 8.465 8.455 8.417 8.38 8.358 8.328 8.292 8.26 8.225 8.222 8.217 8.208 8.18 8.17 8.155 8.148 8.125 8.113 8.108 8.083 8.062 8.038 8.05 8.045 8.042 8.015 8 7.988 7.977 7.975 7.963 7.955 7.938 7.932 7.92 7.918 7.92 7.908 7.885 7.875 7.868 7.86 7.843 7.828 7.82 7.828 7.82 7.818 7.793 7.778 7.78 7.785 7.785 7.783 7.78 7.793 7.783 7.773 7.79 7.76 7.778 7.722 7.693 7.68 7.657 7.658 7.66 7.67 7.672 7.682 7.677 7.67 7.677 7.702 7.727 7.69 7.642 7.59 7.957 8.618 8.97 8.32 7.368 7.408 7.557 7.535 7.523 7.517 7.525 7.52 7.517 7.51 7.51 7.515 7.515 7.52 7.523 7.53 7.52 7.52 7.497 7.492 7.483 7.465 7.445 7.425 7.42 7.39 7.36 7.37 7.363 7.358 7.4 7.323 7.29 7.233 8.43 8.297 7.445 7.515 7.472 8.168 8.753 7.93 7.51 7.562 7.575 7.533 7.537 7.52 7.495 7.472 7.452 7.427 7.395 7.383 7.35 7.338 7.33 7.325 7.298 7.258 7.278 7.267 7.25 7.26 7.227 7.217 7.188 7.177 7.145 7.105 7.095 7.073 7.045 7.033 7.013 6.985 6.983 6.98 6.977 6.983 6.952 6.95 6.955 6.93 6.947 6.938 6.952 6.938 6.918 6.88 6.88 6.858 6.86 6.845 6.812 6.825 6.785 6.79 6.773 6.737 6.72 6.702 6.677 6.635 6.61 6.552 6.52 6.52 6.477 6.472 6.412 6.4 6.387 6.365 6.368 6.352 6.347 6.332 6.318 6.325 6.295 6.293 6.275 6.27 6.29 6.28 6.298 6.273 6.26 6.205 6.205 6.08 6.202 6.13 6.155 6.11 6.125 6.097 6.09 6.05 6.033 6.008 5.997 5.98 5.97 5.962 5.938 5.922 5.895 5.88 5.875 5.847 5.828 5.812 5.8 5.798 5.775 5.76 5.727 5.702 5.682 5.657 5.648 5.63 5.61 5.613 5.592 5.602 5.6 5.588 5.585 5.555 5.565 5.56 5.545 5.555 5.535 5.508 5.52 5.508 5.493 5.5 5.497 5.483 5.467 5.475 5.457 5.457 5.475 5.457 5.452 5.455 5.455 5.45 5.445 5.427 5.408 5.403 5.4 5.37 5.38 5.385 5.38 5.368 5.36 5.39 5.383 5.385 5.383 5.375 5.387 5.387 5.378 5.383 5.378 5.372 5.358 5.352 5.332 5.33 5.332 5.328 5.305 5.293 5.283 5.27 5.27 5.275 5.265 5.255 5.263 5.258 5.258 5.24 5.217 5.207 5.202 5.195 5.173 5.17 5.153 5.13 5.12 5.13 5.102 5.108 5.105 5.108 5.108 5.097 5.105 5.092 5.065 5.062 5.045 5.045 5.06 5.095 5.145 5.153 5.057 4.985 4.945 4.863 4.785 5.505 6.043 5.827 5.767 5.47 5.323 5.185 5.162 5.037 4.985 4.963 4.932 4.905 4.865 4.858 4.895 5.092 4.855 4.88 5.155 5.339 4.937 5.277 5.07 5.306 5.218 5.205 6.726 6.271 6.869 6.496 7.345 7.651 6.544 5.536 7.561 7.679 6.031 6.474 6.655
8.965 8.942 8.94 8.94 8.905 8.878 8.94 9.062 8.977 8.915 8.875 8.87 8.89 8.922 8.915 8.99 9.263 9.327 9.193 9.408 9.682 10.16 10.45 10.35 10.083 10.145 10.128 9.915 9.34 9.21 9.292 9.358 9.435 8.94 8.77 8.688 8.735 8.72 8.965 8.965 9.247 9.57 9.705 9.9 9.968 9.983 9.898 9.738 9.57 9.405 9.135 9.095 9.323 9.605 9.722 9.812 9.783 9.703 9.68 9.46 9.158 9.085 9.065 9.05 9.417 9.6 9.445 9.312 8.717 8.7 8.805 8.958 8.8 8.823 9.44 8.98 9.655 9.887 9.913 9.42 8.915 8.847 8.825 8.855 8.932 9.675 8.975 8.597 8.627 8.8 9.245 9.358 8.903 8.775 8.745 8.875 8.975 9.08 9.26 9.26 9.188 9.047 9.073 9.168 9.385 9.74 9.285 8.487 8.507 8.515 8.425 8.448 8.472 8.467 8.46 8.423 8.39 8.37 8.323 8.29 8.267 8.23 8.215 8.212 8.19 8.173 8.165 8.15 8.153 8.142 8.128 8.097 8.095 8.085 8.075 8.033 8.005 8.007 8.012 8.015 7.985 7.975 7.96 7.952 7.935 7.938 7.94 7.927 7.91 7.903 7.892 7.898 7.887 7.88 7.88 7.852 7.855 7.843 7.823 7.807 7.805 7.805 7.798 7.778 7.758 7.775 7.767 7.763 7.767 7.775 7.787 7.767 7.755 7.79 7.74 7.762 7.705 7.693 7.665 7.648 7.645 7.65 7.658 7.668 7.688 7.672 7.665 7.685 7.717 7.74 7.677 7.62 7.703 8.745 8.753 8.49 7.885 7.158 7.467 7.55 7.528 7.492 7.505 7.503 7.5 7.495 7.5 7.513 7.513 7.512 7.505 7.508 7.51 7.495 7.488 7.465 7.445 7.427 7.418 7.407 7.387 7.363 7.355 7.34 7.358 7.358 7.287 7.068 7.798 8.807 8 7.702 7.44 7.595 8.79 8.405 7.55 7.548 7.585 7.555 7.535 7.535 7.503 7.485 7.467 7.438 7.408 7.38 7.382 7.358 7.358 7.332 7.335 7.28 7.267 7.295 7.28 7.265 7.247 7.215 7.198 7.185 7.177 7.128 7.11 7.11 7.06 7.055 7.028 7.003 6.995 6.983 6.975 6.975 6.972 6.95 6.965 6.952 6.95 6.938 6.952 6.955 6.935 6.918 6.887 6.878 6.847 6.868 6.832 6.827 6.807 6.798 6.793 6.755 6.742 6.717 6.693 6.662 6.63 6.593 6.538 6.54 6.503 6.47 6.45 6.395 6.41 6.367 6.355 6.358 6.328 6.338 6.315 6.315 6.312 6.273 6.278 6.262 6.278 6.285 6.285 6.295 6.265 6.25 6.19 6.16 6.18 6.17 6.148 6.175 6.085 6.108 6.088 6.108 6.055 6.02 5.997 5.988 5.962 5.957 5.945 5.935 5.903 5.898 5.875 5.865 5.838 5.815 5.793 5.783 5.8 5.795 5.775 5.75 5.722 5.688 5.662 5.618 5.597 5.582 5.582 5.582 5.588 5.557 5.562 5.54 5.525 5.535 5.54 5.545 5.54 5.517 5.517 5.52 5.505 5.485 5.49 5.48 5.457 5.452 5.46 5.462 5.457 5.457 5.452 5.427 5.445 5.427 5.425 5.42 5.422 5.405 5.415 5.43 5.4 5.38 5.387 5.365 5.36 5.365 5.36 5.36 5.358 5.365 5.347 5.35 5.345 5.338 5.345 5.365 5.367 5.347 5.365 5.35 5.332 5.33 5.323 5.31 5.312 5.307 5.31 5.288 5.262 5.235 5.24 5.233 5.22 5.227 5.227 5.225 5.215 5.21 5.212 5.18 5.195 5.19 5.17 5.17 5.155 5.142 5.135 5.12 5.102 5.088 5.105 5.085 5.07 5.073 5.073 5.068 5.065 5.122 5.113 5.162 5.207 5.075 4.975 4.94 5.33 4.948 4.69 5.472 6.565 6.28 5.517 5.338 5.222 5.125 5.015 4.99 4.972 4.947 4.91 4.88 4.835 4.83 5.233 4.89 5.028 5.151 5.366 5.12 5.437 5.695 5.089 5.033 5.443 5.974 5.844 7.304 8.477 5.705 5.361 7.816 9.916 9.786 8.849 6.451 5.916 6.016
8.995 8.972 8.985 8.92 8.908 8.892 9.045 9.04 9.038 8.922 8.86 8.82 8.882 8.892 9.013 9.068 9.355 9.222 9.222 9.435 10.118 10.498 10.792 11.015 10.727 10.515 10.432 10.182 9.43 9.298 9.583 9.42 9.405 8.735 8.613 8.585 8.59 8.767 8.927 9.077 9.327 9.565 9.833 9.962 10.02 9.967 9.9 9.67 9.448 9.238 9.045 9.14 9.347 9.55 9.702 9.717 9.708 9.645 9.585 9.252 9.035 9.145 9.028 9.158 9.497 9.483 9.337 9.392 8.635 8.818 8.793 8.865 9.175 8.882 8.877 9.02 9.247 10.31 10.278 9.745 9.073 8.812 8.833 9.34 9.33 9.188 8.65 8.61 8.8 9.23 9.142 9.493 9.142 8.955 8.903 8.88 9.062 9.238 9.325 9.315 9.215 9.065 9.217 9.347 9.815 9.592 8.52 8.515 8.528 8.438 8.442 8.487 8.495 8.472 8.43 8.405 8.39 8.355 8.33 8.305 8.285 8.255 8.227 8.202 8.205 8.195 8.18 8.155 8.14 8.128 8.137 8.115 8.1 8.09 8.068 8.048 8.035 8.01 7.995 8 7.99 7.977 7.993 7.965 7.943 7.945 7.935 7.918 7.91 7.918 7.912 7.895 7.883 7.89 7.88 7.878 7.852 7.86 7.845 7.815 7.795 7.793 7.798 7.79 7.775 7.765 7.76 7.753 7.735 7.762 7.747 7.738 7.745 7.742 7.735 7.715 7.698 7.693 7.675 7.658 7.665 7.65 7.637 7.635 7.65 7.67 7.67 7.658 7.67 7.677 7.68 7.693 7.685 7.622 7.677 8.565 9.262 8.28 7.403 7.257 7.543 7.523 7.49 7.483 7.505 7.5 7.503 7.497 7.503 7.497 7.495 7.508 7.5 7.497 7.495 7.472 7.448 7.422 7.4 7.38 7.367 7.358 7.338 7.315 7.367 7.275 7.233 7.18 8.485 8.868 7.453 7.58 7.44 8.247 8.727 7.88 7.54 7.57 7.582 7.535 7.545 7.535 7.495 7.472 7.452 7.42 7.37 7.375 7.365 7.352 7.345 7.352 7.332 7.283 7.298 7.295 7.283 7.273 7.245 7.238 7.2 7.17 7.165 7.13 7.115 7.088 7.053 7.04 7.028 6.992 6.987 6.972 6.97 6.988 6.96 6.963 6.962 6.955 6.948 6.94 6.972 6.957 6.943 6.898 6.882 6.858 6.85 6.86 6.827 6.83 6.8 6.793 6.783 6.755 6.738 6.715 6.698 6.655 6.635 6.568 6.543 6.525 6.483 6.472 6.432 6.403 6.4 6.347 6.35 6.338 6.332 6.323 6.305 6.31 6.298 6.27 6.265 6.263 6.265 6.27 6.278 6.273 6.262 6.227 6.168 6.068 6.215 6.148 6.155 6.16 6.088 6.08 6.055 6.09 6.043 6.02 6.005 5.983 5.96 5.963 5.935 5.92 5.907 5.895 5.88 5.847 5.838 5.812 5.79 5.77 5.77 5.755 5.75 5.727 5.702 5.665 5.633 5.63 5.608 5.588 5.582 5.578 5.565 5.575 5.552 5.53 5.53 5.517 5.492 5.49 5.503 5.5 5.5 5.487 5.483 5.462 5.472 5.45 5.457 5.46 5.452 5.443 5.448 5.452 5.435 5.43 5.427 5.425 5.407 5.405 5.392 5.38 5.38 5.4 5.387 5.382 5.403 5.4 5.383 5.378 5.372 5.358 5.355 5.355 5.335 5.352 5.35 5.343 5.345 5.343 5.335 5.312 5.307 5.315 5.307 5.295 5.302 5.293 5.273 5.29 5.283 5.265 5.287 5.265 5.265 5.262 5.26 5.242 5.227 5.21 5.2 5.2 5.19 5.195 5.193 5.182 5.165 5.162 5.165 5.142 5.135 5.128 5.118 5.115 5.113 5.113 5.095 5.082 5.043 5.038 5.033 5.045 5.073 5.128 5.172 5.015 4.963 4.952 4.69 5.695 4.85 5.932 7.935 7.427 5.618 5.33 5.177 5.073 5.017 5 4.97 4.962 4.935 4.925 4.885 4.828 4.83 4.823 4.983 5.117 5.307 5.69 6.412 6.083 5.397 4.974 5.199 6.476 8.381 8.486 7.658 5.463 5.391 8.399 9.681 8.991 6.301 6.174 5.884 5.871
8.993 8.96 8.943 8.913 8.913 8.945 8.952 9.023 9.007 8.925 8.878 8.818 8.86 8.892 8.967 9.253 9.262 9.29 9.325 9.66 10.172 10.757 11.125 11.265 10.858 10.54 10.6 10.202 9.35 9.413 9.533 9.507 9.398 8.845 8.663 8.667 8.68 8.602 8.792 9.33 9.608 9.685 9.878 9.977 10.093 10.007 9.92 9.653 9.408 9.142 9.085 9.222 9.392 9.57 9.745 9.705 9.577 9.655 9.455 9.075 8.927 9.083 9.068 9.3 9.515 9.34 9.08 8.823 9.047 8.677 8.65 8.89 8.915 8.792 8.845 8.913 9.122 9.82 10.562 9.925 9.038 8.84 8.825 9.965 9.623 8.81 8.665 8.77 8.94 9.145 9.67 9.188 8.96 8.87 8.91 9.073 9.658 9.545 9.46 9.257 9.19 9.295 9.45 9.892 9.74 8.56 8.515 8.515 8.467 8.452 8.493 8.477 8.46 8.438 8.42 8.403 8.382 8.358 8.333 8.3 8.295 8.275 8.255 8.217 8.21 8.175 8.17 8.157 8.148 8.148 8.13 8.11 8.097 8.083 8.08 8.057 8.032 8.025 8 7.963 7.97 7.977 7.983 7.962 7.955 7.943 7.943 7.927 7.907 7.925 7.9 7.905 7.89 7.885 7.887 7.895 7.88 7.85 7.855 7.835 7.82 7.798 7.785 7.767 7.76 7.76 7.755 7.733 7.717 7.74 7.735 7.74 7.745 7.73 7.725 7.707 7.695 7.693 7.682 7.672 7.648 7.655 7.635 7.628 7.637 7.64 7.645 7.65 7.67 7.69 7.693 7.677 7.69 7.742 7.67 7.61 7.957 8.368 8.818 8.67 7.65 7.318 7.562 7.515 7.5 7.512 7.503 7.5 7.508 7.503 7.49 7.495 7.495 7.49 7.477 7.467 7.443 7.418 7.387 7.372 7.368 7.358 7.318 7.318 7.323 7.27 7.085 7.742 8.9 8.073 7.55 7.46 7.517 8.905 8.48 7.555 7.557 7.588 7.568 7.535 7.55 7.51 7.475 7.443 7.422 7.392 7.343 7.36 7.343 7.352 7.34 7.34 7.33 7.3 7.307 7.273 7.285 7.273 7.24 7.222 7.188 7.177 7.153 7.128 7.108 7.068 7.05 7.052 7.02 7.005 6.987 6.975 6.977 6.988 6.957 6.97 6.955 6.975 6.955 6.975 6.983 6.96 6.925 6.885 6.887 6.852 6.865 6.845 6.832 6.828 6.795 6.795 6.765 6.76 6.727 6.713 6.693 6.65 6.625 6.56 6.548 6.52 6.48 6.47 6.418 6.412 6.38 6.345 6.35 6.34 6.335 6.3 6.307 6.295 6.278 6.27 6.253 6.263 6.253 6.265 6.28 6.255 6.245 6.177 6.188 6.085 6.205 6.137 6.17 6.157 6.097 6.075 6.065 6.068 6.025 5.983 5.97 5.947 5.932 5.922 5.915 5.903 5.898 5.89 5.885 5.86 5.847 5.83 5.8 5.787 5.767 5.773 5.755 5.727 5.688 5.64 5.622 5.597 5.575 5.562 5.575 5.573 5.562 5.553 5.548 5.533 5.515 5.523 5.523 5.52 5.517 5.507 5.492 5.485 5.465 5.46 5.46 5.447 5.438 5.455 5.44 5.425 5.43 5.42 5.415 5.412 5.42 5.4 5.395 5.405 5.39 5.392 5.41 5.403 5.387 5.392 5.387 5.365 5.36 5.36 5.358 5.358 5.35 5.34 5.315 5.312 5.303 5.293 5.307 5.318 5.315 5.3 5.298 5.28 5.28 5.285 5.287 5.28 5.285 5.283 5.26 5.253 5.247 5.242 5.242 5.233 5.23 5.233 5.255 5.242 5.215 5.225 5.215 5.2 5.2 5.205 5.19 5.182 5.175 5.15 5.133 5.108 5.1 5.077 5.068 5.085 5.075 5.077 5.055 5.048 5.033 5.108 5.1 5.12 5.065 4.983 4.955 4.915 5.79 4.91 4.648 5.555 5.548 5.863 5.41 5.25 5.153 5.078 5.03 5.03 4.992 4.985 4.962 4.948 4.923 4.903 4.863 4.845 4.856 5.069 5.149 5.69 5.946 5.584 5.254 5.482 5.112 6.691 7.925 6.254 5.116 5.213 7.319 9.599 6.509 7.084 6.001 5.851 5.826 5.889
8.972 8.965 8.97 8.952 9.023 8.975 8.975 9.035 9.052 8.927 8.875 8.847 8.885 8.89 8.975 9.102 9.243 9.343 9.273 9.565 10.19 10.968 11.177 11.3 10.962 10.735 10.562 10.205 9.517 9.52 9.515 9.548 9.67 8.93 8.792 8.727 8.715 8.645 8.86 9.398 9.583 9.665 9.878 9.997 10.047 10.035 9.927 9.632 9.3 9.11 9.17 9.335 9.538 9.613 9.717 9.672 9.632 9.602 9.298 8.945 8.915 9.005 9.195 9.483 9.438 9.2 9.012 8.727 8.81 8.825 8.875 9.068 8.773 9.07 9.595 8.835 9.382 9.985 10.165 9.39 8.965 8.885 8.892 9.752 9.243 8.7 8.72 9.135 9.057 8.975 9.218 9.288 9.273 8.89 8.988 9.505 10.14 10.222 9.767 9.34 9.38 9.475 9.882 9.593 8.615 8.51 8.532 8.493 8.448 8.495 8.485 8.45 8.422 8.427 8.413 8.39 8.37 8.347 8.323 8.295 8.283 8.288 8.265 8.23 8.208 8.19 8.182 8.16 8.148 8.148 8.148 8.13 8.108 8.108 8.09 8.073 8.045 8.028 8.01 8.003 7.983 7.957 7.955 7.972 7.988 7.962 7.95 7.932 7.918 7.905 7.898 7.905 7.91 7.887 7.882 7.878 7.872 7.887 7.852 7.85 7.83 7.81 7.798 7.787 7.763 7.755 7.747 7.733 7.715 7.685 7.698 7.707 7.707 7.715 7.717 7.707 7.697 7.68 7.668 7.675 7.695 7.673 7.658 7.642 7.64 7.635 7.64 7.625 7.64 7.677 7.682 7.677 7.67 7.677 7.685 7.707 7.67 7.622 7.913 8.52 8.815 8.533 7.23 7.367 7.52 7.54 7.52 7.5 7.492 7.485 7.487 7.477 7.48 7.475 7.463 7.448 7.44 7.42 7.385 7.36 7.355 7.338 7.307 7.345 7.3 7.32 7.157 8.455 8.833 7.582 7.557 7.457 8.075 8.868 7.92 7.548 7.562 7.59 7.553 7.528 7.515 7.483 7.443 7.418 7.395 7.35 7.34 7.332 7.318 7.325 7.338 7.345 7.285 7.293 7.295 7.283 7.29 7.25 7.242 7.207 7.19 7.173 7.137 7.128 7.097 7.062 7.06 7.05 7.023 7.003 6.987 6.985 6.987 6.983 6.97 6.972 6.965 6.98 6.965 6.99 6.98 6.965 6.912 6.898 6.882 6.872 6.87 6.845 6.843 6.812 6.815 6.798 6.763 6.76 6.73 6.725 6.695 6.658 6.615 6.565 6.562 6.5 6.487 6.457 6.412 6.4 6.355 6.358 6.338 6.33 6.32 6.3 6.302 6.287 6.262 6.255 6.247 6.253 6.247 6.263 6.26 6.242 6.23 6.155 6.173 6.145 6.185 6.157 6.185 6.137 6.102 6.068 6.085 6.068 6.03 6 5.972 5.965 5.935 5.925 5.912 5.898 5.892 5.885 5.87 5.84 5.825 5.82 5.793 5.765 5.747 5.76 5.758 5.733 5.72 5.68 5.637 5.602 5.597 5.58 5.578 5.562 5.557 5.54 5.523 5.517 5.495 5.492 5.483 5.47 5.46 5.463 5.462 5.467 5.455 5.465 5.438 5.435 5.415 5.425 5.43 5.427 5.425 5.418 5.4 5.405 5.38 5.385 5.4 5.375 5.365 5.368 5.387 5.375 5.372 5.382 5.378 5.363 5.37 5.37 5.355 5.34 5.343 5.35 5.33 5.32 5.323 5.29 5.278 5.275 5.27 5.275 5.26 5.26 5.267 5.258 5.275 5.255 5.265 5.26 5.255 5.258 5.265 5.258 5.258 5.255 5.258 5.237 5.225 5.215 5.205 5.207 5.197 5.188 5.195 5.193 5.175 5.175 5.19 5.16 5.148 5.142 5.14 5.122 5.118 5.102 5.07 5.053 5.03 5.03 5.055 5.08 5.105 5.095 5.03 4.972 4.957 4.92 5.378 6.125 4.738 5.43 5.548 5.365 5.255 5.168 5.165 5.075 5.062 5.065 5.04 5.01 4.972 4.943 4.94 4.923 4.892 4.872 4.843 4.987 5.408 5.791 5.587 5.755 5.785 6.193 5.921 6.401 5.966 4.979 6.197 8.581 9.984 8.211 6.279 6.376 5.774 5.681 5.816 5.816
8.988 8.948 8.983 9.012 9.038 9.062 9.015 9.06 9.068 8.927 8.882 8.855 8.87 8.898 9.048 9.182 9.483 9.458 9.318 9.55 10.28 10.682 11.025 10.938 11.113 10.807 10.25 9.94 9.465 9.605 9.595 9.832 10.035 9.36 8.73 8.637 8.73 8.81 8.997 9.372 9.533 9.708 9.837 9.983 10.017 9.997 9.89 9.57 9.273 9.18 9.335 9.535 9.663 9.702 9.722 9.733 9.695 9.55 9.153 8.833 8.913 9.083 9.36 9.407 9.298 9.137 8.915 8.823 8.807 8.818 8.86 10.26 8.868 8.8 9.288 8.815 8.905 9.815 9.562 9.03 8.882 8.83 9.4 9.415 8.792 8.73 9.055 9.72 9.227 8.85 9.042 9.33 9.17 8.975 8.913 9.087 9.775 9.967 9.802 9.54 9.423 9.775 9.675 8.685 8.52 8.545 8.517 8.458 8.488 8.48 8.458 8.438 8.43 8.423 8.392 8.37 8.363 8.337 8.315 8.315 8.29 8.255 8.25 8.265 8.24 8.215 8.193 8.19 8.17 8.14 8.127 8.15 8.128 8.1 8.06 8.065 8.057 8.04 8.015 8 8.003 7.988 7.96 7.957 7.96 7.96 7.94 7.935 7.927 7.912 7.935 7.895 7.892 7.885 7.887 7.89 7.872 7.85 7.85 7.87 7.847 7.835 7.795 7.787 7.767 7.74 7.722 7.727 7.72 7.693 7.677 7.665 7.677 7.688 7.702 7.697 7.693 7.7 7.693 7.668 7.665 7.66 7.665 7.642 7.635 7.642 7.645 7.642 7.622 7.64 7.658 7.668 7.673 7.66 7.668 7.67 7.695 7.695 7.653 7.653 8.083 8.533 8.46 7.765 7.225 7.4 7.535 7.508 7.49 7.475 7.467 7.467 7.457 7.452 7.457 7.445 7.422 7.403 7.37 7.347 7.347 7.342 7.347 7.34 7.302 7.185 7.62 8.922 8.14 7.49 7.497 7.51 8.648 8.583 7.565 7.545 7.565 7.555 7.525 7.528 7.497 7.455 7.407 7.382 7.365 7.32 7.315 7.305 7.303 7.3 7.307 7.29 7.28 7.283 7.265 7.278 7.265 7.242 7.227 7.188 7.175 7.122 7.11 7.108 7.078 7.052 7.052 7.037 7.017 7.005 6.995 6.983 6.995 6.98 6.98 6.972 6.988 6.99 6.98 7 6.99 6.952 6.912 6.903 6.885 6.898 6.88 6.858 6.858 6.832 6.827 6.798 6.787 6.753 6.742 6.73 6.695 6.668 6.61 6.585 6.55 6.503 6.497 6.44 6.423 6.38 6.347 6.355 6.328 6.32 6.3 6.293 6.285 6.275 6.26 6.245 6.253 6.237 6.242 6.245 6.24 6.24 6.2 6.19 6.085 6.198 6.17 6.175 6.172 6.108 6.097 6.075 6.088 6.028 5.99 5.955 5.938 5.938 5.915 5.918 5.905 5.92 5.875 5.86 5.86 5.86 5.86 5.847 5.805 5.767 5.753 5.733 5.742 5.733 5.682 5.668 5.63 5.61 5.585 5.573 5.57 5.565 5.543 5.513 5.528 5.517 5.503 5.5 5.5 5.505 5.488 5.475 5.472 5.46 5.432 5.423 5.412 5.405 5.412 5.395 5.392 5.38 5.38 5.375 5.372 5.385 5.387 5.38 5.387 5.387 5.375 5.368 5.363 5.342 5.338 5.347 5.347 5.33 5.347 5.345 5.343 5.338 5.338 5.325 5.318 5.312 5.318 5.325 5.332 5.31 5.29 5.29 5.283 5.267 5.255 5.255 5.25 5.247 5.245 5.233 5.23 5.23 5.227 5.215 5.217 5.23 5.222 5.247 5.258 5.24 5.23 5.24 5.217 5.21 5.18 5.182 5.168 5.173 5.153 5.14 5.135 5.132 5.105 5.113 5.108 5.11 5.102 5.092 5.062 5.05 5.09 5.11 5.13 5.1 5.043 4.975 4.935 4.898 5.4 5.915 4.925 6.715 5.535 6.115 5.222 5.16 5.177 5.11 5.095 5.113 5.08 5.033 4.972 4.945 4.938 4.91 4.868 4.84 4.852 4.921 5.352 5.591 6.154 5.824 6.212 6.658 5.855 4.89 4.86 5.435 8.49 9.362 9.894 7.226 5.499 5.946 5.879 5.711 5.741 5.651
8.98 8.943 8.927 8.962 9.048 8.985 9.003 9.042 9.005 8.962 8.905 8.887 8.875 8.917 9.17 9.165 9.365 9.425 9.46 9.562 10.017 10.578 10.895 10.948 10.872 10.392 9.832 9.455 9.475 9.62 9.627 9.997 10.42 10.233 9.085 8.63 8.705 8.92 9.162 9.48 9.642 9.845 9.913 9.975 9.975 9.943 9.775 9.505 9.275 9.3 9.483 9.673 9.735 9.745 9.743 9.685 9.587 9.413 9.057 8.84 8.905 9.073 9.3 9.342 9.108 8.988 9.097 8.903 8.903 9.045 8.95 9.113 9.395 8.785 8.725 8.725 9.252 9.717 9.227 8.842 8.882 8.962 8.983 8.833 8.702 8.835 9.193 9.4 8.878 8.762 9.372 9.078 9.085 8.673 8.677 8.882 9.663 9.677 9.57 9.327 9.538 9.943 8.788 8.58 8.565 8.525 8.453 8.495 8.505 8.475 8.427 8.41 8.407 8.38 8.36 8.343 8.352 8.337 8.298 8.293 8.295 8.28 8.255 8.22 8.23 8.215 8.193 8.193 8.198 8.175 8.122 8.097 8.12 8.12 8.093 8.055 8.035 8.023 8.01 8.005 7.997 7.99 7.98 7.967 7.948 7.948 7.967 7.952 7.923 7.912 7.912 7.91 7.895 7.887 7.882 7.88 7.875 7.863 7.843 7.838 7.845 7.82 7.805 7.798 7.785 7.762 7.738 7.727 7.707 7.707 7.697 7.685 7.67 7.658 7.665 7.682 7.69 7.697 7.675 7.68 7.66 7.66 7.657 7.66 7.655 7.645 7.63 7.637 7.63 7.645 7.637 7.617 7.645 7.66 7.677 7.672 7.657 7.677 7.693 7.685 7.65 7.645 8.115 8.622 8.375 7.907 7.2 7.45 7.477 7.47 7.46 7.448 7.443 7.443 7.44 7.423 7.41 7.392 7.383 7.375 7.347 7.34 7.372 7.318 7.35 7.1 8.37 8.983 7.412 7.6 7.45 8.09 8.805 8.03 7.545 7.55 7.555 7.533 7.533 7.512 7.472 7.43 7.39 7.34 7.33 7.3 7.295 7.275 7.278 7.278 7.288 7.247 7.245 7.26 7.262 7.265 7.227 7.22 7.197 7.168 7.153 7.128 7.108 7.082 7.062 7.055 7.033 7.033 7.003 7.01 6.99 6.98 6.983 6.98 6.983 6.975 6.99 6.983 7.012 6.997 6.983 6.945 6.915 6.91 6.908 6.918 6.872 6.875 6.85 6.84 6.838 6.812 6.802 6.762 6.77 6.74 6.702 6.66 6.61 6.615 6.553 6.53 6.485 6.438 6.427 6.36 6.36 6.343 6.335 6.33 6.288 6.298 6.273 6.26 6.247 6.242 6.245 6.237 6.24 6.233 6.23 6.227 6.175 6.182 6.075 6.205 6.145 6.185 6.133 6.1 6.097 6.075 6.08 6.037 6.003 5.972 5.957 5.945 5.915 5.898 5.885 5.895 5.865 5.858 5.838 5.832 5.823 5.812 5.788 5.778 5.767 5.74 5.742 5.725 5.693 5.66 5.662 5.632 5.602 5.57 5.58 5.553 5.543 5.525 5.508 5.485 5.477 5.485 5.467 5.452 5.452 5.445 5.438 5.427 5.438 5.44 5.42 5.41 5.392 5.403 5.395 5.378 5.383 5.375 5.35 5.34 5.34 5.33 5.338 5.355 5.36 5.35 5.347 5.343 5.323 5.32 5.323 5.335 5.332 5.34 5.34 5.345 5.34 5.32 5.312 5.318 5.3 5.293 5.285 5.27 5.263 5.273 5.258 5.27 5.267 5.255 5.242 5.247 5.245 5.23 5.23 5.235 5.217 5.217 5.212 5.21 5.195 5.202 5.2 5.193 5.198 5.195 5.195 5.182 5.195 5.185 5.18 5.168 5.17 5.17 5.162 5.153 5.145 5.122 5.11 5.092 5.078 5.075 5.055 5.052 5.068 5.075 5.115 5.135 5.062 4.963 4.927 4.9 5.17 5.852 5.195 6.713 7.398 7.523 6.675 5.202 5.118 5.122 5.145 5.148 5.105 5.04 4.99 4.952 4.938 4.905 4.88 4.86 4.859 4.83 4.997 5.842 5.86 6.079 6.208 5.5 5.674 6.103 4.848 5.434 7.889 10.167 9.079 7.567 5.544 5.602 5.624 5.854 5.767 5.754
9.005 8.967 8.952 8.938 8.922 8.94 9.08 9.02 9.025 8.97 8.935 8.887 8.915 8.972 9.015 9.195 9.193 9.212 9.347 9.58 10.065 10.717 10.875 10.855 10.79 10.485 10.06 9.42 9.465 9.618 9.573 9.738 10.055 10.202 9.235 8.65 8.725 8.967 9.355 9.545 9.717 9.863 9.945 9.952 9.955 9.887 9.677 9.42 9.32 9.42 9.552 9.702 9.722 9.72 9.743 9.693 9.54 9.245 9 8.9 8.977 9.137 9.298 9.288 9.2 9.097 8.962 8.913 8.922 9.01 9.023 9.057 9.015 9.012 9.637 9.17 9.217 9.245 9.185 8.967 10.262 10.102 9.562 8.727 8.738 9.015 9.355 9.065 8.748 8.675 8.84 9.01 9.298 9.007 8.665 8.738 8.99 9.132 9.325 10.017 10.34 9.14 8.57 8.568 8.552 8.45 8.495 8.512 8.49 8.452 8.41 8.422 8.413 8.375 8.337 8.318 8.297 8.278 8.293 8.28 8.267 8.253 8.245 8.235 8.227 8.212 8.212 8.185 8.18 8.16 8.167 8.115 8.083 8.087 8.087 8.085 8.06 8.04 8.023 8.005 8.003 7.992 7.995 7.975 7.967 7.945 7.935 7.94 7.943 7.922 7.903 7.898 7.885 7.883 7.867 7.872 7.87 7.875 7.86 7.852 7.832 7.81 7.81 7.793 7.778 7.765 7.747 7.74 7.735 7.702 7.69 7.7 7.688 7.668 7.655 7.648 7.653 7.658 7.67 7.675 7.668 7.673 7.662 7.633 7.642 7.64 7.65 7.622 7.61 7.615 7.622 7.62 7.622 7.625 7.637 7.653 7.655 7.665 7.648 7.65 7.675 7.71 7.615 7.757 8.415 8.872 8.217 7.363 7.235 7.435 7.47 7.475 7.44 7.438 7.427 7.432 7.422 7.41 7.403 7.378 7.363 7.368 7.385 7.298 7.218 7.588 8.703 8.557 7.43 7.523 7.477 8.315 8.672 7.593 7.545 7.552 7.548 7.53 7.525 7.492 7.455 7.395 7.35 7.302 7.285 7.293 7.255 7.25 7.245 7.25 7.247 7.222 7.233 7.24 7.245 7.227 7.195 7.188 7.168 7.148 7.13 7.092 7.077 7.055 7.043 7.02 7.012 6.997 6.99 6.997 6.972 6.992 6.967 6.97 6.957 6.967 6.985 6.99 7.01 6.992 6.977 6.932 6.927 6.91 6.922 6.915 6.88 6.883 6.85 6.855 6.84 6.832 6.805 6.78 6.77 6.742 6.712 6.65 6.642 6.615 6.562 6.548 6.47 6.452 6.418 6.365 6.378 6.332 6.352 6.307 6.285 6.295 6.27 6.263 6.24 6.25 6.245 6.24 6.233 6.225 6.222 6.217 6.175 6.15 6.128 6.21 6.15 6.157 6.088 6.075 6.075 6.075 6.057 6.015 5.988 5.97 5.943 5.922 5.91 5.887 5.892 5.882 5.865 5.847 5.852 5.843 5.83 5.807 5.785 5.78 5.755 5.722 5.72 5.702 5.69 5.67 5.655 5.628 5.588 5.568 5.54 5.505 5.495 5.512 5.51 5.488 5.492 5.483 5.48 5.46 5.465 5.452 5.43 5.425 5.418 5.392 5.37 5.385 5.38 5.385 5.375 5.37 5.358 5.347 5.343 5.347 5.345 5.35 5.34 5.34 5.328 5.325 5.327 5.343 5.327 5.315 5.307 5.295 5.278 5.287 5.303 5.305 5.312 5.318 5.315 5.305 5.298 5.29 5.287 5.275 5.275 5.265 5.247 5.26 5.258 5.26 5.25 5.26 5.242 5.225 5.21 5.198 5.182 5.207 5.215 5.222 5.217 5.215 5.225 5.207 5.195 5.19 5.18 5.173 5.172 5.162 5.162 5.16 5.15 5.132 5.148 5.142 5.132 5.142 5.15 5.128 5.12 5.095 5.075 5.082 5.065 5.11 5.135 5.168 5.035 4.95 4.895 4.872 4.578 5.62 5.182 5.96 5.892 5.335 5.235 5.197 5.13 5.137 5.17 5.162 5.13 5.065 5.005 4.972 4.952 4.907 4.868 4.852 4.864 4.825 5.17 5.651 5.64 5.701 6.555 4.757 6.241 6.441 4.842 4.845 6.298 8.746 6.737 5.707 5.382 5.552 5.519 5.792 5.744 5.724
8.997 8.967 8.967 8.99 8.94 8.952 8.955 9 9.05 8.977 8.962 8.903 8.948 8.95 8.922 9.18 9.297 9.337 9.312 9.653 10.137 10.495 10.73 10.778 10.483 10.413 10.137 9.748 9.498 9.615 9.605 9.4 9.25 9.312 8.89 8.702 8.807 9.062 9.503 9.57 9.75 9.9 9.85 9.91 9.86 9.755 9.5 9.342 9.375 9.56 9.708 9.788 9.773 9.75 9.75 9.667 9.415 9.14 8.97 8.975 9.075 9.247 9.288 9.16 8.972 9 8.958 9.007 8.91 8.865 8.93 8.967 8.938 8.915 9.863 9.573 9.33 8.95 9.065 9.045 9.233 9.352 8.993 8.722 8.905 9.175 9.173 9.378 8.863 8.82 9.33 9.175 9.32 8.858 8.602 8.645 8.79 9.105 9.597 10.582 9.12 8.585 8.568 8.57 8.477 8.505 8.52 8.497 8.472 8.448 8.43 8.422 8.398 8.365 8.333 8.31 8.302 8.29 8.27 8.247 8.233 8.245 8.23 8.225 8.21 8.21 8.19 8.182 8.177 8.175 8.17 8.148 8.118 8.085 8.078 8.062 8.068 8.045 8.023 8.007 8.005 7.997 7.995 7.967 7.947 7.96 7.955 7.927 7.92 7.925 7.923 7.903 7.878 7.892 7.895 7.898 7.872 7.852 7.847 7.852 7.855 7.835 7.802 7.78 7.805 7.828 7.765 7.742 7.727 7.72 7.702 7.7 7.68 7.682 7.668 7.65 7.642 7.632 7.645 7.645 7.65 7.655 7.665 7.648 7.622 7.615 7.618 7.628 7.615 7.62 7.605 7.595 7.6 7.602 7.602 7.61 7.632 7.642 7.645 7.625 7.64 7.675 7.68 7.65 7.625 7.925 8.845 8.92 7.943 7.562 7.273 7.427 7.46 7.455 7.452 7.443 7.43 7.42 7.41 7.383 7.375 7.408 7.37 7.3 7.145 8.377 9.028 7.767 7.533 7.47 7.67 8.727 8.132 7.5 7.543 7.548 7.512 7.515 7.51 7.47 7.412 7.36 7.327 7.28 7.253 7.237 7.222 7.222 7.21 7.227 7.207 7.205 7.212 7.202 7.217 7.19 7.148 7.148 7.137 7.115 7.093 7.078 7.043 7.03 7.005 6.99 6.995 6.972 6.977 6.965 6.965 6.965 6.952 6.96 6.94 6.967 6.947 6.983 6.985 6.977 6.943 6.938 6.915 6.92 6.932 6.887 6.885 6.87 6.872 6.85 6.843 6.84 6.8 6.8 6.77 6.75 6.715 6.662 6.672 6.605 6.573 6.537 6.47 6.47 6.403 6.385 6.37 6.335 6.345 6.295 6.293 6.29 6.287 6.26 6.245 6.253 6.237 6.242 6.233 6.227 6.225 6.205 6.195 6.085 6.19 6.188 6.162 6.128 6.05 6.077 6.068 6.085 6.038 6.015 5.983 5.955 5.943 5.918 5.9 5.898 5.887 5.87 5.847 5.84 5.84 5.825 5.823 5.812 5.805 5.793 5.77 5.75 5.74 5.735 5.713 5.688 5.67 5.625 5.6 5.575 5.562 5.535 5.508 5.5 5.47 5.445 5.46 5.465 5.463 5.443 5.43 5.427 5.432 5.43 5.425 5.415 5.395 5.387 5.378 5.36 5.345 5.355 5.355 5.358 5.355 5.332 5.312 5.32 5.31 5.305 5.305 5.31 5.318 5.33 5.32 5.328 5.31 5.302 5.29 5.293 5.298 5.283 5.28 5.28 5.28 5.27 5.278 5.28 5.267 5.265 5.255 5.247 5.247 5.26 5.24 5.233 5.25 5.255 5.24 5.23 5.23 5.227 5.212 5.19 5.195 5.2 5.193 5.205 5.198 5.182 5.19 5.182 5.19 5.182 5.177 5.177 5.168 5.162 5.15 5.14 5.135 5.135 5.108 5.1 5.117 5.102 5.075 5.09 5.078 5.078 5.113 5.145 5.165 5.145 5.045 4.96 4.895 4.818 4.332 4.93 5.543 5.61 5.36 5.278 5.22 5.142 5.117 5.15 5.165 5.177 5.14 5.08 5.025 4.993 4.965 4.912 4.845 4.828 4.852 4.835 4.974 5.435 5.499 4.903 5.708 5.194 6.877 5.731 6.4 4.766 6.788 5.564 5.612 5.269 5.304 5.432 5.654 5.497 5.562 5.754
9.03 9.033 8.997 8.967 8.953 9.038 8.993 9.065 8.977 9.003 8.99 8.935 8.852 8.875 8.922 9.068 9.21 9.177 9.405 9.76 10.218 10.465 10.945 10.503 10.405 10.295 9.465 9.363 9.497 9.642 9.57 9.398 9.205 8.958 8.812 8.845 9.003 9.23 9.58 9.61 9.827 9.898 9.855 9.85 9.79 9.727 9.468 9.333 9.468 9.663 9.75 9.82 9.79 9.688 9.688 9.632 9.267 9.07 8.98 8.98 9.142 9.27 9.288 9.1 8.965 8.997 9.017 9.035 8.96 9.062 8.895 9.05 9.028 9.02 9.038 8.86 9.032 8.967 9 8.993 8.993 9.065 8.735 8.8 9.03 8.913 9.052 8.885 8.685 8.948 9.165 8.752 8.858 8.632 8.608 8.718 9.102 9.483 9.948 9.395 8.595 8.6 8.61 8.493 8.477 8.517 8.507 8.495 8.45 8.432 8.423 8.398 8.36 8.36 8.333 8.295 8.278 8.275 8.255 8.247 8.235 8.23 8.207 8.2 8.198 8.2 8.195 8.185 8.167 8.17 8.165 8.15 8.125 8.113 8.087 8.06 8.03 8.03 8.043 8.03 8.003 7.972 7.975 7.972 7.96 7.95 7.95 7.935 7.91 7.907 7.908 7.92 7.905 7.898 7.882 7.882 7.887 7.882 7.865 7.835 7.83 7.832 7.815 7.803 7.832 7.783 7.767 7.76 7.755 7.73 7.7 7.69 7.677 7.675 7.65 7.665 7.665 7.637 7.622 7.622 7.64 7.637 7.658 7.642 7.637 7.63 7.617 7.605 7.6 7.605 7.602 7.613 7.588 7.582 7.592 7.595 7.595 7.605 7.622 7.625 7.65 7.722 7.628 7.668 7.668 7.63 7.578 8.188 8.885 8.983 7.81 7.145 7.3 7.435 7.463 7.44 7.423 7.41 7.42 7.42 7.405 7.42 7.343 7.253 7.685 8.983 8.715 7.33 7.452 7.475 8.295 8.755 7.702 7.513 7.543 7.533 7.485 7.497 7.48 7.438 7.39 7.345 7.29 7.247 7.217 7.202 7.195 7.193 7.19 7.193 7.18 7.193 7.18 7.185 7.185 7.148 7.13 7.117 7.11 7.095 7.053 7.04 7.012 7 6.98 6.967 6.962 6.962 6.952 6.94 6.948 6.923 6.935 6.932 6.925 6.952 6.93 6.965 6.975 6.945 6.912 6.918 6.883 6.912 6.905 6.872 6.85 6.855 6.863 6.847 6.85 6.825 6.798 6.802 6.775 6.76 6.698 6.677 6.665 6.602 6.585 6.517 6.492 6.472 6.398 6.403 6.355 6.358 6.328 6.307 6.305 6.295 6.293 6.245 6.247 6.255 6.235 6.238 6.227 6.242 6.215 6.2 6.217 6.113 6.213 6.165 6.175 6.117 6.082 6.077 6.057 6.075 6.017 6.005 5.98 5.975 5.95 5.92 5.91 5.88 5.868 5.86 5.847 5.847 5.847 5.835 5.807 5.795 5.788 5.773 5.763 5.73 5.702 5.693 5.68 5.673 5.665 5.64 5.61 5.565 5.56 5.545 5.52 5.523 5.495 5.477 5.46 5.447 5.432 5.42 5.395 5.41 5.418 5.427 5.407 5.382 5.37 5.372 5.358 5.347 5.352 5.328 5.327 5.335 5.335 5.34 5.338 5.33 5.33 5.332 5.323 5.305 5.293 5.29 5.295 5.293 5.28 5.275 5.275 5.258 5.262 5.26 5.257 5.262 5.275 5.278 5.265 5.258 5.255 5.25 5.245 5.23 5.225 5.22 5.222 5.217 5.22 5.207 5.195 5.202 5.195 5.197 5.2 5.215 5.212 5.21 5.22 5.227 5.2 5.193 5.177 5.165 5.162 5.16 5.165 5.16 5.153 5.14 5.14 5.145 5.15 5.142 5.142 5.132 5.122 5.125 5.1 5.09 5.077 5.065 5.113 5.16 5.16 5.162 5.048 4.965 4.908 4.818 4.302 4.915 6.695 5.727 5.32 5.242 5.188 5.118 5.12 5.158 5.162 5.155 5.13 5.077 5.035 4.988 4.977 4.923 4.842 4.803 4.833 4.845 4.785 4.772 5.589 6.177 6.243 5.618 5.348 7.056 4.907 4.673 4.959 4.9 5.227 5.337 5.239 5.439 5.419 5.497 5.524 5.519
9.13 9.06 9.073 9.02 9.023 8.983 8.95 8.98 9.043 9.002 8.983 8.975 8.892 8.875 8.93 9.132 9.167 9.175 9.37 9.778 10.25 10.445 10.372 10.538 10.318 9.69 9.295 9.36 9.487 9.575 9.528 9.392 9.28 9.023 9.007 9.033 9.17 9.378 9.585 9.708 9.875 9.94 9.938 9.882 9.708 9.557 9.462 9.372 9.52 9.675 9.802 9.88 9.852 9.608 9.575 9.43 9.173 9.028 8.98 9.085 9.293 9.435 9.347 9.185 9.095 9.062 9.015 8.932 8.938 8.923 8.882 8.9 8.945 8.892 8.82 8.807 9.03 9.023 8.99 8.977 9.052 8.872 8.76 8.833 9.262 8.953 8.805 8.698 8.972 9.188 8.988 8.642 8.67 8.677 8.693 8.983 9.54 10.1 9.33 8.645 8.61 8.595 8.512 8.47 8.497 8.5 8.49 8.462 8.42 8.403 8.408 8.382 8.358 8.333 8.318 8.3 8.26 8.248 8.25 8.24 8.22 8.202 8.212 8.208 8.195 8.193 8.185 8.175 8.167 8.15 8.148 8.15 8.12 8.095 8.085 8.083 8.055 8.028 8.013 8.007 7.995 7.987 7.99 7.967 7.965 7.95 7.943 7.94 7.927 7.93 7.915 7.895 7.885 7.905 7.91 7.885 7.86 7.858 7.865 7.85 7.835 7.807 7.79 7.775 7.775 7.76 7.747 7.74 7.74 7.713 7.698 7.69 7.697 7.68 7.66 7.655 7.653 7.64 7.633 7.673 7.605 7.602 7.615 7.62 7.625 7.622 7.64 7.613 7.588 7.585 7.59 7.615 7.59 7.585 7.582 7.577 7.59 7.585 7.59 7.592 7.61 7.608 7.605 7.69 7.632 7.65 7.66 7.695 7.742 8.097 8.76 8.483 7.84 7.12 7.352 7.452 7.425 7.42 7.425 7.407 7.41 7.387 7.323 7.105 8.102 8.557 7.835 7.385 7.445 7.548 8.6 8.43 7.485 7.508 7.533 7.495 7.472 7.465 7.455 7.415 7.345 7.312 7.253 7.217 7.205 7.17 7.175 7.162 7.175 7.168 7.17 7.173 7.157 7.158 7.145 7.115 7.108 7.1 7.082 7.043 7.023 7.01 6.99 6.972 6.943 6.955 6.925 6.943 6.923 6.922 6.925 6.91 6.922 6.895 6.927 6.918 6.932 6.945 6.945 6.91 6.895 6.88 6.875 6.912 6.875 6.832 6.823 6.858 6.835 6.828 6.825 6.795 6.803 6.783 6.77 6.75 6.688 6.688 6.645 6.613 6.568 6.5 6.495 6.455 6.418 6.398 6.35 6.36 6.312 6.318 6.305 6.307 6.285 6.242 6.255 6.23 6.245 6.238 6.247 6.247 6.225 6.162 6.213 6.175 6.212 6.157 6.177 6.12 6.13 6.1 6.09 6.073 6.025 5.995 5.972 5.962 5.95 5.922 5.895 5.89 5.882 5.86 5.842 5.835 5.825 5.823 5.815 5.805 5.8 5.783 5.783 5.753 5.722 5.698 5.67 5.658 5.657 5.63 5.615 5.585 5.553 5.503 5.483 5.49 5.48 5.455 5.44 5.425 5.427 5.425 5.41 5.41 5.403 5.403 5.398 5.387 5.37 5.36 5.363 5.35 5.352 5.332 5.318 5.298 5.305 5.305 5.323 5.307 5.3 5.325 5.33 5.328 5.325 5.302 5.29 5.293 5.275 5.258 5.267 5.273 5.273 5.265 5.25 5.253 5.258 5.243 5.24 5.238 5.235 5.233 5.245 5.233 5.22 5.21 5.205 5.202 5.215 5.21 5.21 5.22 5.205 5.18 5.182 5.182 5.177 5.19 5.188 5.193 5.202 5.217 5.202 5.182 5.165 5.172 5.137 5.14 5.145 5.125 5.12 5.115 5.108 5.122 5.113 5.105 5.1 5.12 5.1 5.085 5.08 5.077 5.117 5.16 5.137 5.18 5.065 4.96 4.927 4.872 4.255 4.787 6.245 5.673 5.327 5.233 5.17 5.113 5.148 5.182 5.155 5.153 5.102 5.05 5.012 5.395 5.457 4.93 4.858 4.803 4.814 4.818 4.787 4.85 5.713 5.874 5.176 6.131 5.865 5.213 4.813 4.671 4.721 4.763 4.887 4.962 5.247 5.414 5.394 5.409 5.422 5.457
9.25 9.125 9.097 9.095 9.007 8.987 8.943 8.99 9.042 9.03 8.98 8.92 8.885 8.913 9.017 9.243 9.2 9.2 9.427 10.028 10.52 10.727 10.302 10.043 9.858 9.475 9.307 9.318 9.448 9.568 9.533 9.378 9.23 9.077 8.995 9.052 9.212 9.455 9.653 9.805 9.842 9.993 9.998 9.875 9.63 9.472 9.372 9.487 9.615 9.745 9.86 9.842 9.715 9.535 9.422 9.235 9.06 8.967 8.993 9.238 9.453 9.523 9.46 9.347 9.182 9.1 9.025 8.962 8.96 9.153 8.913 8.9 8.89 8.858 8.802 8.767 8.91 8.967 8.953 9.005 8.983 8.722 8.73 8.868 8.828 8.913 8.87 8.727 8.738 8.953 8.79 8.67 8.727 8.718 8.993 9.56 9.943 9.977 8.642 8.597 8.593 8.528 8.455 8.517 8.515 8.488 8.448 8.432 8.427 8.41 8.38 8.35 8.33 8.31 8.292 8.298 8.3 8.275 8.24 8.235 8.24 8.227 8.192 8.18 8.182 8.185 8.163 8.148 8.155 8.155 8.122 8.11 8.118 8.108 8.095 8.073 8.07 8.06 8.035 8.025 8.025 8.01 7.98 7.975 7.967 7.948 7.943 7.95 7.943 7.925 7.927 7.94 7.918 7.895 7.895 7.89 7.885 7.86 7.845 7.845 7.838 7.82 7.787 7.762 7.75 7.753 7.75 7.735 7.71 7.742 7.713 7.707 7.705 7.682 7.66 7.655 7.657 7.637 7.637 7.625 7.618 7.593 7.582 7.595 7.613 7.605 7.617 7.62 7.61 7.6 7.582 7.57 7.58 7.593 7.588 7.58 7.58 7.58 7.575 7.568 7.582 7.592 7.595 7.59 7.59 7.6 7.63 7.818 7.845 7.635 7.852 8.193 8.945 8.227 7.28 7.207 7.36 7.435 7.443 7.425 7.395 7.378 7.318 7.332 8.295 8.302 7.592 7.427 7.47 7.99 8.705 7.832 7.472 7.503 7.515 7.477 7.483 7.46 7.422 7.367 7.315 7.27 7.225 7.205 7.18 7.155 7.142 7.142 7.16 7.145 7.16 7.145 7.142 7.142 7.102 7.095 7.09 7.075 7.06 7.005 7 6.98 6.96 6.952 6.912 6.923 6.912 6.91 6.912 6.912 6.887 6.905 6.895 6.875 6.912 6.895 6.932 6.927 6.905 6.878 6.882 6.85 6.863 6.867 6.85 6.812 6.827 6.843 6.812 6.812 6.8 6.767 6.77 6.753 6.76 6.72 6.67 6.677 6.615 6.608 6.533 6.508 6.488 6.435 6.427 6.378 6.363 6.327 6.303 6.312 6.287 6.3 6.265 6.242 6.247 6.237 6.237 6.245 6.265 6.245 6.213 6.182 6.148 6.23 6.197 6.17 6.177 6.137 6.145 6.108 6.1 6.057 6.037 6.01 6.003 5.985 5.967 5.938 5.908 5.887 5.875 5.867 5.863 5.838 5.812 5.812 5.785 5.77 5.79 5.773 5.755 5.722 5.707 5.675 5.675 5.67 5.665 5.632 5.595 5.575 5.562 5.537 5.517 5.517 5.472 5.455 5.43 5.427 5.403 5.392 5.403 5.398 5.375 5.365 5.363 5.36 5.347 5.347 5.345 5.35 5.352 5.347 5.35 5.328 5.32 5.323 5.323 5.31 5.298 5.293 5.293 5.287 5.295 5.31 5.298 5.307 5.287 5.265 5.265 5.262 5.275 5.283 5.285 5.278 5.26 5.257 5.245 5.207 5.213 5.23 5.242 5.233 5.217 5.207 5.202 5.195 5.195 5.19 5.18 5.175 5.188 5.193 5.185 5.175 5.18 5.175 5.165 5.168 5.165 5.162 5.162 5.162 5.168 5.162 5.162 5.145 5.137 5.118 5.122 5.115 5.108 5.117 5.11 5.1 5.102 5.115 5.097 5.085 5.062 5.053 5.08 5.102 5.135 5.148 5.057 4.932 4.932 4.835 4.17 4.635 5.93 5.72 5.363 5.235 5.142 5.135 5.177 5.175 5.122 5.1 5.033 4.947 4.9 4.943 4.97 4.935 4.878 4.832 4.839 4.795 4.783 4.726 4.909 5.458 5.677 5.808 5.044 5.353 4.781 4.691 4.728 4.736 4.732 4.804 4.957 4.974 5.097 5.284 5.404 5.489
9.403 9.158 9.073 9.202 9.005 8.99 8.882 9.073 9.052 9.015 9.073 8.97 8.945 8.967 9.045 9.142 9.163 9.245 9.422 10.172 10.533 10.788 10.358 9.863 9.54 9.328 9.265 9.302 9.465 9.615 9.557 9.337 9.16 9.13 8.97 9.042 9.298 9.493 9.597 9.73 9.952 9.983 9.872 9.745 9.542 9.33 9.395 9.637 9.755 9.86 9.86 9.783 9.6 9.495 9.363 9.085 8.975 8.953 9.075 9.298 9.547 9.512 9.475 9.238 9.102 9.025 8.98 8.91 8.878 8.967 9 8.993 8.95 8.93 8.83 8.8 8.868 8.94 8.96 8.965 8.733 8.635 8.693 8.85 8.932 8.958 8.89 8.773 8.738 8.855 8.798 8.833 8.847 9.065 9.462 9.87 10.403 8.85 8.592 8.597 8.585 8.47 8.515 8.505 8.495 8.47 8.445 8.435 8.405 8.387 8.37 8.328 8.318 8.325 8.292 8.273 8.263 8.278 8.257 8.235 8.215 8.2 8.19 8.17 8.17 8.18 8.175 8.155 8.14 8.132 8.13 8.102 8.095 8.087 8.085 8.09 8.095 8.065 8.075 8.057 8.033 8.013 8 7.997 7.972 7.95 7.947 7.943 7.94 7.925 7.905 7.91 7.907 7.9 7.887 7.883 7.872 7.865 7.858 7.838 7.82 7.812 7.803 7.78 7.75 7.76 7.727 7.73 7.722 7.712 7.773 7.717 7.73 7.702 7.685 7.662 7.662 7.653 7.625 7.628 7.625 7.625 7.59 7.565 7.568 7.595 7.602 7.602 7.6 7.6 7.6 7.588 7.585 7.593 7.575 7.58 7.578 7.582 7.568 7.56 7.56 7.57 7.582 7.597 7.602 7.575 7.605 7.73 7.668 7.76 7.73 7.673 7.86 8.335 8.863 7.977 7.408 7.28 7.415 7.46 7.418 7.408 7.153 7.71 8.453 8.02 7.418 7.46 7.512 8.495 8.48 7.5 7.472 7.512 7.505 7.477 7.483 7.44 7.385 7.323 7.283 7.25 7.2 7.195 7.16 7.135 7.125 7.135 7.135 7.135 7.142 7.118 7.133 7.105 7.085 7.09 7.065 7.048 7.017 6.99 6.977 6.957 6.94 6.927 6.922 6.9 6.903 6.898 6.9 6.895 6.868 6.89 6.87 6.885 6.887 6.895 6.918 6.91 6.88 6.872 6.868 6.84 6.858 6.832 6.828 6.807 6.825 6.805 6.77 6.793 6.755 6.742 6.73 6.722 6.73 6.677 6.662 6.645 6.605 6.578 6.512 6.5 6.457 6.432 6.412 6.363 6.347 6.305 6.315 6.285 6.267 6.275 6.238 6.242 6.235 6.235 6.233 6.255 6.273 6.235 6.173 6.235 6.148 6.243 6.198 6.19 6.155 6.128 6.135 6.12 6.117 6.077 6.062 6.03 6.012 5.99 5.975 5.948 5.927 5.92 5.885 5.865 5.832 5.82 5.823 5.805 5.805 5.795 5.788 5.76 5.74 5.72 5.698 5.67 5.65 5.637 5.632 5.63 5.628 5.595 5.55 5.528 5.505 5.49 5.472 5.46 5.45 5.445 5.43 5.418 5.408 5.395 5.37 5.368 5.363 5.352 5.345 5.338 5.325 5.305 5.293 5.287 5.293 5.3 5.28 5.28 5.29 5.293 5.285 5.293 5.278 5.29 5.285 5.288 5.295 5.293 5.29 5.278 5.267 5.273 5.265 5.263 5.255 5.255 5.24 5.237 5.242 5.235 5.233 5.242 5.235 5.225 5.22 5.207 5.193 5.193 5.193 5.182 5.175 5.172 5.162 5.16 5.155 5.155 5.157 5.162 5.162 5.168 5.153 5.157 5.165 5.165 5.148 5.135 5.137 5.14 5.128 5.12 5.118 5.105 5.093 5.082 5.068 5.085 5.085 5.08 5.073 5.062 5.05 5.075 5.097 5.12 5.133 5.182 5.045 4.922 4.947 4.812 4.325 6.318 5.568 5.543 5.315 5.245 5.137 5.158 5.227 5.168 5.075 5.03 5.028 4.927 4.878 4.885 4.955 4.945 4.895 4.832 5.118 5.081 4.792 4.879 6.411 7.363 6.75 5.848 5.353 5.874 5.217 4.779 4.868 4.68 4.709 4.727 4.762 4.772 4.794 4.974 5.149 5.207
9.247 9.295 9.083 9.073 9.07 9.033 8.998 9.185 9.095 9.03 9.068 9.045 9.07 9.038 9.073 9.075 9.315 9.203 9.35 10 10.22 10.52 10.562 10.175 10.27 9.37 9.318 9.315 9.5 9.64 9.552 9.318 9.257 9.035 8.845 8.975 9.52 9.807 9.785 9.65 9.84 9.757 9.655 9.625 9.395 9.235 9.448 9.68 9.87 9.865 9.745 9.655 9.483 9.368 9.283 9.007 8.932 8.995 9.13 9.307 9.445 9.41 9.3 9.102 8.955 8.92 9.005 8.905 8.945 8.905 9.005 8.962 9.017 9.077 8.915 8.995 8.975 8.972 9.108 8.89 8.618 8.632 8.788 9.13 9.443 9.475 9.37 8.858 8.833 8.965 8.985 8.875 9.055 9.387 9.65 9.99 9.003 8.605 8.612 8.587 8.48 8.498 8.525 8.505 8.477 8.452 8.435 8.42 8.378 8.35 8.342 8.333 8.312 8.3 8.275 8.263 8.257 8.26 8.253 8.245 8.218 8.215 8.198 8.182 8.167 8.153 8.145 8.145 8.14 8.122 8.11 8.1 8.095 8.078 8.08 8.085 8.087 8.078 8.065 8.05 8.062 8.043 8.01 7.983 7.975 7.945 7.938 7.938 7.922 7.925 7.925 7.91 7.9 7.9 7.9 7.885 7.863 7.843 7.852 7.847 7.83 7.805 7.788 7.778 7.775 7.757 7.733 7.72 7.707 7.717 7.74 7.707 7.69 7.685 7.677 7.672 7.695 7.657 7.642 7.635 7.615 7.605 7.605 7.585 7.552 7.55 7.555 7.578 7.593 7.6 7.592 7.585 7.59 7.58 7.565 7.56 7.562 7.562 7.565 7.552 7.557 7.56 7.568 7.565 7.568 7.565 7.573 7.625 7.622 7.795 7.76 7.77 7.713 7.873 7.96 8.828 8.61 7.43 7.238 7.37 7.423 7.372 7.503 8.483 8.422 7.52 7.438 7.465 7.82 8.812 7.858 7.47 7.47 7.51 7.495 7.483 7.46 7.41 7.352 7.267 7.242 7.23 7.188 7.16 7.145 7.13 7.115 7.125 7.113 7.13 7.1 7.105 7.11 7.08 7.06 7.057 7.02 7.028 6.992 6.977 6.955 6.938 6.92 6.908 6.91 6.882 6.887 6.88 6.88 6.867 6.868 6.875 6.865 6.883 6.865 6.905 6.898 6.878 6.863 6.855 6.838 6.823 6.838 6.815 6.82 6.79 6.805 6.773 6.76 6.765 6.727 6.717 6.697 6.7 6.682 6.655 6.648 6.6 6.597 6.55 6.503 6.477 6.438 6.422 6.375 6.355 6.34 6.287 6.293 6.258 6.25 6.24 6.215 6.215 6.212 6.217 6.225 6.258 6.235 6.21 6.137 6.19 6.148 6.242 6.21 6.195 6.133 6.115 6.125 6.117 6.128 6.085 6.045 6.017 5.997 6.005 5.992 5.963 5.918 5.91 5.908 5.892 5.895 5.875 5.83 5.807 5.788 5.775 5.765 5.755 5.743 5.74 5.702 5.68 5.673 5.68 5.675 5.655 5.633 5.602 5.557 5.528 5.492 5.467 5.472 5.443 5.412 5.405 5.4 5.4 5.398 5.39 5.368 5.363 5.365 5.36 5.342 5.34 5.318 5.305 5.298 5.293 5.295 5.3 5.295 5.278 5.273 5.273 5.27 5.288 5.267 5.265 5.278 5.267 5.245 5.26 5.26 5.257 5.265 5.262 5.247 5.26 5.255 5.245 5.255 5.26 5.233 5.217 5.212 5.207 5.195 5.202 5.195 5.2 5.195 5.197 5.185 5.185 5.185 5.19 5.18 5.182 5.182 5.162 5.157 5.162 5.158 5.145 5.13 5.137 5.13 5.122 5.133 5.132 5.115 5.105 5.105 5.105 5.105 5.078 5.085 5.075 5.048 5.07 5.057 5.045 5.043 5.037 5.023 5.033 5.09 5.137 5.11 5.12 5.033 4.93 4.962 4.845 4.332 5.985 6 5.86 5.418 5.115 5.165 5.22 5.24 5.137 5.043 5.06 5.023 4.95 4.88 4.91 4.975 4.962 4.908 4.84 5.264 5.284 5.303 6 7.099 7.601 7.638 7.976 7.888 9.21 7.763 5.543 4.743 4.664 4.667 4.664 4.669 4.692 4.704 4.724 4.759 4.774
9.78 9.488 9.18 9.102 9.09 9.095 9.07 9.21 9.15 9.18 9.065 9.023 9.012 9.073 9.06 9.15 9.307 9.265 9.288 9.798 10.333 10.665 10.905 10.595 9.865 9.372 9.288 9.305 9.49 9.605 9.467 9.25 9.182 9.07 8.887 8.882 9.198 9.488 9.578 9.565 9.54 9.417 9.427 9.42 9.275 9.342 9.583 9.75 9.828 9.74 9.587 9.422 9.387 9.245 9.085 8.912 8.89 9.005 9.2 9.398 9.462 9.41 9.23 9.017 8.955 8.907 8.965 8.865 8.892 8.905 8.97 8.988 9.087 9.048 9.315 9.577 9.712 9.73 9.202 8.648 8.573 8.757 9.173 9.878 10.432 10.542 10.405 9.355 9.118 8.913 8.873 9.137 9.33 9.503 9.965 9.247 8.615 8.612 8.602 8.495 8.493 8.533 8.53 8.495 8.443 8.432 8.42 8.4 8.368 8.343 8.323 8.295 8.292 8.288 8.278 8.273 8.265 8.235 8.227 8.225 8.215 8.207 8.193 8.18 8.167 8.17 8.163 8.142 8.122 8.12 8.113 8.093 8.077 8.083 8.065 8.055 8.052 8.083 8.08 8.06 8.025 8.028 8.017 8.003 7.972 7.96 7.948 7.947 7.938 7.92 7.907 7.908 7.918 7.903 7.882 7.887 7.89 7.865 7.838 7.823 7.823 7.818 7.805 7.785 7.765 7.753 7.812 7.733 7.71 7.702 7.697 7.697 7.693 7.68 7.673 7.675 7.662 7.648 7.648 7.628 7.628 7.608 7.575 7.578 7.562 7.55 7.553 7.543 7.548 7.56 7.57 7.578 7.58 7.58 7.58 7.557 7.54 7.55 7.55 7.56 7.548 7.548 7.55 7.55 7.553 7.545 7.533 7.543 7.57 7.648 7.698 7.695 7.832 7.922 7.868 7.622 8.352 8.818 8.31 7.3 7.325 7.405 7.773 8.54 7.92 7.382 7.44 7.488 8.385 8.708 7.528 7.465 7.472 7.508 7.49 7.477 7.44 7.387 7.323 7.238 7.23 7.185 7.173 7.14 7.135 7.115 7.113 7.11 7.102 7.105 7.085 7.11 7.09 7.055 7.04 7.017 7.017 7.008 6.97 6.947 6.927 6.922 6.875 6.88 6.882 6.872 6.86 6.872 6.863 6.847 6.867 6.85 6.85 6.865 6.875 6.895 6.883 6.847 6.842 6.852 6.81 6.825 6.812 6.812 6.795 6.778 6.773 6.735 6.758 6.727 6.713 6.698 6.662 6.688 6.642 6.625 6.602 6.58 6.58 6.517 6.5 6.448 6.427 6.408 6.355 6.355 6.315 6.288 6.267 6.23 6.22 6.207 6.217 6.195 6.193 6.197 6.222 6.25 6.21 6.177 6.148 6.113 6.188 6.202 6.207 6.158 6.11 6.095 6.068 6.108 6.088 6.057 6.035 6.015 6.003 5.98 5.96 5.963 5.952 5.927 5.925 5.908 5.903 5.878 5.847 5.84 5.828 5.795 5.783 5.733 5.722 5.717 5.695 5.672 5.67 5.675 5.672 5.668 5.63 5.6 5.557 5.52 5.47 5.443 5.435 5.403 5.4 5.4 5.392 5.375 5.355 5.347 5.342 5.355 5.347 5.325 5.32 5.303 5.305 5.29 5.285 5.305 5.3 5.3 5.307 5.295 5.285 5.283 5.26 5.245 5.237 5.24 5.24 5.235 5.24 5.227 5.225 5.227 5.22 5.212 5.21 5.215 5.215 5.22 5.227 5.24 5.273 5.26 5.25 5.225 5.21 5.217 5.213 5.168 5.17 5.188 5.168 5.165 5.16 5.14 5.133 5.133 5.162 5.153 5.16 5.153 5.15 5.153 5.16 5.145 5.135 5.135 5.13 5.12 5.113 5.12 5.097 5.088 5.077 5.082 5.062 5.05 5.053 5.055 5.053 5.057 5.055 5.028 5.023 5.008 5.068 5.122 5.128 5.1 5.03 4.935 4.955 4.858 4.215 6.375 7.912 7.065 6.15 5.045 5.137 5.235 5.22 5.043 4.957 5.03 5.2 5.007 4.95 4.918 4.983 5.01 4.945 4.847 5.391 5.707 6.226 7.18 8.099 9.004 9.582 7.976 9.561 11.08 9.925 8.384 5.85 4.64 4.632 4.639 4.634 4.632 4.639 4.619 4.629 4.599
10.14 9.932 9.363 9.19 9.188 9.333 9.068 9.155 9.217 9.16 9.07 9.025 9.003 9.062 9.092 9.105 9.288 9.275 9.34 9.823 10.257 10.84 10.682 10.568 10.05 9.538 9.355 9.355 9.542 9.628 9.458 9.175 9.14 9.105 9.06 8.9 8.81 8.823 8.997 9.105 9.06 9.05 9.075 9.148 9.343 9.53 9.695 9.84 9.793 9.637 9.46 9.34 9.278 9.12 8.945 8.882 8.882 9.052 9.28 9.458 9.445 9.35 9.222 8.997 9.005 8.927 8.88 8.873 8.913 8.965 9 8.985 9.177 9.423 10.3 10.685 10.092 9.72 8.915 8.585 8.663 8.977 9.83 10.753 11.21 11.235 10.837 9.945 9.823 9.368 8.913 9.227 9.562 9.938 9.375 8.615 8.608 8.61 8.533 8.505 8.54 8.525 8.505 8.472 8.442 8.422 8.4 8.365 8.337 8.325 8.315 8.307 8.298 8.278 8.278 8.257 8.253 8.263 8.24 8.215 8.193 8.198 8.205 8.19 8.167 8.153 8.142 8.122 8.11 8.095 8.1 8.085 8.07 8.058 8.055 8.057 8.04 8.042 8.038 8.033 8.032 8.025 8.012 8.012 7.997 7.983 7.945 7.932 7.95 7.938 7.922 7.898 7.907 7.905 7.885 7.882 7.858 7.858 7.865 7.85 7.818 7.818 7.793 7.79 7.773 7.753 7.742 7.745 7.727 7.71 7.705 7.7 7.712 7.725 7.665 7.657 7.66 7.66 7.688 7.635 7.613 7.613 7.588 7.575 7.56 7.56 7.545 7.545 7.538 7.528 7.56 7.557 7.562 7.565 7.568 7.582 7.573 7.543 7.53 7.533 7.543 7.553 7.54 7.533 7.528 7.528 7.528 7.523 7.53 7.557 7.63 7.653 7.87 7.71 7.91 8.057 7.55 7.78 8.725 8.57 7.52 7.457 7.503 7.505 7.355 7.4 7.432 7.707 8.78 8.142 7.472 7.46 7.485 7.503 7.472 7.457 7.42 7.358 7.283 7.235 7.207 7.177 7.162 7.13 7.122 7.108 7.105 7.09 7.082 7.193 7.08 7.085 7.062 7.04 7.005 7 6.99 6.967 6.947 6.92 6.918 6.903 6.872 6.878 6.865 6.867 6.863 6.858 6.835 6.84 6.855 6.83 6.855 6.85 6.875 6.88 6.87 6.832 6.838 6.827 6.805 6.805 6.8 6.798 6.755 6.765 6.737 6.725 6.74 6.707 6.698 6.665 6.66 6.668 6.622 6.608 6.58 6.57 6.56 6.505 6.485 6.435 6.42 6.37 6.347 6.327 6.283 6.285 6.24 6.215 6.197 6.188 6.188 6.175 6.175 6.177 6.227 6.217 6.172 6.135 6.155 6.068 6.2 6.172 6.177 6.128 6.1 6.073 6.065 6.08 6.055 6.033 6 5.985 5.96 5.94 5.938 5.935 5.93 5.9 5.86 5.85 5.863 5.83 5.807 5.802 5.805 5.793 5.775 5.75 5.722 5.717 5.71 5.712 5.71 5.677 5.68 5.658 5.613 5.585 5.55 5.495 5.452 5.407 5.385 5.372 5.347 5.35 5.338 5.338 5.335 5.312 5.31 5.312 5.31 5.31 5.3 5.29 5.28 5.278 5.283 5.288 5.29 5.288 5.267 5.267 5.27 5.278 5.255 5.253 5.237 5.275 5.278 5.26 5.25 5.238 5.233 5.227 5.23 5.237 5.233 5.222 5.222 5.222 5.22 5.235 5.222 5.21 5.207 5.205 5.205 5.217 5.207 5.2 5.202 5.202 5.195 5.19 5.17 5.165 5.14 5.137 5.145 5.135 5.117 5.117 5.12 5.13 5.137 5.132 5.14 5.132 5.12 5.11 5.12 5.11 5.122 5.133 5.115 5.095 5.07 5.045 5.035 5.017 5.013 5 5.02 5.01 5.008 5.03 5.04 5.105 5.115 5.07 5.007 4.93 4.947 4.878 4.198 6.165 5.918 6.235 6.137 5.043 5.088 5.132 5.207 5.117 4.955 5 4.892 4.96 4.875 4.905 4.938 5 4.972 4.907 5.548 5.534 6.769 7.022 7.856 8.708 9.142 8.607 8.303 10.451 10.591 9.034 5.769 4.702 4.819 4.802 4.757 4.677 4.649 4.639 4.619 4.612
10.14 10.49 9.935 9.573 9.615 9.99 9.545 9.207 9.17 9.18 9.165 9.06 9.035 9.055 9.068 9.15 9.233 9.355 9.342 9.595 10.068 10.39 10.182 10.06 9.705 9.468 9.358 9.398 9.562 9.665 9.565 9.188 9.085 9.122 9.202 9.09 8.92 8.788 8.8 8.703 8.685 8.802 8.88 9.062 9.37 9.632 9.775 9.905 9.792 9.565 9.493 9.363 9.24 9.08 8.98 8.913 8.957 9.137 9.387 9.432 9.467 9.395 9.19 9.025 8.99 8.953 8.96 8.995 8.988 8.878 8.847 8.773 9.222 9.525 10.167 10.58 10.39 9.307 8.622 8.58 8.85 9.39 10.585 11.39 11.865 11.708 11.392 10.655 10.517 9.873 9.227 9.517 9.97 9.557 8.62 8.613 8.632 8.58 8.503 8.525 8.535 8.507 8.47 8.445 8.427 8.408 8.372 8.36 8.355 8.345 8.318 8.31 8.302 8.283 8.267 8.273 8.257 8.233 8.21 8.215 8.205 8.19 8.17 8.163 8.167 8.145 8.145 8.145 8.13 8.092 8.078 8.068 8.07 8.052 8.043 8.04 8.03 8.033 8.028 8.032 8.017 8.015 8.01 7.997 7.985 8 7.983 7.94 7.922 7.938 7.938 7.93 7.92 7.887 7.892 7.88 7.875 7.865 7.84 7.852 7.847 7.815 7.803 7.783 7.773 7.767 7.747 7.73 7.727 7.715 7.702 7.693 7.697 7.675 7.675 7.67 7.653 7.65 7.637 7.628 7.64 7.62 7.622 7.602 7.61 7.562 7.555 7.56 7.548 7.528 7.523 7.525 7.54 7.548 7.545 7.562 7.57 7.557 7.55 7.537 7.52 7.523 7.525 7.548 7.525 7.513 7.517 7.523 7.515 7.533 7.58 7.622 7.645 7.79 8.035 7.85 7.818 7.605 7.533 7.81 8.613 8.375 7.71 7.318 7.347 7.392 7.443 8.427 8.722 7.62 7.48 7.443 7.467 7.483 7.455 7.418 7.38 7.332 7.267 7.23 7.202 7.173 7.145 7.125 7.11 7.093 7.097 7.068 7.082 7.225 7.07 7.055 7.037 7.02 6.992 6.99 6.963 6.943 6.92 6.887 6.898 6.855 6.865 6.86 6.855 6.85 6.83 6.845 6.823 6.838 6.823 6.825 6.835 6.847 6.86 6.875 6.835 6.82 6.832 6.81 6.807 6.793 6.79 6.762 6.745 6.743 6.7 6.717 6.717 6.693 6.672 6.653 6.662 6.64 6.61 6.597 6.56 6.582 6.525 6.503 6.465 6.425 6.41 6.35 6.335 6.305 6.278 6.26 6.23 6.188 6.165 6.175 6.17 6.16 6.16 6.162 6.21 6.195 6.17 6.113 6.11 6.075 6.185 6.15 6.15 6.09 6.082 6.055 6.055 6.038 6.035 6.02 6.015 5.992 5.963 5.938 5.915 5.892 5.892 5.878 5.86 5.855 5.855 5.828 5.8 5.785 5.76 5.745 5.735 5.71 5.702 5.705 5.688 5.693 5.672 5.66 5.642 5.625 5.608 5.573 5.54 5.485 5.432 5.4 5.312 5.257 5.27 5.275 5.28 5.258 5.238 5.26 5.293 5.278 5.288 5.25 5.267 5.255 5.24 5.225 5.212 5.21 5.227 5.24 5.235 5.235 5.24 5.247 5.247 5.243 5.247 5.247 5.26 5.273 5.312 5.238 5.225 5.22 5.213 5.217 5.215 5.247 5.243 5.225 5.215 5.21 5.198 5.18 5.177 5.19 5.168 5.177 5.188 5.182 5.16 5.16 5.177 5.19 5.182 5.175 5.14 5.13 5.142 5.145 5.162 5.168 5.175 5.162 5.14 5.128 5.115 5.11 5.108 5.108 5.1 5.09 5.09 5.085 5.088 5.075 5.08 5.053 5.048 5.03 5.03 5.025 5.015 5.01 5.003 5.008 5.077 5.122 5.118 5.075 5.025 4.923 4.93 4.868 4.58 5.515 5.533 4.952 4.915 6.84 7.19 7.38 7.483 6.577 5.1 5.06 5.035 5.025 4.972 4.908 4.918 5.01 4.967 4.912 5.411 5.728 6.181 7.121 7.762 8.708 8.495 7.734 8.152 9.88 9.416 7.276 4.727 4.642 4.702 4.769 4.804 4.797 4.797 4.797 4.807 4.799
10.167 10.295 10.125 9.745 9.745 9.63 9.358 9.205 9.182 9.193 9.49 9.613 9.203 9.132 9.157 9.195 9.257 9.257 9.273 9.465 9.767 9.94 10.062 10.045 9.835 9.507 9.335 9.347 9.577 9.708 9.675 9.335 9.127 9.153 9.3 9.75 10.087 9.695 8.835 8.778 8.712 8.807 8.905 9.153 9.368 9.61 9.792 9.9 9.747 9.573 9.462 9.365 9.195 9.083 8.998 8.972 9.04 9.2 9.375 9.453 9.47 9.38 9.202 9.108 9.113 9.075 9.065 9.087 9.055 8.962 8.958 8.802 9.215 9.238 9.413 10.222 9.99 8.68 8.602 8.83 9.343 10.21 11.52 12.295 12.382 11.835 10.735 10.625 10.825 9.983 9.765 10.113 10 8.62 8.6 8.602 8.57 8.477 8.523 8.538 8.523 8.5 8.458 8.438 8.417 8.395 8.355 8.327 8.343 8.333 8.31 8.302 8.315 8.305 8.28 8.255 8.255 8.245 8.207 8.198 8.2 8.182 8.165 8.155 8.157 8.163 8.145 8.118 8.105 8.095 8.08 8.07 8.057 8.048 8.033 8.03 8.03 8.023 8.02 8.007 7.997 7.99 7.995 7.995 7.992 7.975 7.975 7.967 7.95 7.918 7.915 7.92 7.93 7.915 7.905 7.883 7.87 7.867 7.85 7.832 7.83 7.835 7.82 7.795 7.763 7.755 7.753 7.75 7.725 7.71 7.71 7.702 7.677 7.677 7.665 7.66 7.66 7.657 7.65 7.637 7.632 7.605 7.608 7.608 7.592 7.578 7.56 7.543 7.54 7.533 7.55 7.53 7.52 7.505 7.533 7.543 7.533 7.52 7.55 7.54 7.52 7.505 7.517 7.51 7.523 7.517 7.508 7.512 7.528 7.545 7.568 7.605 7.642 7.682 7.742 7.783 7.985 7.8 7.602 7.477 7.588 7.878 7.66 7.323 7.358 7.392 7.605 8.792 8.337 7.488 7.49 7.438 7.45 7.455 7.425 7.39 7.355 7.307 7.265 7.23 7.185 7.16 7.128 7.12 7.095 7.1 7.07 7.062 7.253 7.062 7.068 7.03 7.03 6.988 6.97 6.97 6.945 6.927 6.898 6.887 6.88 6.84 6.855 6.84 6.835 6.823 6.82 6.82 6.818 6.823 6.802 6.82 6.823 6.855 6.863 6.838 6.81 6.81 6.802 6.798 6.8 6.785 6.795 6.738 6.747 6.717 6.69 6.717 6.7 6.685 6.653 6.637 6.642 6.595 6.605 6.573 6.568 6.55 6.51 6.497 6.445 6.438 6.387 6.352 6.327 6.285 6.27 6.242 6.202 6.177 6.168 6.168 6.155 6.148 6.14 6.17 6.182 6.165 6.142 6.075 6.028 6.135 6.153 6.14 6.13 6.057 6.057 6.035 6.05 6.023 6.01 5.99 5.972 5.957 5.955 5.952 5.93 5.915 5.878 5.868 5.855 5.843 5.81 5.785 5.773 5.76 5.75 5.738 5.71 5.695 5.688 5.668 5.66 5.653 5.66 5.662 5.63 5.625 5.615 5.602 5.58 5.49 5.445 5.43 5.492 5.475 5.408 5.332 5.31 5.29 5.267 5.245 5.132 5.02 5.005 5.068 5.12 5.19 5.195 5.24 5.275 5.207 5.207 5.225 5.2 5.198 5.185 5.165 5.18 5.197 5.205 5.205 5.217 5.31 5.265 5.238 5.293 5.195 5.22 5.21 5.205 5.217 5.215 5.19 5.197 5.19 5.193 5.182 5.182 5.205 5.207 5.2 5.193 5.188 5.18 5.177 5.175 5.155 5.155 5.158 5.155 5.128 5.125 5.097 5.117 5.113 5.1 5.11 5.115 5.122 5.137 5.108 5.102 5.1 5.07 5.068 5.08 5.08 5.075 5.055 5.055 5.025 5.02 5.017 5.017 5.017 5.017 5.01 5.015 5.03 5.028 5.082 5.1 5.055 5.005 4.908 4.89 4.812 4.718 4.972 5.972 6.455 7.19 8.078 8.925 8.905 8.452 6.738 4.97 4.962 4.972 4.965 5.108 5.345 4.892 4.985 4.975 4.938 5.053 5.121 5.566 6.116 7.103 7.293 6.623 5.299 5.45 5.28 5.142 4.995 4.654 4.673 4.699 4.709 4.764 4.802 4.779 4.794 4.809 4.847
10.167 10.028 9.927 9.76 9.523 9.38 9.275 9.255 9.19 9.17 9.823 10.422 9.557 9.193 9.278 9.202 9.243 9.24 9.275 9.32 9.515 9.658 9.715 9.865 9.718 9.505 9.29 9.315 9.565 9.705 9.71 9.432 9.23 9.215 9.25 10.318 10.948 10.425 9.025 8.792 8.722 8.868 9.113 9.34 9.597 9.762 9.887 9.9 9.75 9.585 9.52 9.453 9.243 9.125 9.078 9.113 9.195 9.288 9.427 9.398 9.358 9.36 9.188 9.097 9.163 9.12 9.105 9.227 9.045 9.048 9.163 9.108 9.675 9.368 9.267 10.06 9.165 8.568 8.67 9.26 10.015 11.4 12.225 12.733 12.443 11.305 11.065 11.123 10.452 10.105 10.443 10.083 8.747 8.6 8.605 8.575 8.467 8.507 8.55 8.523 8.462 8.45 8.432 8.41 8.373 8.378 8.37 8.352 8.318 8.325 8.325 8.325 8.29 8.29 8.298 8.28 8.24 8.237 8.23 8.208 8.177 8.185 8.185 8.157 8.15 8.13 8.137 8.125 8.102 8.087 8.075 8.073 8.062 8.045 8.035 8.035 8.023 8.01 8.003 8.005 7.995 7.983 7.975 7.965 7.96 7.96 7.962 7.952 7.95 7.943 7.93 7.912 7.912 7.923 7.91 7.88 7.87 7.878 7.878 7.858 7.832 7.815 7.802 7.81 7.788 7.76 7.727 7.727 7.74 7.727 7.72 7.688 7.673 7.697 7.662 7.662 7.645 7.645 7.63 7.622 7.617 7.67 7.722 7.59 7.58 7.575 7.577 7.568 7.55 7.53 7.53 7.54 7.548 7.535 7.52 7.51 7.517 7.525 7.513 7.515 7.513 7.515 7.505 7.505 7.523 7.512 7.515 7.517 7.517 7.548 7.575 7.6 7.64 7.675 7.688 7.677 8.057 7.778 7.59 7.773 7.438 7.852 7.307 7.34 7.382 7.42 7.483 8.3 7.745 7.488 7.443 7.418 7.415 7.418 7.405 7.372 7.34 7.293 7.253 7.22 7.165 7.137 7.12 7.097 7.095 7.092 7.078 7.188 7.065 7.062 7.06 7.005 7.015 6.977 6.967 6.94 6.912 6.89 6.887 6.867 6.858 6.852 6.845 6.835 6.828 6.81 6.82 6.795 6.805 6.8 6.787 6.805 6.812 6.838 6.847 6.802 6.8 6.785 6.783 6.793 6.778 6.785 6.775 6.725 6.74 6.695 6.7 6.697 6.67 6.668 6.63 6.635 6.622 6.588 6.588 6.557 6.568 6.517 6.51 6.488 6.44 6.425 6.378 6.363 6.32 6.288 6.278 6.247 6.198 6.175 6.175 6.153 6.148 6.135 6.137 6.173 6.168 6.14 6.117 6.12 5.99 6.173 6.115 6.122 6.113 6.05 6.038 6.028 6.037 6.03 6.012 5.995 5.95 5.955 5.932 5.912 5.9 5.883 5.872 5.858 5.852 5.843 5.842 5.812 5.78 5.78 5.767 5.738 5.722 5.715 5.7 5.68 5.68 5.675 5.662 5.653 5.625 5.61 5.597 5.585 5.565 5.51 5.445 5.435 5.405 5.517 5.7 5.608 5.613 5.705 5.66 5.585 5.562 5.573 5.592 5.358 5.315 5.207 5.085 5.082 4.993 5.03 5.08 5.157 5.253 5.26 5.235 5.295 5.26 5.188 5.15 5.137 5.145 5.148 5.207 5.242 5.307 5.247 5.287 5.29 5.265 5.305 5.23 5.213 5.2 5.195 5.182 5.175 5.185 5.165 5.177 5.155 5.153 5.17 5.153 5.155 5.17 5.165 5.14 5.13 5.133 5.135 5.148 5.133 5.115 5.118 5.118 5.108 5.097 5.08 5.073 5.073 5.075 5.085 5.068 5.073 5.06 5.05 5.045 5.037 5.065 5.043 5.043 5.033 5 5.012 5.008 5.017 5.023 5.045 5.057 5.088 5.133 5.078 5.03 4.895 4.89 4.757 4.233 4.613 5.457 6.698 8.79 8.943 9.417 9.542 8.47 6.455 4.99 4.983 4.97 4.97 5.092 5.92 4.875 4.943 4.915 4.895 4.86 4.858 4.797 5.264 6.032 5.856 4.743 4.755 4.744 4.731 4.617 4.628 4.687 4.727 4.747 4.762 4.729 4.699 4.714 4.669 4.662 4.654
10.162 10.04 9.915 9.778 9.642 9.47 9.368 9.27 9.185 9.19 9.833 10.18 9.308 9.145 9.2 9.21 9.165 9.21 9.278 9.323 9.372 9.372 9.55 9.71 9.693 9.483 9.358 9.385 9.56 9.738 9.637 9.368 9.243 9.323 9.71 10.6 11.165 10.798 9.273 8.773 8.747 8.96 9.3 9.49 9.702 9.932 9.957 9.898 9.82 9.64 9.565 9.443 9.337 9.21 9.193 9.253 9.31 9.427 9.427 9.413 9.292 9.253 9.092 9.015 9.172 9.245 9.148 9.185 9.077 9.03 9.26 9.8 9.535 9.155 9.635 9.455 8.68 8.582 9.055 9.91 10.967 11.945 12.477 12.432 11.923 11.153 10.955 10.375 10.023 10.382 10.173 9.165 8.59 8.602 8.61 8.52 8.49 8.52 8.507 8.452 8.435 8.432 8.413 8.382 8.352 8.337 8.35 8.35 8.35 8.33 8.31 8.312 8.302 8.298 8.288 8.278 8.255 8.23 8.208 8.208 8.2 8.182 8.175 8.153 8.135 8.145 8.13 8.11 8.105 8.095 8.062 8.05 8.062 8.05 8.033 8.023 8.02 8.012 8 7.983 7.97 7.97 7.967 7.96 7.945 7.938 7.94 7.943 7.94 7.94 7.94 7.915 7.905 7.892 7.915 7.915 7.89 7.867 7.852 7.847 7.843 7.83 7.828 7.795 7.775 7.778 7.758 7.742 7.72 7.722 7.717 7.738 7.695 7.668 7.66 7.653 7.645 7.685 7.635 7.625 7.617 7.617 7.6 7.59 7.6 7.582 7.565 7.673 7.57 7.557 7.55 7.54 7.535 7.545 7.52 7.51 7.5 7.497 7.508 7.52 7.505 7.508 7.51 7.512 7.513 7.523 7.523 7.53 7.543 7.573 7.565 7.602 7.64 7.71 7.665 7.66 7.757 8.097 7.675 7.472 7.898 7.965 7.34 7.358 7.4 7.445 7.497 7.508 7.48 7.463 7.452 7.392 7.387 7.4 7.39 7.38 7.323 7.283 7.245 7.2 7.16 7.137 7.117 7.095 7.095 7.082 7.08 7.075 7.048 7.062 7.033 7.008 6.985 6.977 6.95 6.912 6.9 6.882 6.872 6.863 6.84 6.847 6.82 6.827 6.802 6.798 6.807 6.785 6.798 6.773 6.795 6.795 6.807 6.815 6.805 6.773 6.783 6.763 6.765 6.78 6.758 6.773 6.74 6.73 6.71 6.695 6.697 6.668 6.66 6.635 6.617 6.64 6.597 6.585 6.565 6.565 6.555 6.508 6.503 6.45 6.44 6.41 6.365 6.35 6.31 6.298 6.262 6.227 6.188 6.18 6.168 6.145 6.142 6.133 6.14 6.153 6.13 6.13 6.078 6.095 6.028 6.16 6.068 6.113 6.082 6.05 6.017 6.013 6.017 6.003 5.995 5.992 5.975 5.935 5.93 5.92 5.905 5.915 5.883 5.872 5.852 5.83 5.82 5.825 5.783 5.778 5.75 5.725 5.713 5.713 5.693 5.695 5.7 5.693 5.67 5.662 5.635 5.617 5.597 5.578 5.578 5.56 5.528 5.495 5.49 5.463 5.443 5.465 5.457 5.472 5.488 5.49 5.493 5.56 5.787 5.517 5.555 6.155 6.312 6.408 5.69 5.722 5.375 5.218 5.207 5.102 4.95 4.988 5.055 5.065 5.113 5.137 5.142 5.203 5.15 5.142 5.195 5.197 5.253 5.197 5.185 5.273 5.287 5.275 5.198 5.245 5.265 5.23 5.293 5.213 5.245 5.245 5.218 5.193 5.18 5.23 5.168 5.14 5.137 5.13 5.11 5.115 5.12 5.115 5.158 5.165 5.125 5.122 5.128 5.12 5.102 5.077 5.073 5.073 5.065 5.053 5.043 5.038 5.023 5.02 5.012 4.977 5.007 5.005 4.99 4.99 4.972 4.977 4.995 5.02 5.05 5.068 5.093 5.075 5.03 4.887 4.9 4.875 4.338 4.593 5.298 7 8.637 8.798 8.823 8.898 8.363 6.145 4.988 4.975 4.965 4.967 5.552 5.75 4.852 4.895 4.845 4.832 4.849 4.838 4.816 4.788 4.901 5.218 4.774 4.763 4.75 4.709 4.571 4.668 4.71 4.716 4.712 4.877 4.867 4.792 4.739 4.717 4.674 4.627
10.125 10.078 10.017 9.958 9.783 9.62 9.47 9.45 9.44 9.51 9.552 9.352 9.102 9.1 9.18 9.198 9.173 9.202 9.288 9.435 9.47 9.39 9.48 9.675 9.615 9.427 9.387 9.427 9.613 9.715 9.52 9.295 9.153 9.127 9.34 9.455 10.068 10.14 9.038 8.827 8.788 9.048 9.355 9.605 9.85 9.927 9.913 9.825 9.76 9.61 9.507 9.345 9.235 9.24 9.283 9.307 9.435 9.585 9.495 9.403 9.288 9.148 9.057 8.988 9.185 9.39 9.212 9.22 9.135 9.03 9.31 9.685 9.507 9.06 9.052 8.865 8.637 8.757 9.892 10.837 11.623 12.015 12.212 11.65 11.363 10.513 10.405 9.745 10.125 10.172 9.51 8.587 8.622 8.642 8.535 8.493 8.5 8.515 8.488 8.445 8.438 8.39 8.363 8.355 8.352 8.337 8.347 8.333 8.333 8.33 8.325 8.312 8.31 8.292 8.285 8.267 8.25 8.255 8.24 8.195 8.195 8.198 8.18 8.153 8.132 8.115 8.1 8.085 8.077 8.075 8.083 8.057 8.042 8.05 8.05 8.038 8.02 7.993 7.975 7.983 7.967 7.952 7.957 7.943 7.943 7.927 7.918 7.912 7.923 7.912 7.912 7.922 7.92 7.918 7.895 7.887 7.885 7.878 7.878 7.86 7.838 7.812 7.812 7.81 7.8 7.783 7.77 7.753 7.738 7.73 7.705 7.717 7.717 7.665 7.655 7.635 7.648 7.653 7.64 7.617 7.617 7.608 7.613 7.593 7.585 7.56 7.57 7.582 7.55 7.55 7.568 7.557 7.53 7.515 7.517 7.523 7.515 7.492 7.47 7.492 7.497 7.497 7.503 7.503 7.508 7.515 7.528 7.537 7.557 7.535 7.562 7.597 7.642 7.662 7.63 7.677 7.73 7.685 7.515 7.505 8.328 8.747 7.302 7.365 7.418 7.805 7.903 7.492 7.485 7.43 7.463 7.455 7.398 7.372 7.378 7.368 7.312 7.258 7.222 7.193 7.155 7.132 7.11 7.09 7.09 7.085 7.078 7.065 7.05 7.057 7.017 7 6.985 6.967 6.925 6.895 6.89 6.863 6.86 6.845 6.835 6.812 6.818 6.798 6.783 6.788 6.778 6.787 6.773 6.77 6.785 6.778 6.803 6.82 6.783 6.767 6.762 6.747 6.76 6.745 6.743 6.742 6.712 6.71 6.685 6.695 6.68 6.653 6.648 6.62 6.62 6.628 6.58 6.575 6.555 6.56 6.523 6.515 6.483 6.45 6.438 6.4 6.378 6.342 6.305 6.29 6.265 6.22 6.188 6.177 6.155 6.142 6.128 6.132 6.14 6.133 6.118 6.11 6.05 6.05 6.095 6.12 6.057 6.102 6.062 6.037 6.023 6.02 6.008 5.99 5.977 5.975 5.96 5.945 5.92 5.9 5.872 5.855 5.838 5.847 5.827 5.795 5.773 5.773 5.773 5.785 5.75 5.74 5.705 5.717 5.71 5.702 5.685 5.682 5.665 5.64 5.602 5.595 5.58 5.588 5.575 5.562 5.535 5.5 5.465 5.445 5.408 5.387 5.368 5.358 5.372 5.35 5.328 5.335 5.378 5.37 5.372 5.495 5.575 5.655 5.912 6.427 6.465 6.5 6.128 5.92 6.023 5.658 5.54 5.378 5.3 5.368 5.153 5.088 5.048 5.025 4.952 4.938 4.983 5.028 5.065 5.115 5.153 5.128 5.125 5.18 5.207 5.158 5.235 5.25 5.283 5.307 5.335 5.238 5.225 5.293 5.218 5.153 5.18 5.173 5.168 5.105 5.122 5.12 5.093 5.1 5.108 5.097 5.095 5.1 5.108 5.1 5.085 5.08 5.073 5.075 5.052 5.048 5.05 5.04 5.038 5.033 5.023 5.01 4.995 4.993 4.985 4.97 4.975 4.988 5.048 5.117 5.09 5.095 5.057 4.927 4.895 4.89 4.67 4.662 5.332 5.743 6.475 7.25 7.088 6.895 7.207 5.967 5.048 5.062 4.975 4.972 5.255 5.85 4.827 4.872 4.81 4.793 4.807 4.817 4.802 4.785 4.77 5.314 4.84 4.749 4.741 4.66 4.542 4.667 4.67 4.683 4.694 5.014 5.052 4.992 4.912 4.907 4.839 4.779
10.045 10.077 10.122 10.17 10.003 9.868 9.885 9.98 9.962 9.805 9.488 9.318 9.182 9.21 9.195 9.227 9.235 9.293 9.39 9.557 9.585 9.47 9.43 9.637 9.6 9.413 9.34 9.43 9.59 9.673 9.605 9.377 9.135 9.115 9.16 9.21 9.262 9.235 9.048 8.9 8.945 9.188 9.488 9.693 9.85 9.967 9.92 9.812 9.738 9.585 9.48 9.302 9.205 9.345 9.368 9.443 9.592 9.65 9.583 9.408 9.267 9.163 9.073 9.035 9.198 9.275 9.35 9.323 9.235 9.15 9.225 9.398 9.315 8.962 8.98 8.807 8.655 9.23 10.725 11.32 11.5 11.653 11.855 11.61 11.113 10.85 9.852 9.673 10.028 9.842 8.635 8.602 8.613 8.575 8.49 8.512 8.535 8.51 8.45 8.408 8.382 8.347 8.342 8.355 8.35 8.333 8.333 8.343 8.343 8.342 8.323 8.315 8.305 8.295 8.28 8.275 8.267 8.24 8.225 8.23 8.208 8.18 8.175 8.163 8.128 8.125 8.118 8.092 8.08 8.06 8.045 8.06 8.052 8.04 8.035 8.025 8.01 8.015 8.015 7.988 7.952 7.945 7.938 7.938 7.93 7.925 7.915 7.907 7.89 7.895 7.89 7.892 7.892 7.903 7.908 7.905 7.88 7.858 7.86 7.858 7.852 7.847 7.812 7.805 7.8 7.795 7.775 7.773 7.76 7.75 7.725 7.697 7.685 7.695 7.69 7.665 7.642 7.628 7.628 7.628 7.62 7.597 7.585 7.595 7.588 7.573 7.575 7.573 7.605 7.555 7.56 7.59 7.557 7.54 7.515 7.49 7.503 7.52 7.493 7.472 7.462 7.48 7.488 7.497 7.503 7.51 7.525 7.533 7.537 7.545 7.582 7.597 7.628 7.577 7.595 7.66 7.617 7.537 7.07 8.11 8.628 8.282 7.312 7.385 7.457 8.775 8.852 7.465 7.46 7.45 7.425 7.435 7.398 7.363 7.375 7.335 7.307 7.24 7.205 7.18 7.15 7.125 7.092 7.085 7.075 7.075 7.08 7.05 7.062 7.035 7.013 6.99 6.965 6.95 6.92 6.887 6.868 6.865 6.845 6.835 6.838 6.807 6.815 6.783 6.783 6.78 6.773 6.78 6.747 6.77 6.758 6.793 6.805 6.79 6.758 6.75 6.737 6.733 6.747 6.722 6.733 6.712 6.7 6.69 6.677 6.685 6.653 6.635 6.632 6.608 6.622 6.59 6.57 6.553 6.557 6.55 6.5 6.495 6.455 6.438 6.43 6.4 6.378 6.332 6.305 6.28 6.255 6.215 6.202 6.173 6.14 6.142 6.113 6.135 6.128 6.11 6.117 6.085 6.075 5.975 6.135 6.085 6.068 6.1 6.057 6.03 6.028 6.028 6.003 5.988 5.983 5.972 5.96 5.952 5.935 5.925 5.892 5.867 5.86 5.858 5.84 5.815 5.785 5.758 5.72 5.7 5.7 5.705 5.695 5.702 5.698 5.693 5.71 5.702 5.68 5.668 5.645 5.613 5.59 5.56 5.535 5.515 5.515 5.492 5.48 5.457 5.44 5.4 5.392 5.363 5.347 5.33 5.325 5.33 5.318 5.312 5.31 5.315 5.295 5.262 5.32 5.307 5.32 5.36 5.295 5.325 5.54 5.495 5.483 5.483 5.665 6.122 6.012 6.29 5.76 5.5 5.47 5.682 5.363 5.27 5.32 5.213 4.988 4.983 4.915 4.895 4.878 4.98 5.42 5.055 5.137 5.157 5.182 5.16 5.148 5.202 5.135 5.203 5.307 5.245 5.198 5.19 5.225 5.217 5.202 5.19 5.18 5.202 5.215 5.16 5.14 5.165 5.173 5.115 5.088 5.07 5.038 5.03 5.023 5.017 5.025 5.017 5.015 5.012 5.015 5.01 5.008 5.003 5.008 5.028 5.07 5.113 5.12 5.13 5.105 4.94 4.905 4.898 4.25 4.81 5.608 5.08 5.055 5.048 5.06 5.065 5.057 5.052 5.05 5.035 5.037 5.01 4.972 5.003 4.755 4.807 4.79 4.783 4.773 4.766 4.761 4.75 5.044 5.697 4.849 4.738 4.706 4.608 4.541 4.622 4.606 4.611 4.642 4.967 5.037 4.997 4.997 4.999 4.932 4.952
10.075 10.14 10.225 10.305 10.292 10.198 10.195 10.408 10.305 10.023 9.69 9.53 9.43 9.432 9.35 9.4 9.363 9.368 9.565 9.658 9.68 9.49 9.408 9.595 9.628 9.432 9.355 9.427 9.618 9.682 9.625 9.805 9.318 9.155 9.155 9.18 9.172 9.2 9.065 9.048 9.26 9.493 9.67 9.825 9.88 9.99 9.908 9.815 9.702 9.528 9.413 9.262 9.283 9.455 9.495 9.625 9.735 9.712 9.642 9.465 9.285 9.167 9.108 9.12 9.235 9.33 9.363 9.413 9.318 9.222 9.22 9.19 9.017 8.977 9.003 8.738 8.76 9.538 10.51 10.717 10.863 11.148 11.283 11.047 10.685 9.997 9.372 9.703 9.778 8.752 8.573 8.593 8.605 8.517 8.54 8.538 8.515 8.465 8.427 8.407 8.365 8.352 8.333 8.33 8.362 8.355 8.33 8.34 8.337 8.325 8.312 8.307 8.305 8.298 8.265 8.26 8.262 8.247 8.222 8.195 8.195 8.193 8.188 8.16 8.148 8.127 8.095 8.09 8.075 8.057 8.05 8.04 8.038 8.045 8.042 8.015 8.007 7.99 7.983 7.98 7.967 7.943 7.932 7.92 7.918 7.907 7.89 7.89 7.898 7.887 7.88 7.895 7.895 7.88 7.88 7.9 7.9 7.875 7.863 7.847 7.85 7.85 7.845 7.803 7.793 7.793 7.8 7.765 7.745 7.755 7.74 7.722 7.71 7.677 7.67 7.68 7.67 7.645 7.625 7.613 7.613 7.597 7.592 7.57 7.582 7.585 7.562 7.57 7.575 7.573 7.575 7.568 7.57 7.555 7.54 7.523 7.508 7.49 7.5 7.48 7.475 7.472 7.457 7.472 7.492 7.517 7.51 7.54 7.528 7.55 7.568 7.597 7.635 7.575 7.637 7.64 7.582 7.427 7.227 9.057 8.542 7.523 7.343 7.403 7.795 8.895 8.142 7.37 7.55 7.512 7.445 7.403 7.363 7.347 7.36 7.32 7.275 7.23 7.205 7.18 7.148 7.113 7.08 7.085 7.07 7.092 7.068 7.038 7.045 7.012 7.008 6.975 6.952 6.932 6.9 6.887 6.875 6.865 6.832 6.825 6.803 6.805 6.805 6.767 6.773 6.765 6.765 6.758 6.738 6.755 6.753 6.788 6.785 6.763 6.745 6.733 6.717 6.72 6.71 6.705 6.717 6.682 6.68 6.668 6.672 6.655 6.637 6.628 6.605 6.602 6.593 6.562 6.55 6.54 6.54 6.52 6.492 6.483 6.45 6.432 6.41 6.395 6.352 6.325 6.295 6.27 6.253 6.21 6.202 6.162 6.15 6.145 6.125 6.14 6.118 6.108 6.11 6.05 6.073 6.012 6.14 6.068 6.08 6.065 6.035 6.03 6.023 6.035 6.015 5.963 5.947 5.943 5.943 5.935 5.912 5.912 5.887 5.867 5.86 5.85 5.83 5.823 5.788 5.767 5.753 5.725 5.7 5.697 5.682 5.675 5.673 5.673 5.65 5.637 5.637 5.635 5.625 5.602 5.582 5.56 5.56 5.528 5.513 5.477 5.45 5.427 5.425 5.422 5.41 5.387 5.382 5.363 5.352 5.36 5.342 5.323 5.312 5.305 5.303 5.29 5.303 5.29 5.288 5.285 5.295 5.265 5.27 5.253 5.215 5.278 5.27 5.31 5.4 5.325 5.375 5.355 5.472 5.632 6.162 6.452 5.68 6.055 6.62 6.52 6.488 5.477 5.44 5.312 5.202 5.1 5.062 4.938 4.898 4.898 4.932 4.957 4.992 5.095 5.12 5.148 5.132 5.135 5.122 5.153 5.122 5.188 5.215 5.132 5.172 5.197 5.212 5.207 5.188 5.185 5.245 5.172 5.122 5.137 5.137 5.085 5.075 5.048 5.068 5.015 5.003 4.99 4.988 4.995 5.005 5.015 5.06 5.113 5.17 5.162 5.128 4.945 4.93 4.882 4.205 4.872 6.255 5.455 5.04 5.035 5.05 5.045 5.048 5.035 5.023 5.025 5.023 5.015 4.945 4.847 4.75 4.693 4.662 4.788 4.773 4.757 4.739 4.734 5.225 5.773 4.821 4.747 4.684 4.558 4.518 4.587 4.574 4.577 4.652 4.937 4.984 4.957 5.012 4.857 4.872 4.917
9.88 10.11 10.345 10.345 10.365 10.42 10.368 10.35 10.238 10.08 9.892 9.818 9.7 9.805 9.64 9.608 9.538 9.47 9.635 9.695 9.753 9.488 9.445 9.57 9.625 9.45 9.343 9.44 9.642 9.675 9.88 10.182 9.878 9.22 9.245 9.165 9.15 9.145 9.153 9.13 9.32 9.573 9.832 9.945 9.98 9.93 9.805 9.688 9.565 9.462 9.34 9.257 9.42 9.587 9.675 9.838 9.865 9.783 9.663 9.538 9.315 9.275 9.212 9.247 9.5 9.665 9.623 9.528 9.417 9.39 9.307 8.983 8.96 8.955 8.812 8.677 8.905 9.395 9.81 9.993 10.255 10.745 10.778 10.363 9.6 9.252 9.703 10.012 8.99 8.545 8.565 8.608 8.568 8.54 8.538 8.5 8.477 8.435 8.427 8.405 8.358 8.343 8.34 8.337 8.323 8.333 8.333 8.325 8.315 8.335 8.315 8.285 8.278 8.295 8.292 8.255 8.233 8.23 8.22 8.212 8.198 8.195 8.18 8.148 8.13 8.108 8.097 8.097 8.073 8.05 8.05 8.045 8.042 8.023 8.028 8.025 8.003 7.99 7.988 7.977 7.957 7.94 7.925 7.922 7.898 7.89 7.895 7.878 7.878 7.885 7.88 7.878 7.87 7.87 7.868 7.87 7.87 7.878 7.878 7.852 7.835 7.823 7.825 7.835 7.81 7.785 7.778 7.775 7.785 7.763 7.745 7.725 7.712 7.72 7.693 7.66 7.653 7.658 7.642 7.615 7.62 7.613 7.61 7.582 7.57 7.562 7.58 7.577 7.562 7.55 7.555 7.578 7.582 7.55 7.535 7.533 7.515 7.5 7.477 7.477 7.477 7.467 7.462 7.47 7.48 7.505 7.525 7.523 7.533 7.535 7.562 7.605 7.605 7.615 7.645 7.605 7.512 7.057 8.083 8.46 7.923 7.36 7.382 7.452 8.33 8.767 7.613 7.398 7.507 7.472 7.405 7.37 7.345 7.352 7.347 7.305 7.258 7.23 7.2 7.162 7.133 7.09 7.073 7.07 7.062 7.113 7.045 7.043 7.025 6.997 6.992 6.967 6.943 6.92 6.89 6.88 6.872 6.852 6.827 6.827 6.798 6.805 6.775 6.773 6.77 6.753 6.76 6.735 6.742 6.742 6.762 6.78 6.778 6.738 6.725 6.717 6.702 6.713 6.685 6.697 6.69 6.67 6.662 6.633 6.653 6.622 6.625 6.608 6.577 6.593 6.56 6.545 6.54 6.533 6.533 6.483 6.475 6.455 6.44 6.415 6.395 6.375 6.338 6.31 6.288 6.27 6.247 6.215 6.195 6.157 6.153 6.128 6.12 6.128 6.122 6.128 6.088 6.037 6.037 6.062 6.128 6.05 6.08 6.043 6.03 6.043 6.03 6.028 6.008 5.975 5.955 5.95 5.94 5.918 5.922 5.898 5.88 5.84 5.852 5.835 5.825 5.798 5.78 5.76 5.763 5.747 5.722 5.707 5.693 5.688 5.67 5.653 5.642 5.645 5.63 5.622 5.615 5.588 5.565 5.54 5.525 5.517 5.523 5.505 5.472 5.46 5.418 5.42 5.403 5.392 5.372 5.36 5.368 5.358 5.358 5.35 5.335 5.332 5.332 5.33 5.33 5.32 5.318 5.307 5.28 5.275 5.275 5.26 5.26 5.255 5.255 5.26 5.25 5.247 5.227 5.233 5.233 5.2 5.25 5.207 5.215 5.36 5.528 5.475 5.727 5.493 5.585 5.615 5.715 5.985 5.783 6.24 6.128 6.15 6.02 5.632 5.573 5.065 4.963 4.885 4.84 4.84 4.953 4.905 4.918 5.01 5.065 5.075 5.095 5.097 5.115 5.125 5.118 5.105 5.148 5.133 5.122 5.165 5.162 5.162 5.137 5.148 5.132 5.1 5.062 5.085 5.07 5.057 5.14 5.115 5.068 5.115 5.222 5.21 5.195 5.09 4.975 4.94 4.205 4.53 5.485 5.258 5.325 5.008 5.017 5.015 5.023 5.045 5.332 5.293 5.045 5.09 5.035 4.85 4.787 4.738 4.7 4.793 4.761 4.749 4.735 4.734 4.854 5.208 4.789 4.75 4.669 4.533 4.534 4.585 4.561 4.584 4.679 4.942 4.967 4.937 4.954 4.804 4.879 4.935
9.755 9.847 10.195 10.355 10.435 10.42 10.39 10.385 10.03 10.34 10.2 10.042 9.8 10.285 10.205 9.802 9.725 9.6 9.727 9.86 9.84 9.75 9.605 9.613 9.595 9.452 9.358 9.488 9.665 9.665 9.72 10.158 10.267 9.56 9.21 9.142 9.193 9.128 9.165 9.302 9.507 9.727 9.863 9.983 10.01 9.875 9.705 9.6 9.445 9.403 9.318 9.295 9.483 9.73 10.057 10.105 10.023 9.967 9.807 9.58 9.378 9.34 9.278 9.4 9.53 9.74 9.825 9.602 9.37 9.415 9.458 9.06 8.932 8.872 8.755 8.715 8.95 9.137 9.392 9.68 9.722 9.858 9.95 9.965 9.665 9.34 10.1 10.13 8.628 8.56 8.56 8.552 8.54 8.515 8.48 8.46 8.44 8.392 8.368 8.363 8.342 8.312 8.305 8.312 8.318 8.32 8.315 8.318 8.312 8.29 8.292 8.285 8.262 8.25 8.26 8.257 8.238 8.22 8.215 8.2 8.188 8.177 8.155 8.163 8.153 8.113 8.097 8.085 8.075 8.047 8.042 8.05 8.03 8.01 8.013 7.995 8.005 7.995 7.972 7.952 7.943 7.943 7.93 7.927 7.908 7.895 7.895 7.88 7.885 7.875 7.865 7.875 7.863 7.852 7.855 7.865 7.858 7.852 7.858 7.85 7.865 7.835 7.812 7.8 7.81 7.81 7.793 7.785 7.778 7.767 7.755 7.735 7.722 7.71 7.725 7.7 7.668 7.653 7.635 7.642 7.628 7.602 7.648 7.59 7.59 7.577 7.568 7.557 7.565 7.568 7.565 7.557 7.625 7.555 7.528 7.51 7.512 7.513 7.5 7.477 7.46 7.46 7.462 7.483 7.475 7.47 7.497 7.503 7.52 7.533 7.575 7.602 7.548 7.62 7.618 7.565 7.403 7.185 8.78 8.503 7.537 7.448 7.395 7.688 8.79 8.095 7.295 7.47 7.48 7.448 7.395 7.355 7.35 7.358 7.327 7.283 7.238 7.22 7.18 7.15 7.122 7.065 7.068 7.05 7.057 7.052 7.043 7.03 7.003 6.997 6.972 6.957 6.94 6.898 6.882 6.887 6.867 6.843 6.835 6.807 6.793 6.79 6.767 6.773 6.765 6.753 6.747 6.733 6.74 6.733 6.76 6.763 6.747 6.715 6.71 6.693 6.707 6.688 6.68 6.685 6.665 6.655 6.635 6.635 6.635 6.6 6.6 6.565 6.577 6.573 6.55 6.54 6.523 6.535 6.505 6.467 6.462 6.418 6.42 6.392 6.38 6.347 6.332 6.303 6.275 6.265 6.22 6.207 6.185 6.16 6.148 6.117 6.135 6.118 6.115 6.115 6.082 6.055 5.963 6.097 6.105 6.055 6.108 6.017 6.015 6.043 6.033 6.01 5.988 5.957 5.948 5.945 5.922 5.903 5.875 5.878 5.858 5.81 5.845 5.838 5.812 5.787 5.765 5.753 5.727 5.715 5.698 5.688 5.677 5.67 5.66 5.662 5.64 5.635 5.625 5.615 5.605 5.588 5.557 5.52 5.5 5.492 5.495 5.497 5.49 5.475 5.457 5.435 5.412 5.395 5.39 5.39 5.38 5.385 5.365 5.358 5.325 5.32 5.325 5.318 5.315 5.318 5.31 5.305 5.31 5.302 5.285 5.295 5.28 5.265 5.275 5.267 5.25 5.25 5.23 5.237 5.235 5.233 5.233 5.24 5.21 5.217 5.217 5.22 5.215 5.217 5.198 5.207 5.205 5.198 5.24 5.56 5.702 5.735 6.04 6.082 6.742 7.207 6.802 6.007 5.745 5.713 5.463 5.293 5.168 5.148 4.93 4.84 4.84 4.753 4.753 4.743 4.798 4.85 4.865 4.93 4.988 4.99 5.03 5.033 5.048 5.045 5.037 5.035 5.05 5.02 5.068 5.045 5.153 5.115 5.082 5.153 5.185 5.21 5.135 5.1 5.012 4.98 4.28 4.423 5.863 5.365 5.15 5.023 5.01 5.012 5.008 5.227 6.163 6.717 6.977 6.77 4.957 4.885 4.8 4.863 4.83 4.809 4.791 4.787 4.764 4.737 4.983 5.352 4.784 4.742 4.665 4.515 4.533 4.554 4.569 4.554 4.729 4.929 4.977 4.959 4.937 4.919 4.912 4.954
