ncols 427
nrows 30
xllcorner    247044
yllcorner    137890
cellsize     2
NODATA_value -9999
40.388 40.528 40.661 40.768 40.88 40.995 41.103 41.211 41.312 41.436 41.557 41.68 41.783 41.91 42.039 42.168 42.303 42.418 42.55 42.675 42.77 42.89 42.973 43.093 43.188 43.288 43.4 43.515 43.628 43.73 43.863 43.963 44.07 44.185 44.298 44.363 44.45 44.55 44.643 44.735 44.863 45 45.27 45.25 45.888 46.728 47.223 47.22 46.61 46.85 46.84 47.355 47.643 47.335 46.83 46.885 46.923 46.975 47.038 47.073 47.15 47.23 47.31 47.335 47.395 47.573 47.67 47.545 47.57 48.603 47.773 48.113 49.815 49.525 49.725 49.893 50.035 50.155 50.308 50.478 50.678 50.925 51.158 51.373 51.58 51.76 51.955 52.205 52.558 53.078 53.618 53.983 54.125 54.2 54.31 54.43 54.53 54.648 54.933 55.81 55.335 55.605 55.875 56.158 57.403 58.62 57.058 57.525 57.39 59.063 59.98 58.248 59.87 60.485 58.693 58.605 59.143 59.365 59.733 60.073 60.583 61.65 60.345 59.828 62.968 62.413 62.935 63.115 63.8 64.475 65.175 65.885 66.615 67.345 68.033 68.78 69.463 70.188 70.918 71.658 72.295 73.978 75.135 75.203 76.14 77.243 78.213 78.503 79.74 80.67 79.945 81.265 81.94 81.215 82.298 81.48 81.858 82.31 82.743 83.155 83.595 84.003 84.415 84.838 85.218 85.658 86.023 86.43 86.815 87.223 87.605 87.983 88.355 88.71 89.06 89.44 90.263 91.323 92.715 93.065 91.805 92.1 92.427 92.75 93.072 93.375 93.687 94.015 94.327 94.682 95.02 95.387 95.725 96.085 96.46 96.785 97.135 97.472 97.81 98.165 98.555 98.947 99.345 99.732 100.152 100.572 100.987 101.392 101.815 102.232 102.65 103.09 103.425 103.855 104.257 104.675 105.072 105.442 105.815 106.137 106.495 106.815 107.135 107.47 107.775 108.077 108.387 108.667 108.94 109.207 109.472 109.735 109.977 110.252 110.497 110.772 111.067 111.362 111.66 111.935 112.23 112.517 112.822 113.105 113.402 113.685 113.972 114.245 114.537 114.847 115.185 115.472 115.762 116.03 116.285 116.552 116.812 117.047 117.262 117.505 117.717 117.925 118.16 118.395 118.622 118.847 119.092 119.327 119.557 119.76 119.965 120.142 120.337 120.517 120.71 120.915 121.092 121.282 121.455 121.612 121.8 121.955 122.14 122.307 122.487 122.65 122.807 122.965 123.11 123.26 123.397 123.562 123.697 123.872 124.032 124.19 124.347 124.53 124.68 124.83 125.002 125.155 125.327 125.495 125.647 125.8 125.95 126.085 126.232 126.4 126.51 126.667 126.802 126.957 127.11 127.262 127.412 127.567 127.69 127.817 127.922 128.067 128.187 128.317 128.41 128.535 128.635 128.78 128.877 128.962 129.075 129.165 129.22 129.262 129.327 129.402 129.482 129.542 129.605 129.66 129.737 129.78 129.825 129.842 129.862 129.897 129.927 129.962 129.995 130.037 130.075 130.11 130.132 130.135 130.13 130.112 130.092 130.082 130.097 130.112 130.147 130.182 130.772 131.017 130.125 129.427 129.505 130.85 130.717 129.855 129.86 129.82 129.787 129.802 129.81 129.835 129.795 129.767 129.745 129.74 129.695 129.672 129.625 129.605 129.555 129.495 129.452 129.425 129.39 129.347 129.312 129.27 129.212 129.172 129.142 129.102 129.065 129.017 128.975 128.92 128.882 128.82 128.775 128.73 128.697 128.64 128.607 128.542 128.517 128.47 128.422 128.37 128.33 128.265 128.21 128.15 128.095 128.052 127.982 127.945 127.885 127.85 127.81 127.772 127.722 127.685 127.622
40.32 40.445 40.552 40.664 40.775 40.893 41.002 41.115 41.23 41.33 41.445 41.574 41.689 41.837 41.957 42.086 42.213 42.343 42.463 42.598 42.698 42.805 42.915 43.003 43.103 43.208 43.33 43.455 43.545 43.673 43.775 43.875 43.968 44.058 44.163 44.275 44.35 44.443 44.565 44.758 45.343 45.84 45.628 45.208 45.625 46.038 45.99 45.538 45.423 45.863 46.978 47.325 47.583 46.978 46.763 46.843 46.883 46.913 46.955 47.013 47.083 47.145 47.235 47.278 47.348 47.545 47.738 47.575 47.548 48.423 47.718 47.985 49.735 49.57 49.685 49.858 49.98 50.123 50.288 50.458 50.648 50.885 51.133 51.358 51.548 51.72 51.945 52.188 52.545 53.033 53.59 53.973 54.105 54.19 54.303 54.415 54.51 54.673 54.87 55.635 55.315 55.573 56.06 56.14 57.798 60.308 57.218 57.1 57.443 58.035 59.705 59.718 58.843 58.495 58.205 58.355 58.795 59.43 59.743 59.983 60.905 60.438 60.37 63.138 63.913 62.355 62.815 63.443 64.12 64.828 65.543 66.238 67.02 67.718 68.443 69.138 69.87 70.623 71.37 72.1 72.773 73.453 74.295 75.693 76.993 77.715 78.955 79.69 80.918 80.423 80.045 80.933 82.16 82.655 83.25 81.953 82.063 82.52 82.948 83.365 83.798 84.175 84.595 85.008 85.405 85.79 86.165 86.573 86.98 87.363 87.723 88.095 88.473 88.81 89.19 89.94 91.195 92.648 91.65 91.74 91.88 92.2 92.52 92.862 93.192 93.5 93.807 94.142 94.452 94.775 95.132 95.492 95.847 96.205 96.535 96.907 97.25 97.562 97.907 98.255 98.635 99.012 99.41 99.81 100.21 100.62 101.045 101.467 101.882 102.302 102.735 103.147 103.557 103.957 104.375 104.8 105.227 105.63 105.977 106.307 106.65 106.977 107.287 107.602 107.917 108.2 108.505 108.81 109.1 109.357 109.61 109.872 110.14 110.407 110.655 110.92 111.202 111.497 111.812 112.095 112.395 112.702 112.997 113.307 113.595 113.905 114.185 114.46 114.75 115.045 115.377 115.672 115.975 116.24 116.505 116.765 116.99 117.245 117.497 117.735 117.945 118.15 118.37 118.605 118.83 119.045 119.3 119.535 119.767 119.965 120.165 120.355 120.537 120.725 120.902 121.102 121.297 121.48 121.667 121.825 121.972 122.137 122.322 122.49 122.67 122.837 122.992 123.152 123.3 123.45 123.605 123.767 123.92 124.07 124.207 124.375 124.555 124.735 124.867 125.052 125.202 125.35 125.52 125.685 125.862 126.005 126.155 126.31 126.437 126.602 126.75 126.885 127.025 127.172 127.35 127.492 127.627 127.785 127.927 128.04 128.167 128.292 128.41 128.527 128.622 128.727 128.852 128.962 129.05 129.157 129.25 129.335 129.405 129.445 129.507 129.595 129.655 129.715 129.752 129.827 129.87 129.937 129.972 130.005 130.03 130.047 130.08 130.11 130.157 130.157 130.195 130.232 130.28 130.29 130.295 130.255 130.23 130.172 130.145 130.197 130.195 130.252 130.372 131.192 130.975 129.58 129.535 129.965 130.032 129.94 129.94 129.865 129.855 129.84 129.84 129.837 129.847 129.825 129.797 129.76 129.71 129.69 129.667 129.617 129.57 129.53 129.477 129.425 129.367 129.325 129.285 129.247 129.195 129.145 129.112 129.045 129.025 128.987 128.925 128.86 128.835 128.782 128.735 128.692 128.637 128.607 128.537 128.502 128.45 128.395 128.34 128.297 128.252 128.197 128.12 128.075 128.027 127.99 127.922 127.882 127.825 127.782 127.732 127.7 127.642 127.595 127.542
40.217 40.325 40.454 40.56 40.674 40.781 40.894 41.002 41.114 41.233 41.364 41.505 41.63 41.752 41.887 42.023 42.14 42.255 42.38 42.505 42.625 42.72 42.86 42.95 43.033 43.145 43.265 43.378 43.483 43.563 43.663 43.755 43.868 43.973 44.09 44.198 44.338 44.67 45.385 45.718 46.098 46.028 45.498 44.998 44.993 44.973 45.128 45.258 45.345 45.605 47.035 47.15 47.01 47.13 46.703 46.78 46.808 46.843 46.893 46.935 47.025 47.085 47.153 47.203 47.34 47.453 47.523 47.533 47.54 48.425 47.68 47.903 49.675 49.613 49.648 49.83 49.965 50.073 50.25 50.393 50.588 50.85 51.103 51.318 51.528 51.71 51.903 52.205 52.55 53.025 53.55 53.97 54.098 54.185 54.29 54.413 54.548 54.675 54.91 55.795 55.658 55.538 56.82 57.81 56.42 56.833 56.753 56.96 57.338 57.363 58.148 59.785 58.54 58.118 58.133 59.44 60.52 60.66 60.293 60.568 59.248 58.86 60.975 63.528 64.035 62.753 63.285 63.87 64.535 65.245 65.96 66.69 67.388 68.11 68.84 69.55 70.28 71.025 71.823 72.503 73.228 73.9 74.6 76.355 79.133 78.483 79.81 80.958 81.755 80.565 80.125 81.428 82.695 83.843 82.68 81.855 82.27 82.703 83.09 83.525 83.95 84.353 84.773 85.165 85.545 85.938 86.33 86.72 87.098 87.445 87.83 88.198 88.595 89.235 90.343 91.193 92.363 91.783 91.29 91.632 91.957 92.282 92.64 92.962 93.307 93.642 93.967 94.287 94.61 94.932 95.262 95.605 95.945 96.297 96.647 96.98 97.312 97.645 97.992 98.342 98.71 99.087 99.47 99.877 100.27 100.702 101.13 101.542 101.98 102.4 102.842 103.272 103.685 104.115 104.592 105.025 105.422 105.785 106.132 106.495 106.827 107.14 107.435 107.75 108.047 108.347 108.63 108.927 109.237 109.512 109.767 110.04 110.315 110.567 110.84 111.12 111.377 111.675 111.972 112.27 112.557 112.88 113.19 113.512 113.795 114.09 114.392 114.69 114.987 115.26 115.562 115.86 116.142 116.425 116.712 116.95 117.197 117.447 117.695 117.93 118.165 118.382 118.607 118.8 119.035 119.257 119.497 119.742 119.98 120.192 120.38 120.562 120.747 120.915 121.107 121.312 121.505 121.697 121.86 122.052 122.197 122.382 122.55 122.72 122.895 123.047 123.215 123.36 123.527 123.685 123.83 123.987 124.122 124.28 124.417 124.59 124.747 124.92 125.092 125.272 125.407 125.555 125.727 125.912 126.065 126.202 126.36 126.52 126.645 126.792 126.92 127.097 127.237 127.41 127.55 127.7 127.842 128.002 128.14 128.255 128.37 128.497 128.597 128.712 128.812 128.915 129.032 129.13 129.232 129.345 129.442 129.542 129.587 129.632 129.7 129.762 129.807 129.882 129.94 129.992 130.045 130.077 130.132 130.167 130.195 130.215 130.222 130.25 130.265 130.295 130.332 130.365 130.392 130.402 130.405 130.39 130.357 130.295 130.232 130.262 130.287 130.337 130.39 130.96 131.4 130.43 129.575 129.937 129.67 129.91 129.98 129.94 129.89 129.87 129.897 129.892 129.882 129.842 129.832 129.772 129.737 129.685 129.647 129.615 129.567 129.505 129.46 129.415 129.347 129.307 129.257 129.192 129.152 129.112 129.032 129.02 128.982 128.927 128.872 128.832 128.782 128.73 128.657 128.625 128.572 128.532 128.475 128.422 128.36 128.32 128.297 128.242 128.177 128.125 128.057 128.015 127.97 127.912 127.855 127.785 127.745 127.712 127.675 127.63 127.582 127.512 127.48
40.095 40.225 40.325 40.437 40.563 40.684 40.781 40.897 41.03 41.155 41.29 41.415 41.549 41.688 41.815 41.95 42.063 42.208 42.333 42.425 42.543 42.653 42.753 42.865 42.993 43.113 43.185 43.293 43.38 43.475 43.555 43.678 43.8 43.925 44.078 44.793 45.268 45.583 45.665 45.54 45.138 44.728 44.713 44.813 44.843 44.973 45.103 45.203 45.355 45.533 45.983 46.41 46.413 46.73 46.645 46.685 46.74 46.76 46.81 46.878 46.938 47.02 47.088 47.173 47.268 47.355 47.445 47.483 47.513 48.443 47.678 47.84 49.535 49.575 49.59 49.78 49.923 50.053 50.21 50.373 50.575 50.815 51.05 51.293 51.485 51.68 51.905 52.178 52.543 52.993 53.518 53.923 54.08 54.163 54.313 54.435 54.56 54.7 54.863 55.623 55.388 55.533 55.773 57.033 56.29 56.455 56.855 57.073 57 57.27 57.26 57.818 57.34 58.505 60.78 62.273 62.563 61.298 60.418 58.825 58.57 59.805 63.16 63.04 64.2 63.225 63.693 64.315 64.98 65.708 66.393 67.103 67.81 68.53 69.26 69.968 70.728 71.505 72.235 72.938 73.678 74.395 75.088 75.92 77.53 79.888 80.18 81.093 81.735 82.275 81.41 81.588 82.563 82.61 81.763 82 82.438 82.865 83.258 83.7 84.098 84.53 84.91 85.315 85.688 86.06 86.448 86.828 87.185 87.55 87.895 88.355 89.42 90.928 92.003 91.823 91.248 91.065 91.39 91.715 92.047 92.407 92.752 93.107 93.43 93.787 94.092 94.425 94.742 95.07 95.405 95.725 96.057 96.385 96.717 97.07 97.42 97.75 98.1 98.427 98.79 99.147 99.535 99.94 100.357 100.77 101.185 101.622 102.072 102.527 102.937 103.397 103.83 104.255 104.735 105.215 105.59 105.957 106.322 106.63 106.972 107.28 107.572 107.89 108.19 108.477 108.775 109.065 109.387 109.672 109.935 110.207 110.5 110.765 111.045 111.322 111.59 111.865 112.162 112.465 112.767 113.067 113.4 113.707 114.017 114.307 114.62 114.927 115.2 115.48 115.752 116.052 116.345 116.635 116.897 117.16 117.397 117.652 117.892 118.125 118.355 118.577 118.777 119.027 119.245 119.49 119.737 119.957 120.202 120.407 120.59 120.782 120.952 121.127 121.337 121.52 121.72 121.912 122.085 122.272 122.435 122.607 122.797 122.952 123.105 123.267 123.43 123.602 123.75 123.89 124.042 124.197 124.335 124.477 124.655 124.812 124.97 125.122 125.282 125.472 125.63 125.787 125.94 126.112 126.277 126.417 126.57 126.707 126.85 126.995 127.127 127.285 127.425 127.59 127.732 127.902 128.057 128.202 128.315 128.477 128.595 128.712 128.83 128.915 129.02 129.132 129.242 129.355 129.447 129.54 129.635 129.727 129.82 129.887 129.93 129.97 130.015 130.07 130.137 130.17 130.22 130.257 130.307 130.327 130.355 130.347 130.365 130.387 130.395 130.427 130.455 130.485 130.522 130.522 130.51 130.49 130.455 130.387 130.35 130.342 130.412 130.44 130.467 130.61 131.145 131.33 129.79 129.677 129.672 129.815 129.967 129.97 129.915 129.91 129.88 129.907 129.89 129.867 129.835 129.787 129.74 129.692 129.642 129.605 129.55 129.512 129.45 129.382 129.345 129.265 129.197 129.16 129.102 129.052 129.007 128.955 128.917 128.837 128.8 128.765 128.7 128.65 128.597 128.545 128.517 128.447 128.402 128.362 128.307 128.24 128.18 128.145 128.102 128.052 127.98 127.922 127.882 127.83 127.795 127.717 127.675 127.642 127.617 127.557 127.505 127.462 127.407
39.978 40.105 40.223 40.325 40.439 40.587 40.698 40.821 40.96 41.108 41.224 41.349 41.51 41.615 41.757 41.873 41.993 42.14 42.248 42.365 42.488 42.59 42.71 42.795 42.92 43.015 43.095 43.2 43.293 43.383 43.51 43.64 44.03 44.66 45.243 45.22 45.438 44.925 44.685 44.548 44.47 44.515 44.605 44.713 44.785 44.893 45.05 45.17 45.315 45.475 45.705 45.953 46.165 46.47 46.518 46.61 46.673 46.708 46.755 46.793 46.89 46.968 47.06 47.14 47.24 47.335 47.39 47.46 47.515 48.133 47.77 47.65 49.333 49.613 49.57 49.733 49.878 50.05 50.205 50.36 50.548 50.75 50.983 51.205 51.435 51.683 51.905 52.175 52.533 52.993 53.495 53.913 54.085 54.185 54.293 54.418 54.575 54.753 54.898 55.67 55.513 55.553 55.79 55.998 56.203 56.413 56.55 56.805 56.76 56.978 57.448 57.513 59.155 61.585 62.653 63.035 62.328 60.675 58.433 58.103 60.75 62.788 63.713 64.023 65.105 63.683 64.12 64.773 65.465 66.14 66.858 67.538 68.243 68.96 69.663 70.435 71.168 71.958 72.643 73.393 74.123 74.845 75.525 76.168 76.77 77.845 79.863 81.33 81.343 82.068 82.113 81.905 81.975 81.813 81.73 82.198 82.613 83.035 83.42 83.848 84.25 84.665 85.028 85.43 85.818 86.195 86.548 86.93 87.298 87.605 88.183 89.62 90.76 92.063 92.443 90.933 90.75 91.13 91.465 91.837 92.185 92.53 92.882 93.222 93.582 93.935 94.275 94.58 94.892 95.215 95.532 95.847 96.157 96.472 96.815 97.152 97.482 97.835 98.185 98.515 98.895 99.237 99.612 100.025 100.442 100.84 101.265 101.72 102.187 102.647 103.062 103.515 103.945 104.412 104.875 105.312 105.702 106.087 106.46 106.787 107.102 107.415 107.735 108.027 108.335 108.627 108.927 109.23 109.535 109.827 110.125 110.412 110.685 110.972 111.242 111.525 111.797 112.062 112.365 112.675 112.987 113.29 113.62 113.93 114.247 114.552 114.835 115.137 115.42 115.697 115.952 116.222 116.547 116.84 117.1 117.365 117.617 117.862 118.09 118.34 118.572 118.807 118.997 119.227 119.47 119.712 119.957 120.182 120.407 120.605 120.815 120.99 121.175 121.37 121.552 121.74 121.945 122.13 122.32 122.495 122.68 122.862 123.022 123.182 123.345 123.507 123.68 123.817 123.977 124.13 124.277 124.435 124.565 124.715 124.865 125.032 125.19 125.335 125.492 125.675 125.82 125.985 126.155 126.305 126.475 126.61 126.755 126.902 127.055 127.2 127.332 127.502 127.647 127.767 127.937 128.087 128.255 128.417 128.545 128.677 128.817 128.935 129.04 129.15 129.265 129.372 129.49 129.585 129.707 129.795 129.852 129.935 130.03 130.102 130.145 130.15 130.167 130.245 130.292 130.342 130.39 130.405 130.44 130.462 130.49 130.485 130.51 130.52 130.54 130.567 130.575 130.602 130.617 130.627 130.61 130.585 130.562 130.477 130.435 130.427 130.487 130.45 130.432 130.482 130.9 131.58 130.485 129.705 129.712 130.047 130.485 129.985 129.977 129.962 129.902 129.907 129.91 129.877 129.825 129.765 129.72 129.667 129.622 129.552 129.522 129.457 129.417 129.337 129.285 129.215 129.145 129.097 129.037 128.987 128.922 128.887 128.817 128.78 128.712 128.665 128.605 128.562 128.492 128.445 128.395 128.35 128.317 128.267 128.212 128.152 128.097 128.055 128.015 127.967 127.895 127.867 127.8 127.755 127.712 127.652 127.607 127.565 127.515 127.485 127.435 127.385 127.345
39.862 40.002 40.09 40.23 40.361 40.49 40.626 40.763 40.887 41.031 41.165 41.274 41.424 41.558 41.695 41.815 41.94 42.063 42.205 42.315 42.425 42.55 42.64 42.748 42.828 42.938 43.025 43.13 43.243 43.415 44.125 44.825 44.76 45.12 44.815 44.6 44.235 44.278 44.393 44.518 44.563 44.573 44.603 44.628 44.713 44.853 44.988 45.08 45.243 45.41 45.578 45.78 46.035 46.26 46.468 46.538 46.623 46.638 46.718 46.775 46.838 46.9 47.003 47.098 47.185 47.293 47.343 47.423 47.48 48.173 47.628 47.61 49.293 49.665 49.543 49.693 49.868 50.03 50.203 50.363 50.518 50.705 50.933 51.155 51.39 51.64 51.87 52.138 52.503 52.96 53.448 53.858 54.073 54.195 54.32 54.458 54.605 54.738 54.935 55.463 55.833 55.565 55.743 55.95 56.148 56.35 56.475 56.545 57.38 57.543 57.655 60.265 61.963 62.775 62.568 61.58 59.82 57.818 57.838 59.235 62.225 63.413 64.315 65.175 64.428 63.963 64.545 65.223 65.888 66.595 67.248 67.983 68.675 69.375 70.123 70.885 71.615 72.368 73.11 73.845 74.57 75.265 75.913 76.565 77.135 77.693 78.398 79.69 81.39 82.133 82.395 82.238 81.675 81.518 81.93 82.33 82.765 83.19 83.578 83.978 84.388 84.773 85.15 85.52 85.915 86.265 86.643 87.003 87.333 88.01 89.463 91.453 92.345 90.563 90.243 90.535 90.878 91.24 91.607 91.942 92.307 92.67 93.032 93.365 93.732 94.072 94.435 94.737 95.045 95.342 95.635 95.97 96.262 96.582 96.882 97.235 97.577 97.927 98.282 98.615 98.955 99.302 99.705 100.12 100.512 100.92 101.337 101.795 102.275 102.732 103.2 103.647 104.09 104.542 105.022 105.452 105.83 106.205 106.592 106.912 107.232 107.572 107.867 108.167 108.477 108.785 109.11 109.405 109.705 110.005 110.33 110.645 110.917 111.202 111.482 111.76 112.022 112.292 112.595 112.895 113.197 113.507 113.825 114.155 114.467 114.777 115.07 115.362 115.64 115.905 116.19 116.43 116.752 117.027 117.312 117.59 117.847 118.08 118.327 118.567 118.795 119.035 119.255 119.487 119.727 119.952 120.18 120.41 120.63 120.847 121.04 121.227 121.42 121.607 121.812 121.977 122.182 122.385 122.55 122.735 122.917 123.077 123.242 123.417 123.577 123.72 123.885 124.042 124.192 124.367 124.497 124.652 124.8 124.917 125.072 125.217 125.39 125.552 125.697 125.86 126.037 126.205 126.342 126.475 126.657 126.815 126.96 127.102 127.282 127.435 127.555 127.73 127.875 128.025 128.167 128.335 128.492 128.637 128.79 128.917 129.03 129.14 129.262 129.355 129.495 129.595 129.69 129.782 129.902 129.99 130.055 130.092 130.185 130.28 130.297 130.3 130.332 130.387 130.442 130.49 130.5 130.547 130.595 130.625 130.632 130.625 130.65 130.67 130.655 130.692 130.697 130.715 130.73 130.71 130.687 130.69 130.625 130.58 130.535 130.545 130.522 130.46 130.525 130.53 130.567 131.285 131.297 129.765 129.75 129.94 131.347 130.207 130.025 130 129.937 129.902 129.9 129.855 129.79 129.742 129.695 129.622 129.592 129.542 129.47 129.417 129.365 129.285 129.227 129.14 129.097 129.02 128.972 128.912 128.845 128.785 128.737 128.677 128.62 128.567 128.492 128.442 128.4 128.345 128.287 128.235 128.187 128.137 128.085 128.045 127.972 127.922 127.895 127.845 127.8 127.745 127.7 127.675 127.602 127.562 127.527 127.495 127.442 127.397 127.357 127.27 127.245
39.768 39.897 40.017 40.146 40.281 40.415 40.556 40.688 40.833 40.956 41.101 41.237 41.375 41.507 41.633 41.757 41.893 42.02 42.15 42.275 42.358 42.455 42.58 42.66 42.755 42.858 42.978 43.165 43.655 44.193 44.38 44.188 43.955 43.743 43.848 44.005 44.155 44.25 44.403 44.533 44.615 44.633 44.62 44.598 44.673 44.82 44.9 45.048 45.185 45.368 45.5 45.625 45.88 45.943 46.335 46.445 46.52 46.595 46.658 46.71 46.77 46.868 46.963 47.033 47.12 47.235 47.33 47.378 47.46 47.895 47.868 47.483 49.008 49.745 49.57 49.683 49.848 50.01 50.19 50.335 50.488 50.678 50.878 51.1 51.34 51.62 51.84 52.118 52.465 52.948 53.38 53.73 53.983 54.188 54.373 54.52 54.643 54.765 54.963 55.41 55.903 55.51 55.695 55.895 56.085 56.308 57.585 58.398 59.138 60.063 61.093 62.28 62.733 61.985 60.473 57.94 57.345 57.355 60.803 60.918 63.878 64.465 65.308 65.308 65.333 64.353 64.993 65.668 66.298 66.998 67.68 68.42 69.123 69.838 70.588 71.328 72.08 72.803 73.568 74.263 74.995 75.65 76.265 76.868 77.435 77.975 78.458 79.02 80.32 82.06 82.48 82.675 82.393 81.873 82.083 82.483 82.925 83.318 83.723 84.098 84.495 84.868 85.24 85.603 86.02 86.365 86.708 87.283 88.31 90.29 91.388 91.47 90.328 89.923 90.28 90.635 90.995 91.358 91.72 92.087 92.465 92.82 93.17 93.515 93.877 94.225 94.55 94.885 95.182 95.467 95.777 96.065 96.375 96.677 96.967 97.302 97.647 98.01 98.375 98.707 99.052 99.402 99.8 100.197 100.592 101.015 101.457 101.902 102.385 102.847 103.327 103.805 104.265 104.722 105.165 105.575 105.957 106.327 106.71 107.03 107.365 107.71 108.027 108.327 108.657 108.94 109.262 109.567 109.885 110.192 110.547 110.847 111.145 111.44 111.73 112.002 112.272 112.54 112.845 113.14 113.45 113.747 114.055 114.357 114.687 115.01 115.317 115.575 115.87 116.132 116.375 116.662 116.935 117.22 117.515 117.81 118.067 118.335 118.565 118.792 119.02 119.262 119.5 119.735 119.952 120.165 120.412 120.635 120.862 121.077 121.277 121.475 121.675 121.847 122.07 122.255 122.447 122.617 122.805 123.002 123.155 123.34 123.495 123.655 123.827 123.982 124.107 124.265 124.435 124.565 124.727 124.855 125.005 125.152 125.29 125.422 125.592 125.745 125.927 126.08 126.242 126.415 126.557 126.687 126.84 126.982 127.135 127.31 127.495 127.66 127.812 127.97 128.122 128.272 128.397 128.567 128.717 128.855 129 129.132 129.245 129.352 129.455 129.57 129.677 129.79 129.885 129.982 130.077 130.16 130.22 130.27 130.325 130.387 130.435 130.477 130.485 130.517 130.565 130.602 130.62 130.652 130.682 130.73 130.735 130.74 130.757 130.755 130.755 130.77 130.8 130.795 130.792 130.785 130.78 130.76 130.735 130.675 130.635 130.615 130.527 130.507 130.562 130.585 130.622 130.93 131.732 130.177 129.777 129.755 130.93 130.792 130.037 130.012 129.95 129.902 129.877 129.83 129.78 129.702 129.632 129.6 129.542 129.467 129.42 129.367 129.295 129.235 129.17 129.092 129.012 128.942 128.88 128.817 128.745 128.672 128.607 128.55 128.487 128.42 128.365 128.292 128.252 128.192 128.13 128.082 128.015 128 127.942 127.877 127.812 127.777 127.717 127.697 127.647 127.615 127.555 127.495 127.462 127.432 127.397 127.357 127.315 127.257 127.21 127.152 127.107
39.685 39.803 39.933 40.089 40.218 40.358 40.484 40.643 40.77 40.91 41.051 41.175 41.303 41.453 41.559 41.718 41.838 41.968 42.075 42.19 42.303 42.408 42.498 42.593 42.715 42.935 43.42 44.01 44.133 43.56 43.32 43.188 43.37 43.57 43.773 43.938 44.118 44.295 44.393 44.49 44.558 44.61 44.578 44.57 44.635 44.753 44.845 44.958 45.128 45.29 45.408 45.545 45.953 45.963 46.288 46.395 46.43 46.52 46.59 46.65 46.728 46.82 46.908 47.01 47.07 47.183 47.273 47.358 47.42 48.048 47.755 47.4 48.895 49.66 49.613 49.705 49.795 49.975 50.158 50.328 50.478 50.648 50.845 51.08 51.33 51.58 51.815 52.078 52.458 52.878 53.28 53.573 53.848 54.16 54.38 54.528 54.668 54.798 54.945 55.223 56.333 57 56.398 55.863 56.39 58.38 59.283 60.318 61.518 61.71 62.478 62.2 61.338 60.033 58.13 57.135 57.133 57.368 62.153 62.735 64.483 64.288 65.06 65.51 65.56 64.783 65.413 66.055 66.73 67.41 68.123 68.845 69.548 70.28 71.033 71.803 72.525 73.258 73.983 74.67 75.323 75.983 76.568 77.135 77.69 78.23 78.708 79.135 80.008 81.685 82.988 83.273 82.938 82.57 82.238 82.638 83.028 83.453 83.848 84.225 84.6 84.938 85.33 85.693 86.07 86.475 87.383 88.898 90.705 91.12 90.5 89.33 89.663 90.04 90.393 90.76 91.123 91.468 91.84 92.215 92.585 92.927 93.31 93.687 94.025 94.352 94.707 95.032 95.322 95.607 95.88 96.172 96.472 96.77 97.067 97.387 97.735 98.1 98.47 98.83 99.172 99.515 99.887 100.282 100.71 101.122 101.572 102.06 102.517 102.985 103.462 103.932 104.415 104.865 105.297 105.69 106.1 106.467 106.835 107.18 107.5 107.837 108.182 108.475 108.78 109.12 109.44 109.765 110.077 110.427 110.74 111.072 111.41 111.702 111.995 112.28 112.57 112.815 113.067 113.385 113.685 113.985 114.3 114.6 114.912 115.22 115.525 115.802 116.085 116.36 116.637 116.89 117.15 117.44 117.74 118.05 118.32 118.57 118.815 119.05 119.287 119.502 119.755 119.995 120.177 120.412 120.63 120.872 121.105 121.325 121.535 121.74 121.935 122.145 122.327 122.532 122.71 122.895 123.092 123.25 123.412 123.587 123.737 123.905 124.055 124.212 124.36 124.51 124.665 124.8 124.932 125.082 125.23 125.372 125.51 125.655 125.817 125.96 126.142 126.302 126.467 126.617 126.752 126.877 127.042 127.182 127.36 127.505 127.677 127.872 128.035 128.185 128.317 128.475 128.605 128.757 128.887 129.022 129.175 129.295 129.432 129.53 129.637 129.76 129.845 129.952 130.077 130.162 130.245 130.305 130.375 130.41 130.457 130.507 130.542 130.585 130.617 130.65 130.69 130.72 130.76 130.775 130.805 130.827 130.842 130.855 130.86 130.85 130.865 130.855 130.86 130.882 130.87 130.83 130.852 130.825 130.807 130.772 130.692 130.597 130.54 130.537 130.575 130.572 130.565 130.567 130.83 130.18 129.787 129.757 130.42 131.277 130.232 130 129.927 129.912 129.895 129.857 129.787 129.717 129.682 129.612 129.547 129.467 129.41 129.36 129.277 129.217 129.147 129.06 128.972 128.895 128.837 128.75 128.677 128.59 128.515 128.462 128.372 128.302 128.247 128.172 128.13 128.047 127.997 127.95 127.887 127.86 127.78 127.732 127.647 127.617 127.577 127.53 127.48 127.45 127.4 127.347 127.302 127.277 127.232 127.192 127.157 127.112 127.067 127.022 126.967
39.592 39.747 39.893 40.022 40.157 40.307 40.429 40.575 40.713 40.856 40.998 41.139 41.253 41.366 41.518 41.647 41.783 41.903 42.015 42.11 42.208 42.313 42.448 42.825 43.408 44.043 43.938 43.44 43.15 42.838 42.99 43.193 43.385 43.565 43.795 43.923 44.05 44.215 44.33 44.398 44.468 44.585 44.568 44.545 44.6 44.705 44.8 44.91 45.023 45.163 45.283 45.463 45.69 45.775 46.53 46.325 46.35 46.47 46.508 46.585 46.653 46.74 46.828 46.948 47.008 47.135 47.21 47.29 47.353 47.69 47.755 47.328 48.225 49.55 49.623 49.678 49.778 49.943 50.158 50.33 50.465 50.648 50.875 51.088 51.313 51.548 51.78 52.043 52.428 52.8 53.18 53.5 53.815 54.153 54.375 54.545 54.69 54.825 54.965 55.22 56.145 56.893 56.983 55.84 56.198 59.373 61.405 62.83 63.65 62.768 61.603 60.735 59.988 59.388 57.98 56.765 56.868 61.285 65.5 62.508 64.513 64.495 64.855 65.478 65.063 65.158 65.815 66.455 67.155 67.843 68.568 69.278 69.99 70.743 71.515 72.228 72.97 73.685 74.345 75.043 75.66 76.273 76.848 77.385 77.948 78.443 78.908 79.335 79.755 80.153 81.44 82.665 82.99 83.04 82.7 82.803 83.193 83.573 83.955 84.328 84.658 85.028 85.375 85.743 86.413 87.573 88.665 89.635 90.235 89.478 88.978 89.36 89.728 90.12 90.498 90.848 91.235 91.613 91.997 92.392 92.735 93.1 93.442 93.795 94.145 94.492 94.842 95.16 95.455 95.727 96.017 96.275 96.582 96.862 97.177 97.507 97.832 98.197 98.562 98.917 99.28 99.642 99.997 100.372 100.825 101.277 101.76 102.265 102.72 103.155 103.622 104.102 104.582 105.015 105.44 105.847 106.237 106.63 106.96 107.325 107.67 107.995 108.31 108.632 108.932 109.292 109.625 109.95 110.302 110.637 110.977 111.312 111.68 111.992 112.285 112.57 112.842 113.097 113.355 113.657 113.937 114.242 114.56 114.842 115.132 115.437 115.75 116.057 116.332 116.595 116.862 117.112 117.387 117.682 117.97 118.265 118.532 118.802 119.045 119.295 119.517 119.777 120.002 120.235 120.447 120.667 120.897 121.102 121.37 121.582 121.8 122.027 122.217 122.415 122.627 122.805 122.972 123.187 123.355 123.535 123.667 123.852 124.005 124.142 124.307 124.46 124.612 124.745 124.915 125.05 125.195 125.35 125.477 125.615 125.735 125.88 126.047 126.217 126.37 126.525 126.685 126.817 126.965 127.105 127.245 127.377 127.54 127.695 127.857 128.047 128.222 128.392 128.537 128.67 128.802 128.93 129.075 129.217 129.352 129.487 129.607 129.695 129.815 129.907 130.005 130.092 130.22 130.28 130.375 130.42 130.495 130.532 130.567 130.632 130.667 130.7 130.737 130.777 130.797 130.85 130.86 130.857 130.88 130.902 130.92 130.93 130.92 130.912 130.925 130.93 130.917 130.935 130.92 130.907 130.912 130.862 130.825 130.81 130.72 130.652 130.567 130.607 130.63 130.58 130.502 130.467 130.375 130.092 129.98 129.972 129.88 131.332 130.67 130.007 129.935 129.917 129.892 129.867 129.817 129.732 129.687 129.63 129.582 129.497 129.425 129.367 129.307 129.232 129.122 129.05 128.975 128.902 128.815 128.735 128.63 128.557 128.472 128.4 128.31 128.26 128.172 128.117 128.045 127.972 127.927 127.857 127.8 127.742 127.7 127.64 127.597 127.522 127.45 127.402 127.335 127.31 127.255 127.222 127.182 127.135 127.105 127.07 127.015 126.965 126.947 126.88 126.857
39.528 39.685 39.822 39.953 40.092 40.245 40.376 40.519 40.657 40.794 40.945 41.069 41.192 41.335 41.447 41.589 41.703 41.8 41.913 42.03 42.16 42.353 42.988 43.74 43.735 43.645 43.028 42.575 42.645 42.795 42.99 43.205 43.258 43.43 43.693 43.828 43.92 44.07 44.203 44.288 44.388 44.48 44.495 44.485 44.51 44.625 44.75 44.865 44.945 45.08 45.203 45.37 45.593 45.663 45.888 46.68 46.278 46.37 46.435 46.5 46.585 46.67 46.745 46.84 47.128 47.248 47.433 47.388 47.495 47.47 47.285 47.283 47.813 49.378 49.595 49.68 49.765 49.95 50.168 50.328 50.458 50.633 50.855 51.078 51.313 51.553 51.775 52.035 52.35 52.705 53.085 53.473 53.808 54.12 54.335 54.5 54.7 54.853 54.973 55.19 55.958 56.605 56.028 55.75 55.925 56.163 61.01 63.753 63.48 62.353 60.333 59.548 58.7 57.193 56.443 56.653 57.74 62.798 64.63 63.693 64.413 64.37 64.878 64.8 64.89 65.578 66.2 66.898 67.6 68.328 69.018 69.713 70.46 71.215 71.953 72.66 73.383 74.063 74.733 75.358 75.963 76.555 77.098 77.655 78.195 78.653 79.088 79.498 79.93 80.29 80.873 83.285 83.088 83.025 83.293 83.018 83.338 83.69 84.073 84.425 84.753 85.083 85.448 85.955 87.465 89.043 89.42 90.053 89.518 88.738 89.098 89.465 89.858 90.228 90.6 90.968 91.348 91.75 92.117 92.505 92.87 93.237 93.59 93.962 94.287 94.622 94.952 95.285 95.57 95.847 96.142 96.42 96.692 96.992 97.292 97.612 97.955 98.3 98.637 98.987 99.382 99.72 100.092 100.477 100.912 101.372 101.877 102.385 102.837 103.285 103.765 104.287 104.745 105.187 105.597 106.02 106.39 106.757 107.102 107.475 107.817 108.167 108.515 108.835 109.157 109.497 109.862 110.192 110.547 110.92 111.267 111.617 111.945 112.257 112.57 112.877 113.127 113.365 113.642 113.91 114.202 114.49 114.795 115.09 115.387 115.697 115.975 116.257 116.57 116.84 117.1 117.38 117.647 117.932 118.207 118.505 118.775 119.062 119.297 119.535 119.785 120.035 120.255 120.482 120.69 120.922 121.135 121.375 121.61 121.85 122.092 122.322 122.512 122.715 122.902 123.08 123.265 123.442 123.625 123.795 123.96 124.097 124.275 124.397 124.537 124.712 124.86 125.02 125.155 125.295 125.45 125.59 125.745 125.872 125.995 126.135 126.272 126.417 126.585 126.752 126.897 127.052 127.19 127.342 127.447 127.587 127.77 127.892 128.065 128.217 128.407 128.542 128.682 128.84 128.977 129.102 129.215 129.365 129.497 129.62 129.74 129.845 129.937 130.06 130.142 130.25 130.342 130.417 130.482 130.542 130.6 130.662 130.69 130.725 130.79 130.8 130.837 130.86 130.867 130.912 130.917 130.945 130.945 130.97 130.985 130.995 130.987 130.987 130.98 130.975 130.955 130.992 130.977 130.965 130.905 130.875 130.842 130.83 130.742 130.64 130.582 130.642 130.652 130.577 130.505 131.03 131.42 131.465 130.69 130.05 129.632 130.97 130.812 129.957 129.93 129.902 129.912 129.887 129.845 129.805 129.735 129.665 129.605 129.54 129.47 129.395 129.327 129.26 129.147 129.075 128.995 128.92 128.832 128.745 128.642 128.567 128.49 128.412 128.315 128.235 128.172 128.082 128.027 127.95 127.89 127.825 127.777 127.74 127.69 127.637 127.57 127.485 127.427 127.35 127.302 127.247 127.207 127.16 127.13 127.082 127.027 127 126.967 126.93 126.872 126.85 126.782
39.475 39.612 39.752 39.911 40.051 40.185 40.309 40.457 40.607 40.739 40.876 40.999 41.129 41.264 41.392 41.495 41.593 41.738 41.86 41.998 42.52 43.423 43.185 42.998 42.735 42.405 42.413 42.513 42.623 42.763 42.91 43.07 43.183 43.343 43.503 43.633 43.763 43.935 44.07 44.263 44.28 44.39 44.388 44.378 44.438 44.523 44.618 44.738 44.863 44.978 45.12 45.28 45.415 45.55 45.603 46.045 46.2 46.32 46.345 46.615 46.815 47.675 47.63 47.42 48.055 47.833 47.565 47.208 47.118 47.183 47.213 47.263 47.37 49.028 49.845 49.713 49.778 49.953 50.138 50.298 50.445 50.638 50.858 51.053 51.298 51.535 51.765 52.025 52.303 52.643 53 53.39 53.773 54.058 54.288 54.485 54.675 54.825 54.99 55.225 55.665 56.713 56.288 55.735 55.843 55.943 56.2 62.03 59.85 56.805 57.06 58.118 56.613 56.175 56.335 57.478 60.503 62.098 62.563 63.518 64.318 64.795 64.6 64.668 65.335 65.988 66.65 67.35 68.053 68.743 69.465 70.19 70.925 71.693 72.373 73.115 73.768 74.43 75.075 75.66 76.25 76.813 77.36 77.935 78.408 78.853 79.27 79.698 80.115 80.503 80.9 82.14 82.853 83.12 83.428 83.5 83.515 83.845 84.228 84.53 84.843 85.143 85.78 87.305 88.668 89.935 90.213 88.915 88.453 88.828 89.18 89.585 89.96 90.34 90.723 91.105 91.513 91.898 92.277 92.66 93.007 93.38 93.732 94.09 94.405 94.755 95.1 95.412 95.717 95.99 96.262 96.542 96.825 97.132 97.43 97.757 98.08 98.417 98.717 99.09 99.455 99.827 100.195 100.587 101.007 101.49 101.992 102.46 102.935 103.407 103.9 104.407 104.852 105.29 105.712 106.12 106.507 106.872 107.252 107.632 107.977 108.337 108.7 109.077 109.432 109.75 110.11 110.47 110.832 111.217 111.6 111.945 112.267 112.57 112.885 113.136 113.395 113.64 113.914 114.174 114.442 114.75 115.04 115.32 115.602 115.905 116.192 116.495 116.782 117.062 117.335 117.627 117.887 118.175 118.457 118.73 119.03 119.287 119.542 119.787 120.042 120.29 120.507 120.725 120.95 121.18 121.402 121.635 121.887 122.135 122.387 122.622 122.827 123.03 123.227 123.385 123.552 123.727 123.885 124.062 124.237 124.38 124.52 124.68 124.822 124.967 125.12 125.28 125.432 125.58 125.757 125.872 126.005 126.147 126.245 126.392 126.522 126.67 126.807 126.967 127.127 127.277 127.417 127.545 127.675 127.822 127.952 128.11 128.252 128.4 128.555 128.697 128.852 129.005 129.107 129.255 129.357 129.51 129.61 129.737 129.862 129.967 130.075 130.185 130.27 130.37 130.457 130.52 130.562 130.637 130.695 130.755 130.782 130.83 130.865 130.907 130.937 130.952 130.945 130.975 130.997 130.99 131.007 131.015 131.022 131.035 131.037 131.03 130.997 130.99 130.96 130.97 130.99 130.93 130.867 130.842 130.825 130.8 130.797 130.74 130.722 131.107 131.392 130.687 130.617 131.66 132.365 131.875 131.692 129.74 129.527 130.36 131.122 130.007 129.982 129.98 130.03 129.95 129.88 129.842 129.767 129.762 129.665 129.6 129.49 129.385 129.33 129.225 129.145 129.075 128.965 128.905 128.8 128.727 128.67 128.592 128.497 128.405 128.297 128.217 128.13 128.057 127.985 127.907 127.847 127.782 127.727 127.672 127.677 127.602 127.537 127.465 127.38 127.315 127.267 127.217 127.18 127.12 127.095 127.057 127.032 126.962 126.902 126.89 126.847 126.807 126.767
39.41 39.548 39.701 39.845 39.985 40.124 40.269 40.397 40.527 40.668 40.809 40.928 41.047 41.163 41.29 41.41 41.52 41.678 42.14 42.983 43.41 43.068 42.455 42.108 42.195 42.303 42.403 42.493 42.565 42.643 42.75 42.88 43.033 43.17 43.308 43.473 43.588 43.87 43.96 44.145 44.085 44.135 44.188 44.268 44.37 44.44 44.558 44.623 44.803 44.888 45.003 45.183 45.263 45.415 45.518 45.835 46.953 46.68 47.033 46.28 46.825 46.533 46.673 46.778 46.955 47.488 47.483 48.535 48.855 48.908 47.463 47.215 47.22 48.84 49.67 49.763 49.845 49.958 50.125 50.285 50.445 50.605 50.818 51.055 51.295 51.518 51.753 51.995 52.275 52.585 52.935 53.308 53.678 53.955 54.225 54.48 54.655 54.82 55.008 55.195 55.493 55.983 56.675 56.063 55.7 55.883 55.855 56.905 55.915 55.75 55.998 56.468 55.973 56.253 58.915 61.305 62.09 63.61 64.038 64.57 64.463 64.168 64.45 65.128 65.76 66.42 67.098 67.81 68.523 69.218 69.923 70.665 71.39 72.12 72.818 73.478 74.133 74.753 75.34 75.94 76.508 77.08 77.615 78.133 78.603 79.04 79.458 79.873 80.26 80.69 81.083 81.44 82.133 82.968 83.925 84.333 84.028 84.035 84.375 84.668 84.898 85.645 87.23 88.298 89.133 88.965 88.658 88.193 88.578 88.915 89.32 89.685 90.065 90.459 90.874 91.265 91.639 92.034 92.44 92.791 93.156 93.506 93.856 94.192 94.55 94.878 95.198 95.517 95.833 96.115 96.409 96.704 96.976 97.258 97.56 97.872 98.178 98.477 98.805 99.157 99.52 99.916 100.286 100.672 101.107 101.574 102.045 102.544 102.984 103.461 103.987 104.472 104.968 105.403 105.828 106.227 106.625 107 107.412 107.786 108.164 108.515 108.903 109.282 109.654 110.017 110.382 110.751 111.124 111.523 111.891 112.259 112.563 112.844 113.144 113.427 113.7 113.941 114.202 114.468 114.74 115.012 115.312 115.597 115.875 116.147 116.442 116.735 117.035 117.322 117.592 117.887 118.167 118.407 118.682 118.967 119.25 119.525 119.79 120.042 120.3 120.525 120.755 120.99 121.207 121.427 121.657 121.905 122.175 122.437 122.697 122.935 123.145 123.357 123.527 123.69 123.857 124.015 124.18 124.355 124.512 124.655 124.817 124.945 125.09 125.225 125.372 125.552 125.692 125.85 126.007 126.16 126.275 126.412 126.545 126.66 126.777 126.915 127.067 127.222 127.347 127.522 127.65 127.775 127.912 128.035 128.155 128.315 128.45 128.58 128.702 128.865 129.007 129.142 129.267 129.397 129.537 129.625 129.755 129.887 129.992 130.102 130.202 130.28 130.382 130.447 130.52 130.602 130.662 130.72 130.765 130.815 130.86 130.897 130.937 130.972 130.985 131.007 131.005 131.025 131.037 131.007 131.027 131.05 131.052 131.062 131.042 131.027 131.02 131 130.98 130.97 130.977 130.91 130.885 130.805 130.832 130.94 131.412 131.94 131.945 132.257 132.5 131.3 130.54 130.56 131.292 130.66 131.892 130.357 129.427 129.752 131.165 131.235 131.25 131.29 131.202 131.405 131.215 131.18 131 131.08 130.975 130.95 130.832 130.845 130.607 130.422 130.27 130.295 130.222 130.037 129.805 129.997 129.81 129.41 129.362 129.282 129.252 129.16 128.985 128.822 128.632 128.472 128.392 128.25 128.312 128.16 128.09 127.867 127.435 127.352 127.397 127.445 127.352 127.262 127.225 127.155 127.127 127.045 127.047 127.052 127.01 126.975 127.04 126.977 127.092
39.375 39.518 39.662 39.791 39.933 40.069 40.194 40.337 40.466 40.598 40.712 40.834 40.951 41.064 41.174 41.341 41.618 42.27 43.155 43.02 42.76 42.295 41.908 42.033 42.193 42.37 42.438 42.478 42.49 42.545 42.645 42.77 42.865 43.005 43.173 43.34 43.423 43.568 43.7 43.808 43.9 43.998 44.09 44.178 44.275 44.355 44.528 44.57 44.653 44.74 44.908 45.04 45.153 45.313 45.413 45.64 45.72 45.853 46.013 46.203 46.368 46.873 48.38 49.13 48.798 48.845 48.175 49.225 47.64 47.795 48.983 47.185 47.208 48.758 49.495 49.645 49.813 49.958 50.108 50.263 50.405 50.588 50.788 51.02 51.275 51.523 51.753 51.978 52.233 52.56 52.878 53.198 53.54 53.833 54.185 54.435 54.625 54.83 55.015 55.205 55.45 55.803 56.45 56.723 55.818 55.665 55.705 55.693 55.663 55.828 55.608 55.668 58.69 58.038 61.23 61.692 62.544 64.448 65.027 65.077 63.928 64.247 64.912 65.553 66.231 66.911 67.587 68.283 68.981 69.691 70.405 71.126 71.839 72.524 73.193 73.832 74.458 75.029 75.63 76.192 76.731 77.288 77.836 78.32 78.767 79.201 79.64 80.038 80.434 80.841 81.234 81.598 81.947 82.718 84.38 84.703 84.399 84.278 84.541 84.768 85.095 88.218 88.184 87.84 87.849 87.651 87.947 88.313 88.663 89.039 89.421 89.808 90.204 90.614 91.034 91.423 91.805 92.201 92.556 92.929 93.277 93.65 94.001 94.338 94.669 95.011 95.335 95.637 95.959 96.267 96.543 96.816 97.105 97.388 97.69 97.991 98.274 98.576 98.877 99.219 99.586 99.952 100.348 100.749 101.174 101.632 102.112 102.571 103.032 103.518 104.059 104.555 105.025 105.476 105.909 106.311 106.696 107.112 107.5 107.91 108.3 108.696 109.073 109.469 109.849 110.232 110.641 111.023 111.412 111.794 112.148 112.505 112.846 113.149 113.416 113.706 113.968 114.239 114.492 114.76 115.022 115.305 115.595 115.875 116.15 116.455 116.74 117.032 117.34 117.612 117.885 118.17 118.422 118.675 118.945 119.212 119.487 119.765 120.04 120.297 120.555 120.757 121.02 121.262 121.52 121.73 121.952 122.202 122.47 122.75 123.02 123.252 123.465 123.677 123.865 124.012 124.165 124.322 124.505 124.64 124.81 124.952 125.072 125.245 125.387 125.51 125.657 125.8 125.957 126.122 126.287 126.42 126.552 126.705 126.855 126.967 127.09 127.205 127.32 127.472 127.597 127.732 127.847 127.992 128.135 128.245 128.38 128.5 128.632 128.757 128.88 129.002 129.155 129.275 129.387 129.512 129.632 129.745 129.857 129.985 130.092 130.19 130.277 130.367 130.455 130.53 130.592 130.672 130.722 130.777 130.805 130.862 130.905 130.935 130.972 131 131.015 131.025 131.025 131.045 131.042 131.05 131.032 131.06 131.052 131.022 131.015 131.007 130.992 130.98 130.982 131.007 131.037 131.022 131.157 131.752 132.322 133.06 133.31 133.055 132.095 131.927 130.992 130.517 130.352 130.342 130.332 130.392 131.427 131.337 129.32 129.647 130.352 131.292 130.912 130.61 130.17 129.992 129.94 129.9 129.792 129.827 129.857 129.72 129.55 129.585 129.772 129.35 129.39 129.327 129.142 129.262 129.137 129.047 128.892 128.665 128.745 128.777 128.737 128.622 128.56 128.57 128.59 128.215 128.092 127.87 127.942 128.06 128.087 127.71 127.252 127.185 127.612 127.895 127.802 127.815 127.747 127.735 127.527 127.475 127.485 127.452 127.362 127.312 127.252 127.042 127.017
39.333 39.47 39.609 39.75 39.866 39.998 40.126 40.26 40.38 40.509 40.627 40.733 40.848 41.002 41.231 41.941 42.553 42.768 42.69 42.328 41.875 41.738 41.87 42.003 42.13 42.258 42.388 42.4 42.36 42.433 42.543 42.668 42.788 42.915 43.043 43.175 43.263 43.41 43.55 43.678 43.783 43.875 43.97 44.068 44.15 44.22 44.385 44.455 44.52 44.62 44.743 44.883 45.03 45.158 45.313 46.125 46.678 46.775 47.41 46.935 46.405 47.665 47.175 47.068 47.093 47.135 47.218 47.453 47.515 48.158 48.6 47.448 47.175 48.13 49.688 49.55 49.83 49.9 50.08 50.25 50.38 50.56 50.778 50.99 51.278 51.528 51.733 51.975 52.19 52.468 52.778 53.12 53.403 53.75 54.09 54.38 54.613 54.798 55.02 55.208 55.398 55.693 56.05 56.988 56.93 55.883 56 55.658 55.67 55.493 55.278 57.34 58.205 61.753 62.606 62.728 63.316 64.725 65.011 64.203 64.062 64.7 65.382 66.018 66.687 67.39 68.058 68.763 69.455 70.149 70.857 71.574 72.254 72.917 73.533 74.125 74.727 75.285 75.87 76.418 76.957 77.507 78.018 78.499 78.949 79.379 79.812 80.187 80.598 81.002 81.377 81.747 82.119 82.585 83.976 84.833 85.108 84.72 84.841 84.891 86.306 87.309 87.603 87.161 87.357 87.699 88.071 88.429 88.792 89.147 89.553 89.941 90.368 90.745 91.185 91.568 91.944 92.333 92.694 93.073 93.441 93.781 94.11 94.455 94.791 95.118 95.463 95.793 96.11 96.408 96.699 96.955 97.226 97.516 97.8 98.074 98.359 98.651 98.946 99.26 99.622 100 100.416 100.824 101.24 101.684 102.151 102.628 103.09 103.574 104.087 104.631 105.111 105.568 105.979 106.38 106.802 107.212 107.62 108.021 108.422 108.829 109.235 109.65 110.069 110.486 110.899 111.301 111.678 112.064 112.43 112.766 113.118 113.436 113.705 113.982 114.24 114.522 114.792 115.058 115.322 115.585 115.87 116.155 116.437 116.742 117.062 117.362 117.65 117.925 118.192 118.465 118.737 119.012 119.262 119.507 119.76 120.032 120.28 120.565 120.825 121.055 121.31 121.555 121.775 122.055 122.272 122.535 122.797 123.045 123.312 123.572 123.782 123.985 124.167 124.35 124.48 124.632 124.792 124.95 125.08 125.25 125.372 125.527 125.657 125.782 125.935 126.09 126.252 126.417 126.575 126.72 126.875 127.017 127.137 127.257 127.402 127.5 127.6 127.755 127.865 127.977 128.095 128.227 128.342 128.467 128.585 128.722 128.847 128.962 129.057 129.185 129.297 129.427 129.527 129.642 129.74 129.867 129.97 130.07 130.192 130.285 130.365 130.457 130.51 130.592 130.667 130.707 130.77 130.805 130.835 130.892 130.937 130.97 131.02 131.032 131.047 131.047 131.06 131.067 131.055 131.052 131.037 131.02 131.017 131.017 131.017 131.02 131.052 131.062 131.075 131.562 132.062 132.43 132.807 133.002 132.712 132.63 131.615 131.21 130.612 130.435 130.392 130.327 130.247 130.275 130.25 130.28 130.797 132.322 129.39 129.082 129.53 131.082 130.755 129.58 129.482 129.442 129.525 129.552 129.567 129.512 129.437 129.36 129.277 129.187 129.102 129.012 128.92 128.827 128.735 128.63 128.532 128.425 128.312 128.222 128.127 128.04 127.957 127.87 127.767 127.69 127.617 127.537 127.495 127.425 127.372 127.285 127.222 127.19 127.12 127.067 127.07 126.992 126.925 126.902 126.842 126.795 126.74 126.685 126.632 126.55 126.525 126.467 126.4 126.345 126.305
39.265 39.423 39.541 39.696 39.819 39.936 40.061 40.172 40.287 40.389 40.518 40.661 40.879 41.264 42.601 44.002 42.92 42.13 41.555 41.415 41.535 41.673 41.843 42.005 42.163 42.15 42.203 42.263 42.295 42.325 42.42 42.55 42.683 42.805 42.97 43.068 43.158 43.318 43.413 43.51 43.608 43.73 43.81 43.913 43.965 44.053 44.208 44.283 44.353 44.498 44.633 44.785 44.945 45.105 45.33 46.658 46.403 46.465 46.518 46.545 46.435 47.145 46.988 47.083 46.963 47.585 47.388 47.478 47.503 47.69 48.045 47.74 47.15 47.733 51.328 50.06 49.683 49.875 50.05 50.215 50.373 50.543 50.735 50.985 51.26 51.52 51.765 51.953 52.15 52.36 52.638 52.973 53.278 53.645 54.01 54.315 54.573 54.803 55.015 55.18 55.363 55.585 55.925 56.403 57.25 57.795 56.338 56.95 57.205 55.04 56.04 59.825 61.185 61.973 62.518 63.47 64.219 64.634 63.899 63.915 64.538 65.192 65.807 66.476 67.185 67.869 68.549 69.225 69.921 70.592 71.292 71.956 72.603 73.225 73.8 74.404 74.952 75.538 76.082 76.622 77.181 77.688 78.185 78.655 79.118 79.55 79.958 80.372 80.767 81.135 81.5 81.897 82.251 82.606 82.944 83.762 84.694 85.937 85.014 85.497 86.48 87.101 86.894 87.104 87.462 87.817 88.203 88.561 88.898 89.295 89.693 90.097 90.491 90.902 91.323 91.705 92.093 92.461 92.838 93.21 93.557 93.893 94.235 94.572 94.914 95.25 95.587 95.899 96.222 96.535 96.815 97.089 97.346 97.626 97.892 98.159 98.422 98.697 98.999 99.325 99.69 100.058 100.485 100.895 101.315 101.747 102.196 102.676 103.158 103.627 104.143 104.651 105.142 105.598 106.016 106.442 106.876 107.28 107.716 108.122 108.542 108.957 109.371 109.79 110.206 110.659 111.085 111.5 111.876 112.257 112.613 112.949 113.326 113.658 113.943 114.231 114.516 114.793 115.065 115.337 115.62 115.882 116.165 116.457 116.767 117.102 117.41 117.715 117.987 118.275 118.562 118.847 119.112 119.35 119.6 119.83 120.075 120.33 120.58 120.872 121.125 121.38 121.625 121.872 122.157 122.38 122.647 122.872 123.117 123.365 123.63 123.875 124.08 124.295 124.48 124.645 124.797 124.942 125.125 125.25 125.397 125.53 125.672 125.812 125.965 126.097 126.227 126.387 126.555 126.72 126.86 127.015 127.14 127.265 127.41 127.532 127.682 127.822 127.902 128.002 128.135 128.225 128.32 128.442 128.55 128.66 128.772 128.882 129.015 129.14 129.22 129.335 129.442 129.54 129.632 129.74 129.82 129.932 130.062 130.155 130.242 130.342 130.407 130.49 130.567 130.632 130.697 130.745 130.812 130.825 130.877 130.925 130.957 130.997 131.027 131.06 131.065 131.057 131.07 131.065 131.047 131.047 131.057 131.05 131.057 131.095 131.237 131.547 131.837 132.172 132.515 132.845 133.322 132.937 131.787 131.192 130.71 130.942 130.572 130.537 130.465 130.415 130.365 130.22 130.13 130.167 130.175 130.212 130.362 131.642 130.342 128.942 128.865 130.422 130.772 129.47 129.315 129.307 129.38 129.407 129.412 129.355 129.295 129.227 129.155 129.082 128.972 128.887 128.77 128.665 128.54 128.422 128.352 128.26 128.145 128.032 127.942 127.855 127.777 127.68 127.582 127.517 127.43 127.377 127.307 127.24 127.172 127.107 127.047 127.017 126.972 126.92 126.872 126.802 126.752 126.695 126.657 126.6 126.55 126.512 126.435 126.392 126.337 126.282 126.212 126.17 126.127
39.237 39.355 39.484 39.617 39.739 39.849 39.963 40.078 40.187 40.319 40.498 40.937 42.188 43.185 44.175 43.496 41.525 41.12 41.255 41.373 41.485 41.618 41.763 41.913 42.073 42.07 42.055 42.083 42.138 42.205 42.303 42.435 42.573 42.708 42.868 42.973 43.093 43.203 43.32 43.413 43.508 43.628 43.71 43.805 43.858 43.973 44.14 44.31 44.46 44.563 44.628 44.723 44.913 45.148 45.35 46.15 46.295 46.248 46.305 46.81 46.44 46.61 47.34 47.7 47.125 47.878 47.27 47.585 47.42 47.365 47.485 48.433 47.143 48.128 51.955 50.635 49.708 49.858 49.99 50.183 50.37 50.52 50.685 50.963 51.238 51.528 51.76 51.928 52.09 52.295 52.535 52.8 53.1 53.483 53.908 54.263 54.6 54.8 54.983 55.158 55.315 55.53 55.818 56.195 56.663 57.348 56.243 55.84 56.443 55.05 58.85 62.135 61.918 63.598 63.811 64.362 64.797 64.721 63.854 64.352 64.994 65.626 66.284 66.995 67.651 68.357 69.017 69.685 70.39 71.054 71.705 72.327 72.913 73.49 74.063 74.622 75.181 75.723 76.297 76.831 77.376 77.88 78.373 78.832 79.292 79.715 80.124 80.542 80.922 81.29 81.662 82.02 82.409 82.757 83.088 83.437 83.953 86.058 85.679 85.56 86.078 86.618 86.675 87.139 87.57 87.978 88.324 88.676 89.063 89.444 89.844 90.239 90.649 91.056 91.448 91.863 92.233 92.602 92.97 93.342 93.686 94.027 94.354 94.705 95.032 95.365 95.692 96.009 96.326 96.628 96.905 97.192 97.444 97.712 97.965 98.215 98.482 98.761 99.054 99.372 99.7 100.084 100.507 100.924 101.358 101.796 102.262 102.726 103.214 103.699 104.193 104.709 105.177 105.639 106.082 106.518 106.937 107.377 107.803 108.228 108.664 109.091 109.517 109.934 110.369 110.802 111.253 111.66 112.04 112.427 112.801 113.158 113.505 113.858 114.164 114.475 114.761 115.036 115.33 115.615 115.877 116.165 116.435 116.76 117.112 117.44 117.757 118.06 118.342 118.66 118.932 119.207 119.495 119.76 119.977 120.212 120.437 120.725 120.99 121.257 121.512 121.782 122.025 122.3 122.56 122.77 123.05 123.262 123.487 123.702 123.932 124.16 124.4 124.597 124.787 124.952 125.112 125.262 125.43 125.562 125.73 125.87 126 126.152 126.287 126.41 126.522 126.702 126.865 127.02 127.167 127.322 127.435 127.575 127.682 127.815 127.967 128.07 128.182 128.282 128.402 128.485 128.585 128.682 128.782 128.872 128.967 129.065 129.182 129.29 129.375 129.472 129.585 129.675 129.782 129.87 129.965 130.06 130.135 130.192 130.292 130.372 130.465 130.507 130.6 130.665 130.712 130.765 130.822 130.852 130.897 130.942 130.987 131.02 131.047 131.09 131.09 131.105 131.205 131.722 131.187 131.315 131.482 131.747 132.092 132.417 132.64 132.727 132.395 132.095 132.11 131.96 131.22 130.795 130.685 130.642 130.605 130.585 130.547 130.507 130.427 130.355 130.272 130.137 130.082 130.07 130.052 130.062 130.07 130.525 131.695 128.815 128.717 129.335 130.827 129.757 129.227 129.235 129.277 129.297 129.257 129.222 129.175 129.107 129.037 128.967 128.845 128.747 128.652 128.54 128.402 128.3 128.217 128.115 128.01 127.915 127.812 127.717 127.625 127.53 127.462 127.365 127.297 127.252 127.185 127.107 127.05 126.99 126.942 126.905 126.845 126.795 126.717 126.675 126.615 126.547 126.502 126.46 126.405 126.355 126.297 126.232 126.19 126.152 126.105 126.052 126.007
39.167 39.298 39.437 39.541 39.638 39.743 39.853 39.981 40.131 40.433 41.384 42.488 44.04 43.493 43.06 40.907 40.945 41.078 41.245 41.403 41.475 41.558 41.66 41.743 41.893 41.94 41.883 41.93 42.008 42.1 42.2 42.33 42.465 42.6 42.735 42.863 42.953 43.07 43.16 43.288 43.443 43.563 43.645 43.745 43.783 43.715 44.325 45.09 45.538 44.865 44.733 44.82 44.945 45.195 45.345 45.425 46.088 46.083 46.18 46.71 46.843 46.43 46.56 46.82 46.99 46.945 47.415 48.328 47.655 47.35 47.505 48.093 47.158 48.063 53.043 51.973 49.653 49.833 49.958 50.133 50.338 50.528 50.708 50.95 51.215 51.46 51.735 51.908 52.043 52.238 52.42 52.633 52.933 53.328 53.735 54.215 54.535 54.743 54.92 55.088 55.228 55.44 55.735 56.09 56.48 56.323 54.773 54.573 54.638 55.5 57.735 59.933 62.66 63.71 63.528 64.202 64.849 64.624 64.249 64.77 65.439 66.088 66.759 67.439 68.116 68.791 69.458 70.138 70.803 71.455 72.038 72.598 73.168 73.726 74.268 74.818 75.368 75.915 76.464 77.005 77.543 78.043 78.539 79.023 79.468 79.887 80.308 80.71 81.089 81.459 81.834 82.195 82.56 82.887 83.257 83.607 84.028 84.693 86.102 86.613 85.812 87.108 86.801 87.257 87.707 88.128 88.488 88.86 89.226 89.602 89.988 90.383 90.798 91.19 91.597 91.998 92.362 92.729 93.099 93.468 93.811 94.147 94.462 94.8 95.141 95.485 95.802 96.123 96.42 96.718 96.993 97.258 97.521 97.768 98.014 98.266 98.528 98.794 99.092 99.404 99.74 100.113 100.523 100.953 101.401 101.83 102.293 102.775 103.255 103.749 104.228 104.722 105.188 105.644 106.119 106.568 106.996 107.452 107.892 108.323 108.766 109.208 109.635 110.056 110.493 110.937 111.375 111.79 112.197 112.57 112.938 113.299 113.652 114.005 114.33 114.661 114.973 115.259 115.538 115.846 116.12 116.405 116.71 117.015 117.372 117.707 118.015 118.342 118.632 118.94 119.227 119.502 119.8 120.062 120.315 120.547 120.775 121.042 121.327 121.627 121.865 122.157 122.437 122.705 122.957 123.175 123.43 123.625 123.825 124.035 124.262 124.48 124.667 124.877 125.06 125.232 125.387 125.532 125.722 125.88 126.055 126.197 126.345 126.48 126.582 126.74 126.89 127.012 127.175 127.335 127.465 127.602 127.722 127.837 127.955 128.072 128.215 128.312 128.43 128.55 128.655 128.747 128.807 128.895 128.982 129.07 129.15 129.24 129.312 129.41 129.512 129.612 129.695 129.797 129.895 129.975 130.062 130.135 130.22 130.252 130.29 130.4 130.465 130.537 130.602 130.682 130.75 130.837 130.892 130.94 130.982 131.312 131.15 131.345 131.602 131.927 131.645 131.87 131.932 132.655 132.555 132.455 132.672 133 132.707 131.787 131.735 131.347 130.83 130.855 130.797 130.75 130.73 130.677 130.662 130.615 130.557 130.565 130.492 130.432 130.34 130.262 130.15 130.077 129.995 129.94 129.9 129.92 129.927 130.107 131.82 129.512 128.542 128.657 130.587 129.962 129.147 129.142 129.145 129.14 129.09 129.05 129 128.94 128.875 128.777 128.68 128.572 128.492 128.372 128.27 128.16 128.075 127.957 127.865 127.765 127.675 127.585 127.495 127.412 127.325 127.245 127.19 127.135 127.08 127.03 126.967 126.902 126.865 126.807 126.76 126.69 126.645 126.567 126.517 126.465 126.405 126.37 126.312 126.245 126.197 126.157 126.095 126.057 126.017 125.977 125.92
39.095 39.217 39.331 39.432 39.524 39.645 39.778 39.983 40.633 41.477 43.385 43.279 42.029 41.381 40.625 40.8 40.925 41.04 41.2 41.348 41.465 41.503 41.558 41.603 41.648 41.688 41.725 41.785 41.883 42.01 42.105 42.223 42.343 42.468 42.6 42.695 42.78 42.9 42.995 43.143 43.298 43.39 43.375 43.51 44.113 44.783 45.03 44.92 44.778 44.75 44.765 44.828 44.918 45.288 45.985 46.453 46.78 45.995 46.088 46.243 47.238 46.488 46.46 46.618 46.725 46.82 47.233 47.445 47.61 47.883 47.415 48.248 47.115 47.288 51.39 53.138 49.963 49.838 49.918 50.093 50.29 50.478 50.685 50.925 51.178 51.43 51.675 51.845 52.003 52.17 52.38 52.548 52.785 53.158 53.58 54.095 54.493 54.705 54.845 54.955 55.138 55.363 55.643 56.015 56.36 55.018 54.38 54.448 54.56 54.808 56.998 59.98 62.413 63.155 63.659 64.252 64.451 64.132 64.59 65.234 65.885 66.532 67.225 67.892 68.569 69.229 69.89 70.562 71.201 71.765 72.301 72.833 73.397 73.925 74.468 75.024 75.558 76.113 76.65 77.198 77.724 78.225 78.746 79.21 79.665 80.091 80.506 80.893 81.282 81.651 82.007 82.359 82.72 83.068 83.409 83.747 85.019 85.637 87.542 86.395 86.159 86.348 86.902 87.458 87.883 88.265 88.668 89.022 89.393 89.762 90.16 90.504 90.924 91.323 91.73 92.117 92.493 92.865 93.222 93.575 93.926 94.265 94.592 94.91 95.249 95.587 95.908 96.205 96.507 96.782 97.059 97.318 97.563 97.806 98.059 98.31 98.568 98.843 99.113 99.433 99.768 100.125 100.515 100.946 101.407 101.846 102.311 102.779 103.264 103.748 104.255 104.742 105.214 105.687 106.158 106.61 107.071 107.515 107.959 108.412 108.873 109.32 109.756 110.183 110.6 111.059 111.488 111.885 112.283 112.675 113.068 113.433 113.768 114.122 114.483 114.822 115.131 115.44 115.743 116.027 116.34 116.635 116.92 117.245 117.577 117.897 118.195 118.512 118.807 119.132 119.425 119.717 120.007 120.287 120.545 120.792 121.042 121.32 121.59 121.9 122.172 122.435 122.742 122.997 123.257 123.49 123.74 123.927 124.14 124.347 124.565 124.752 124.95 125.14 125.325 125.502 125.665 125.82 125.992 126.157 126.327 126.462 126.63 126.757 126.887 127.03 127.177 127.317 127.46 127.605 127.712 127.83 127.955 128.077 128.202 128.315 128.41 128.532 128.657 128.757 128.847 128.93 129.005 129.097 129.19 129.265 129.337 129.407 129.465 129.557 129.66 129.722 129.792 129.89 129.967 130.067 130.127 130.202 130.285 130.332 130.387 130.472 130.55 130.632 130.707 130.842 131.08 131.327 132.192 132.29 132.155 132.432 132.695 132.99 132.837 132.802 132.89 132.83 132.3 131.755 131.85 131.25 131.275 131.24 131.755 130.882 130.84 130.795 130.827 130.822 130.76 130.73 130.685 130.642 130.55 130.48 130.435 130.357 130.315 130.21 130.217 130.09 129.992 129.927 129.867 129.785 129.795 129.707 129.75 129.772 131 130.76 128.36 128.31 129.625 130.352 129.03 129.007 128.982 128.965 128.915 128.867 128.822 128.745 128.677 128.57 128.48 128.385 128.28 128.19 128.092 127.995 127.9 127.805 127.72 127.622 127.522 127.437 127.372 127.3 127.23 127.14 127.085 127.022 126.972 126.902 126.865 126.817 126.77 126.707 126.642 126.59 126.515 126.475 126.432 126.372 126.327 126.267 126.207 126.145 126.1 126.047 125.997 125.952 125.897 125.855 125.79
39 39.12 39.211 39.302 39.434 39.61 39.887 40.475 41.133 40.905 40.914 40.501 40.348 40.436 40.583 40.771 40.89 40.998 41.123 41.255 41.338 41.398 41.43 41.448 41.445 41.508 41.598 41.683 41.79 41.908 42.023 42.108 42.2 42.298 42.405 42.483 42.585 42.733 42.793 42.933 43.07 43.4 43.983 44.433 44.523 44.48 44.503 44.563 44.65 44.655 44.69 44.793 44.855 47.423 48.663 48.335 46.823 45.91 46.01 46.153 46.393 47.165 47.325 47.505 47.503 46.918 47.42 47.833 49.13 49.105 49.088 49.07 47.815 47.145 49.528 52.035 49.75 49.79 49.9 50.08 50.268 50.465 50.675 50.915 51.155 51.393 51.613 51.813 51.95 52.11 52.295 52.475 52.715 52.975 53.388 53.983 54.47 54.668 54.778 54.905 55.068 55.323 55.565 56.068 55.8 54.155 54.26 54.4 54.428 54.598 57.388 60.513 62.325 63.113 63.698 64.347 64.148 64.408 65.024 65.678 66.329 66.989 67.648 68.318 68.988 69.66 70.308 70.928 71.479 71.999 72.533 73.057 73.588 74.131 74.658 75.205 75.756 76.281 76.838 77.365 77.896 78.419 78.903 79.379 79.833 80.259 80.679 81.079 81.459 81.829 82.208 82.552 82.887 83.398 83.938 85.325 85.624 85.743 86.637 86.326 86.286 86.632 87.168 87.65 88.019 88.44 88.811 89.182 89.567 89.928 90.293 90.655 91.06 91.452 91.859 92.229 92.616 92.975 93.331 93.674 94.038 94.362 94.685 95.011 95.355 95.679 95.981 96.268 96.537 96.82 97.099 97.357 97.588 97.841 98.086 98.327 98.599 98.865 99.147 99.448 99.782 100.128 100.513 100.94 101.396 101.869 102.334 102.811 103.272 103.77 104.271 104.752 105.228 105.71 106.192 106.666 107.119 107.586 108.045 108.501 108.946 109.413 109.836 110.268 110.716 111.164 111.576 111.976 112.368 112.763 113.162 113.529 113.881 114.245 114.58 114.934 115.274 115.6 115.906 116.212 116.515 116.827 117.122 117.407 117.7 118.025 118.332 118.632 118.945 119.25 119.552 119.872 120.15 120.427 120.707 120.982 121.252 121.507 121.817 122.107 122.4 122.672 122.97 123.24 123.492 123.75 123.977 124.185 124.397 124.597 124.807 125.017 125.212 125.402 125.587 125.772 125.912 126.082 126.237 126.405 126.572 126.737 126.867 127.017 127.162 127.292 127.427 127.572 127.692 127.83 127.932 128.055 128.165 128.27 128.382 128.495 128.582 128.722 128.832 128.94 129.052 129.142 129.19 129.26 129.355 129.41 129.467 129.53 129.615 129.695 129.775 129.85 129.87 129.957 130.047 130.125 130.222 130.335 130.405 130.677 130.99 131.287 131.335 131.547 132.062 132.592 132.785 132.717 132.81 132.687 132.31 132.627 132.18 132.585 131.827 131.397 131.955 131.357 131.032 131.01 130.98 130.98 130.96 130.965 130.955 130.935 130.875 130.82 130.797 130.73 130.662 130.6 130.537 130.48 130.377 130.34 130.302 130.23 130.165 130.105 130.032 129.972 129.877 129.782 129.677 129.655 129.605 129.547 129.547 129.555 129.89 131.257 128.667 128.155 128.912 130.435 128.982 128.845 128.817 128.79 128.745 128.695 128.62 128.525 128.46 128.375 128.272 128.197 128.09 128.002 127.927 127.835 127.745 127.655 127.57 127.477 127.405 127.332 127.262 127.195 127.115 127.06 127 126.937 126.877 126.827 126.782 126.73 126.655 126.615 126.53 126.482 126.415 126.385 126.335 126.29 126.22 126.152 126.107 126.057 125.995 125.93 125.892 125.837 125.792 125.737 125.697
38.92 39.007 39.126 39.266 39.45 40.254 40.391 40.589 40.429 40.291 40.118 40.087 40.213 40.365 40.532 40.653 40.76 40.828 40.935 41.073 41.175 41.208 41.243 41.255 41.318 41.423 41.515 41.618 41.718 41.82 41.888 41.945 42.048 42.155 42.243 42.383 42.478 42.485 42.833 43.34 43.86 44.15 43.955 44.078 44.473 44.438 44.398 44.48 44.583 44.593 44.623 44.718 44.795 46.983 48.69 48.378 47.253 45.803 45.958 46.018 46.118 46.603 46.475 46.618 47.198 49.328 48.52 47.968 47.293 47.215 47.405 47.59 47.898 47.115 47.6 49.843 50.188 49.91 49.895 50.058 50.258 50.463 50.7 50.938 51.143 51.348 51.578 51.778 51.913 52.063 52.223 52.338 52.57 52.75 53.055 53.64 54.373 54.71 54.765 54.923 55.088 55.31 55.63 55.768 54.18 54.035 54.17 54.26 54.3 54.425 57.413 61.29 62.85 63.498 64.133 64.677 64.262 64.779 65.455 66.074 66.75 67.427 68.09 68.735 69.41 70.084 70.665 71.183 71.699 72.218 72.726 73.255 73.794 74.329 74.879 75.398 75.932 76.476 77.023 77.547 78.064 78.585 79.075 79.564 80.01 80.433 80.882 81.271 81.647 82.112 82.435 82.74 83.103 85.755 85.158 84.92 86.294 85.927 86.077 86.249 86.512 86.907 87.381 87.821 88.179 88.584 88.974 89.348 89.728 90.093 90.453 90.806 91.156 91.567 91.943 92.335 92.722 93.092 93.409 93.766 94.123 94.467 94.788 95.106 95.426 95.734 96.032 96.315 96.591 96.864 97.124 97.372 97.621 97.851 98.11 98.359 98.622 98.893 99.169 99.475 99.793 100.135 100.509 100.915 101.368 101.832 102.303 102.787 103.271 103.761 104.281 104.77 105.262 105.755 106.231 106.714 107.175 107.647 108.114 108.587 109.033 109.485 109.924 110.365 110.801 111.243 111.661 112.054 112.459 112.869 113.249 113.615 113.98 114.334 114.701 115.055 115.405 115.746 116.065 116.371 116.698 116.98 117.275 117.552 117.852 118.135 118.43 118.737 119.035 119.352 119.662 119.96 120.24 120.545 120.825 121.13 121.412 121.67 121.965 122.26 122.565 122.842 123.115 123.402 123.7 123.935 124.157 124.385 124.6 124.815 125.022 125.235 125.43 125.63 125.82 125.987 126.157 126.312 126.47 126.63 126.775 126.95 127.072 127.225 127.37 127.52 127.67 127.81 127.927 128.027 128.14 128.25 128.37 128.472 128.582 128.685 128.765 128.882 128.985 129.05 129.162 129.245 129.32 129.377 129.447 129.502 129.565 129.642 129.72 129.832 129.827 129.892 129.972 130.167 130.417 130.655 130.902 131.38 131.57 131.835 132.135 132.292 132.285 132.372 132.06 132.21 132.14 131.877 131.69 131.09 131.152 131.285 131.052 131.095 131.062 131.065 131.057 131.085 131.055 131.067 131.012 130.982 130.957 130.937 130.882 130.845 130.752 130.655 130.717 130.592 130.512 130.48 130.435 130.317 130.287 130.25 130.147 130.095 130.022 129.972 129.88 129.825 129.73 129.63 129.572 129.53 129.412 129.367 129.307 129.352 129.37 130.542 129.542 127.975 128.19 129.99 129.395 128.645 128.627 128.592 128.552 128.48 128.4 128.34 128.265 128.17 128.085 128.002 127.915 127.817 127.74 127.66 127.582 127.502 127.442 127.347 127.272 127.195 127.132 127.07 127.002 126.955 126.892 126.837 126.76 126.71 126.67 126.627 126.555 126.525 126.465 126.4 126.342 126.282 126.24 126.182 126.127 126.05 126.007 125.947 125.892 125.835 125.777 125.72 125.677 125.612 125.565
38.8 38.932 39.121 39.844 39.954 40.363 40.184 39.549 39.583 39.722 39.905 40.021 40.135 40.286 40.405 40.511 40.548 40.643 40.765 40.86 40.973 41.015 41.09 41.145 41.228 41.308 41.445 41.523 41.615 41.703 41.773 41.868 42.015 42.07 42.045 42.595 43.46 43.48 43.595 43.505 43.5 43.6 43.848 44.308 44.375 44.308 44.338 44.423 44.5 44.56 44.583 44.648 44.723 46.355 48.755 48.475 47.868 45.705 46.408 45.918 45.968 46.288 46.32 46.525 46.653 47.335 46.775 46.898 47.055 47.165 47.198 47.255 48.195 47.095 47.155 48.943 50.065 49.818 49.895 50.065 50.283 50.475 50.713 50.93 51.13 51.318 51.533 51.72 51.933 52.053 52.065 52.23 52.363 53.988 55.875 53.825 53.998 54.705 54.88 54.955 55.23 55.44 55.708 54.03 53.785 53.993 54.12 54.163 54.323 54.53 58.08 61.845 63.248 63.745 64.34 64.899 64.694 65.219 65.861 66.502 67.171 67.839 68.53 69.166 69.798 70.371 70.888 71.388 71.891 72.402 72.932 73.452 73.98 74.519 75.05 75.605 76.149 76.671 77.213 77.739 78.258 78.769 79.266 79.731 80.19 80.641 81.055 81.461 81.942 82.281 82.576 83.26 85.338 84.814 85.071 85.51 85.419 85.788 86.104 86.438 86.744 87.173 87.571 88.018 88.371 88.762 89.144 89.518 89.86 90.234 90.597 90.954 91.282 91.675 92.042 92.43 92.799 93.169 93.512 93.847 94.187 94.538 94.843 95.159 95.468 95.773 96.063 96.333 96.602 96.862 97.125 97.38 97.627 97.878 98.116 98.37 98.632 98.897 99.185 99.489 99.79 100.128 100.486 100.907 101.341 101.818 102.304 102.786 103.277 103.777 104.278 104.779 105.287 105.764 106.26 106.749 107.219 107.702 108.178 108.635 109.081 109.523 109.977 110.426 110.864 111.3 111.717 112.127 112.516 112.935 113.329 113.704 114.07 114.436 114.797 115.156 115.5 115.852 116.196 116.513 116.821 117.135 117.4 117.692 117.965 118.242 118.545 118.83 119.13 119.427 119.747 120.052 120.355 120.647 120.952 121.25 121.547 121.827 122.122 122.427 122.702 123.005 123.252 123.547 123.862 124.112 124.337 124.57 124.782 125.002 125.227 125.422 125.642 125.855 126.027 126.192 126.345 126.485 126.63 126.795 126.945 127.09 127.257 127.415 127.58 127.7 127.812 127.982 128.12 128.215 128.327 128.425 128.525 128.635 128.7 128.835 128.907 128.977 129.062 129.157 129.257 129.32 129.407 129.455 129.535 129.605 129.727 129.752 129.995 130.762 131.11 131.122 131.305 131.54 131.91 132.03 132.142 132.172 132.1 132.11 131.18 130.957 130.927 131.09 131.01 130.97 131.017 130.952 130.995 131.035 131.077 131.097 131.087 131.082 131.11 131.11 131.037 131.047 131.007 131 130.9 130.852 130.855 130.757 130.732 130.675 130.67 130.597 130.535 130.437 130.38 130.34 130.277 130.207 130.102 130.055 130.015 129.957 129.825 129.785 129.767 129.647 129.512 129.497 129.427 129.34 129.225 129.187 129.112 129.102 129.082 129.707 130.287 127.877 127.765 129.35 129.605 128.445 128.425 128.407 128.372 128.312 128.23 128.165 128.082 127.985 127.91 127.84 127.735 127.662 127.592 127.512 127.437 127.372 127.302 127.232 127.172 127.087 127.037 126.97 126.907 126.862 126.79 126.745 126.7 126.625 126.612 126.555 126.487 126.447 126.387 126.33 126.26 126.215 126.135 126.082 126.047 125.97 125.902 125.857 125.795 125.73 125.682 125.632 125.57 125.5 125.477
38.792 39.143 39.57 39.939 39.979 39.709 39.403 39.345 39.513 39.685 39.851 39.969 40.059 40.161 40.28 40.348 40.408 40.513 40.613 40.703 40.798 40.88 40.943 41.033 41.093 41.205 41.31 41.405 41.523 41.64 41.723 41.665 41.975 42.608 43.3 43.258 43.215 43.14 43.008 43.025 43.2 43.588 43.823 44.568 44.545 44.24 44.293 44.388 44.408 44.443 44.448 44.505 44.52 45.043 48.638 48.32 47.82 45.633 45.783 45.72 45.845 46.303 46.985 46.315 46.503 47.69 46.725 46.81 46.945 47.078 47.155 47.135 47.928 47.14 47.085 50.71 52.473 49.935 49.91 50.085 50.288 50.465 50.68 50.898 51.088 51.258 51.443 51.663 51.87 52.03 52.33 52.268 52.643 54.318 56.348 55.428 53.82 54.383 54.905 55.033 55.173 55.705 53.688 53.433 53.703 53.925 54.06 54.365 55.88 56.768 58.098 62.14 63.713 64.223 64.9 65.447 65.09 65.654 66.286 66.909 67.597 68.246 68.924 69.506 70.067 70.598 71.087 71.571 72.101 72.608 73.112 73.67 74.204 74.728 75.281 75.808 76.348 76.863 77.388 77.924 78.458 78.953 79.448 79.933 80.387 80.83 81.236 81.716 82.117 82.389 83.298 84.37 84.514 84.892 85.707 85.453 85.563 85.933 86.275 86.605 86.975 87.374 87.783 88.207 88.561 88.916 89.306 89.695 90.037 90.378 90.74 91.081 91.407 91.736 92.135 92.517 92.877 93.237 93.589 93.92 94.247 94.566 94.88 95.201 95.497 95.798 96.07 96.349 96.597 96.866 97.118 97.393 97.635 97.895 98.129 98.388 98.646 98.933 99.21 99.504 99.807 100.147 100.493 100.884 101.309 101.77 102.258 102.752 103.269 103.768 104.261 104.778 105.298 105.805 106.292 106.785 107.281 107.751 108.232 108.689 109.137 109.592 110.046 110.484 110.92 111.363 111.783 112.19 112.594 112.994 113.386 113.76 114.142 114.514 114.879 115.243 115.603 115.958 116.324 116.634 116.939 117.22 117.52 117.79 118.062 118.347 118.632 118.937 119.212 119.535 119.827 120.137 120.44 120.762 121.087 121.392 121.695 121.985 122.267 122.565 122.837 123.13 123.41 123.687 123.997 124.257 124.502 124.75 124.947 125.177 125.38 125.59 125.797 125.987 126.187 126.37 126.517 126.657 126.81 126.972 127.11 127.27 127.425 127.58 127.73 127.872 127.985 128.125 128.252 128.377 128.455 128.577 128.675 128.752 128.832 128.937 129.017 129.087 129.172 129.27 129.362 129.485 129.555 129.927 130.222 130.597 131.232 131.457 131.59 131.635 131.795 131.617 131.287 130.992 131.057 130.76 130.635 130.665 130.63 130.66 130.687 130.745 130.755 130.847 130.9 130.947 131.002 131.05 131.095 131.11 131.1 131.122 131.067 131.057 131.002 131 130.942 130.935 130.872 130.845 130.745 130.712 130.682 130.657 130.617 130.6 130.517 130.485 130.385 130.305 130.237 130.187 130.115 130.03 129.977 129.907 129.815 129.785 129.687 129.655 129.602 129.54 129.387 129.332 129.27 129.18 129.052 128.995 128.94 128.852 128.875 129.105 130.342 128.442 127.615 128.395 129.732 128.427 128.237 128.217 128.19 128.137 128.072 128.012 127.905 127.85 127.737 127.66 127.582 127.515 127.442 127.37 127.32 127.257 127.18 127.092 127.045 126.98 126.93 126.86 126.812 126.767 126.717 126.652 126.6 126.577 126.502 126.475 126.412 126.372 126.307 126.255 126.187 126.125 126.07 126 125.95 125.895 125.82 125.76 125.695 125.627 125.565 125.505 125.457 125.402 125.357
39.312 39.552 39.627 39.389 39.074 39.029 39.193 39.329 39.468 39.598 39.748 39.879 39.958 40.035 40.13 40.205 40.278 40.405 40.508 40.613 40.703 40.745 40.83 40.915 40.99 41.113 41.185 41.298 41.348 41.36 41.793 42.365 42.96 42.843 42.503 42.415 42.445 42.57 42.635 42.82 42.978 43.183 43.555 43.978 44.103 44.085 44.19 44.263 44.335 44.363 44.395 44.378 44.358 44.64 48.405 48.335 48.078 46.115 46.413 46.548 45.938 45.86 46.023 46.263 46.498 48.028 46.67 46.73 46.898 47.04 47.133 47.135 47.103 47.07 47.078 48.22 51.46 50.55 49.878 50.088 50.28 50.47 50.66 50.835 51 51.183 51.393 51.585 51.773 51.915 52.548 52.338 53.645 53.395 54.9 54.798 54.483 54.023 54.638 55.02 55.118 54.153 53.155 53.89 54.42 54.318 54.678 56.048 56.75 59.26 60.533 62.275 63.875 64.663 65.673 65.422 65.444 66.04 66.686 67.35 67.983 68.629 69.223 69.746 70.256 70.752 71.242 71.754 72.275 72.782 73.33 73.937 74.383 74.947 75.494 76.02 76.543 77.07 77.605 78.125 78.659 79.162 79.636 80.124 80.585 81.041 81.455 81.948 82.258 83.198 83.894 84.276 85.125 84.845 85.086 85.424 85.76 86.098 86.432 86.812 87.192 87.583 87.978 88.395 88.783 89.051 89.453 89.839 90.177 90.514 90.833 91.183 91.527 91.842 92.242 92.575 92.937 93.301 93.642 93.966 94.287 94.599 94.905 95.206 95.491 95.769 96.054 96.325 96.587 96.869 97.124 97.377 97.635 97.887 98.135 98.4 98.671 98.948 99.225 99.514 99.822 100.154 100.501 100.871 101.298 101.762 102.244 102.752 103.255 103.773 104.285 104.805 105.31 105.803 106.32 106.814 107.307 107.776 108.255 108.71 109.169 109.627 110.073 110.516 110.952 111.396 111.831 112.256 112.654 113.035 113.424 113.814 114.211 114.573 114.945 115.322 115.691 116.073 116.409 116.732 117.03 117.332 117.63 117.897 118.192 118.46 118.747 119.027 119.312 119.615 119.91 120.235 120.55 120.87 121.19 121.512 121.815 122.105 122.395 122.672 122.955 123.23 123.53 123.807 124.102 124.385 124.625 124.867 125.1 125.31 125.52 125.742 125.945 126.142 126.312 126.47 126.62 126.767 126.925 127.075 127.217 127.392 127.53 127.67 127.802 127.952 128.09 128.215 128.337 128.47 128.562 128.675 128.797 128.872 128.945 129.052 129.127 129.27 129.49 130.297 130.835 131.7 131.495 131.345 130.975 130.822 131.037 131.017 131.135 130.862 130.877 130.352 130.395 130.45 130.492 130.525 130.557 130.602 130.622 130.702 130.745 130.807 130.86 130.917 130.945 130.935 131.005 130.975 131.03 130.987 131.005 130.995 130.945 130.94 130.902 130.847 130.805 130.822 130.74 130.727 130.635 130.622 130.567 130.552 130.51 130.48 130.405 130.317 130.262 130.147 130.092 129.98 129.952 129.912 129.822 129.717 129.667 129.595 129.587 129.49 129.38 129.33 129.252 129.155 129.045 128.972 128.865 128.802 128.727 128.682 128.672 128.672 129.377 129.472 127.447 127.762 129.427 128.987 128.045 128.032 128.005 127.982 127.905 127.837 127.752 127.667 127.552 127.5 127.425 127.362 127.282 127.225 127.202 127.11 127.047 126.975 126.935 126.88 126.825 126.762 126.725 126.672 126.622 126.577 126.525 126.485 126.43 126.385 126.355 126.295 126.26 126.165 126.1 126.022 125.975 125.92 125.862 125.787 125.715 125.662 125.587 125.527 125.47 125.405 125.345 125.297 125.227
39.4 39.31 38.862 38.724 38.867 39.019 39.134 39.276 39.429 39.522 39.615 39.703 39.808 39.895 39.977 40.083 40.18 40.288 40.383 40.463 40.55 40.613 40.698 40.768 40.898 40.968 41.01 41.22 41.825 42.333 42.413 42.168 42.008 41.965 42.055 42.175 42.275 42.69 42.535 42.745 42.87 43.205 43.628 43.895 43.95 44.005 44.075 44.14 44.223 44.305 44.388 44.353 44.278 44.288 47.71 48.395 48.15 46.413 45.455 46.125 45.628 45.893 47.495 46.258 46.475 47.378 47.315 46.705 46.855 46.983 47.078 47.188 47.353 47.725 47.05 47.495 51.77 51.455 49.9 50.083 50.248 50.425 50.6 50.755 50.928 51.085 51.295 51.568 51.935 52.193 52.428 52.198 52.173 52.155 52.288 52.453 53.66 54.255 54.86 55.388 53.473 52.733 54.225 56.208 56.965 56.693 57 57.618 59.423 60.738 62.273 62.47 63.773 64.448 64.995 65.258 65.848 66.449 67.085 67.726 68.339 68.927 69.454 69.956 70.429 70.911 71.439 71.943 72.473 72.995 73.548 74.082 74.629 75.147 75.697 76.248 76.759 77.28 77.821 78.339 78.851 79.355 79.843 80.321 80.775 81.271 81.786 82.06 82.489 83.606 84.219 84.535 84.867 84.958 85.262 85.597 85.928 86.284 86.636 87.011 87.388 87.768 88.174 88.555 88.921 89.287 89.602 89.972 90.329 90.652 90.959 91.297 91.622 91.945 92.272 92.643 92.986 93.331 93.675 93.989 94.29 94.607 94.906 95.198 95.477 95.76 96.035 96.31 96.583 96.841 97.111 97.373 97.642 97.892 98.146 98.398 98.684 98.962 99.243 99.531 99.837 100.161 100.503 100.886 101.3 101.74 102.225 102.719 103.246 103.773 104.289 104.784 105.303 105.819 106.329 106.823 107.312 107.797 108.261 108.74 109.208 109.656 110.117 110.557 111.002 111.43 111.88 112.3 112.701 113.086 113.492 113.887 114.266 114.644 115.02 115.392 115.767 116.138 116.492 116.816 117.135 117.42 117.715 118.02 118.287 118.54 118.81 119.077 119.407 119.705 120.012 120.317 120.625 120.967 121.292 121.622 121.915 122.235 122.532 122.8 123.06 123.352 123.65 123.957 124.222 124.495 124.762 125.007 125.23 125.437 125.657 125.852 126.027 126.23 126.402 126.58 126.712 126.875 127.01 127.162 127.342 127.495 127.625 127.737 127.88 128.04 128.175 128.32 128.59 128.602 128.742 128.897 129.07 129.382 129.707 129.947 130.272 130.887 130.542 130.655 131.165 130.877 130.977 130.112 130.135 130.107 130.112 130.155 130.222 130.272 130.292 130.355 130.42 130.465 130.517 130.54 130.6 130.625 130.645 130.692 130.717 130.742 130.79 130.805 130.792 130.867 130.905 130.867 130.867 130.855 130.84 130.855 130.852 130.81 130.77 130.742 130.707 130.652 130.65 130.58 130.517 130.477 130.472 130.417 130.385 130.33 130.242 130.185 130.107 130.01 129.927 129.852 129.815 129.72 129.625 129.57 129.55 129.44 129.355 129.267 129.165 129.08 129.027 128.93 128.877 128.797 128.705 128.627 128.572 128.527 128.47 128.465 128.577 129.977 127.705 127.3 128.652 129.057 127.9 127.847 127.83 127.78 127.75 127.657 127.587 127.495 127.417 127.36 127.287 127.2 127.15 127.087 127.047 126.992 126.932 126.877 126.835 126.747 126.722 126.69 126.617 126.59 126.545 126.485 126.442 126.4 126.352 126.305 126.26 126.217 126.155 126.097 126.035 125.952 125.905 125.835 125.775 125.695 125.625 125.545 125.487 125.425 125.372 125.285 125.247 125.187 125.135
38.752 38.582 38.609 38.719 38.83 38.98 39.09 39.172 39.278 39.395 39.473 39.562 39.655 39.75 39.856 39.933 40.05 40.155 40.235 40.288 40.35 40.46 40.535 40.553 40.685 41.145 41.793 42.215 41.998 41.71 41.623 41.678 41.78 41.845 41.948 42.038 42.128 42.218 42.383 42.565 42.748 43.038 43.553 43.825 43.893 43.923 43.93 44.045 44.168 44.238 44.285 44.25 44.17 44.23 47.243 48.388 48.048 46.66 45.41 45.435 45.61 45.925 46.508 46.195 46.38 46.92 47.978 47.225 46.773 46.89 47.003 47.048 47.058 47.92 47.033 47.163 50.783 52.5 49.92 50.035 50.188 50.338 50.505 50.693 50.778 51.018 51.25 51.71 52.438 52.348 51.723 52.615 52.518 52.003 52.14 52.58 53.993 55.025 55.983 55.03 52.273 53.428 55.605 57.455 58.215 58.555 58.925 60.17 60.883 61.873 62.248 63.158 64.603 64.668 65.21 65.65 66.233 66.826 67.453 68.033 68.59 69.107 69.596 70.067 70.57 71.099 71.615 72.121 72.661 73.204 73.748 74.308 74.837 75.38 75.92 76.458 76.975 77.535 78.044 78.556 79.032 79.512 80.005 80.532 80.984 81.574 81.928 82.325 83.342 83.919 84.493 85.664 84.759 85.102 85.427 85.787 86.129 86.501 86.872 87.23 87.586 87.962 88.329 88.7 89.118 89.414 89.713 90.095 90.429 90.757 91.077 91.386 91.72 92.051 92.323 92.7 93.013 93.34 93.692 94.017 94.304 94.609 94.905 95.176 95.455 95.743 96.021 96.28 96.572 96.823 97.086 97.356 97.637 97.89 98.146 98.417 98.678 98.956 99.247 99.544 99.84 100.153 100.517 100.885 101.278 101.716 102.193 102.704 103.228 103.769 104.289 104.794 105.306 105.816 106.326 106.828 107.32 107.785 108.268 108.743 109.206 109.67 110.127 110.579 111.036 111.481 111.922 112.339 112.754 113.152 113.539 113.944 114.323 114.709 115.088 115.488 115.855 116.22 116.571 116.892 117.19 117.492 117.805 118.07 118.35 118.61 118.877 119.185 119.472 119.77 120.08 120.382 120.695 121.032 121.372 121.702 122.035 122.327 122.615 122.885 123.155 123.46 123.762 124.042 124.3 124.6 124.875 125.12 125.337 125.54 125.745 125.922 126.12 126.277 126.46 126.637 126.792 126.952 127.102 127.265 127.467 127.895 127.992 128.33 129.04 129.13 129.117 129.015 129.445 129.905 130.202 130.51 130.597 130.187 129.97 129.877 129.647 130.245 129.825 129.805 129.882 129.98 130.035 130.077 130.177 130.132 130.195 130.215 130.277 130.3 130.33 130.372 130.405 130.44 130.447 130.472 130.495 130.522 130.535 130.58 130.592 130.627 130.65 130.705 130.75 130.762 130.745 130.725 130.742 130.755 130.757 130.752 130.752 130.727 130.675 130.63 130.58 130.587 130.562 130.502 130.405 130.362 130.335 130.302 130.275 130.197 130.097 130.035 129.97 129.9 129.775 129.69 129.622 129.567 129.502 129.455 129.327 129.212 129.12 129.017 128.947 128.915 128.817 128.737 128.622 128.597 128.532 128.455 128.39 128.385 128.315 128.295 128.297 129.415 128.557 127.142 127.89 129.197 128.31 127.69 127.647 127.63 127.585 127.522 127.447 127.37 127.272 127.192 127.122 127.072 127.02 127.005 126.912 126.85 126.812 126.765 126.73 126.67 126.607 126.597 126.535 126.477 126.435 126.392 126.375 126.317 126.272 126.215 126.17 126.107 126.047 126.002 125.94 125.867 125.802 125.75 125.66 125.59 125.517 125.455 125.4 125.317 125.26 125.197 125.147 125.067 125.002
38.305 38.458 38.594 38.7 38.788 38.891 38.993 39.055 39.151 39.246 39.335 39.439 39.547 39.636 39.731 39.811 39.888 39.98 40.018 40.035 40.115 40.448 40.96 41.365 41.978 42.105 41.69 41.363 41.303 41.383 41.488 41.565 41.65 41.72 41.82 41.918 42.03 42.12 42.245 42.418 42.623 42.913 43.433 43.68 43.828 43.78 43.79 43.94 44.06 44.133 44.13 44.133 44.113 44.208 46.598 48.258 47.98 47.02 46.3 47.325 46.148 45.828 45.95 46.105 46.303 46.42 48.678 46.658 46.708 46.81 46.923 46.955 47.008 47.83 47.095 47.095 51.155 53.295 50.078 49.97 50.115 50.258 50.383 50.565 50.725 50.915 51.3 51.928 52.328 51.833 52.348 54.71 53.665 52.16 51.845 52.213 54.553 54.695 55.145 52.893 52.523 54.325 56.405 58.1 58.855 59.605 60.283 61.023 61.843 63.073 62.515 63.205 64.178 64.94 65.468 66.015 66.561 67.165 67.731 68.266 68.782 69.233 69.718 70.224 70.744 71.265 71.795 72.337 72.867 73.427 73.985 74.522 75.06 75.6 76.136 76.665 77.193 77.719 78.203 78.721 79.28 79.845 80.284 81.009 81.497 81.88 82.352 83.168 83.796 84.154 84.934 84.621 84.974 85.274 85.64 85.976 86.347 86.706 87.062 87.422 87.776 88.131 88.504 88.858 89.274 89.566 89.916 90.209 90.555 90.867 91.179 91.483 91.805 92.098 92.404 92.703 93.065 93.375 93.705 94.01 94.295 94.592 94.892 95.162 95.437 95.715 95.987 96.262 96.555 96.817 97.08 97.337 97.61 97.875 98.13 98.407 98.675 98.965 99.25 99.542 99.855 100.18 100.542 100.895 101.282 101.732 102.197 102.69 103.187 103.727 104.285 104.785 105.325 105.815 106.335 106.837 107.325 107.8 108.28 108.75 109.217 109.67 110.165 110.632 111.077 111.54 111.96 112.389 112.792 113.195 113.595 113.995 114.383 114.781 115.169 115.54 115.912 116.277 116.603 116.955 117.249 117.56 117.85 118.152 118.402 118.682 118.957 119.25 119.54 119.827 120.127 120.45 120.76 121.095 121.435 121.762 122.062 122.392 122.712 122.992 123.252 123.547 123.837 124.115 124.395 124.657 124.95 125.202 125.417 125.61 125.8 126.002 126.185 126.36 126.517 126.667 127.017 127.517 127.81 128.46 129.285 129.392 129.825 129.767 130.08 129.75 129.717 129.747 129.885 130.232 129.99 130.32 129.79 129.47 129.462 129.492 129.517 129.595 129.72 129.802 129.877 129.942 130.002 130.095 130.125 130.122 130.16 130.197 130.215 130.26 130.287 130.28 130.305 130.345 130.382 130.387 130.39 130.41 130.43 130.49 130.487 130.54 130.59 130.605 130.662 130.642 130.642 130.65 130.665 130.65 130.662 130.695 130.65 130.572 130.587 130.525 130.512 130.482 130.395 130.35 130.307 130.295 130.257 130.202 130.127 130.022 129.932 129.892 129.825 129.692 129.615 129.585 129.502 129.395 129.317 129.207 129.145 129.012 128.865 128.785 128.727 128.637 128.58 128.507 128.45 128.425 128.347 128.307 128.282 128.215 128.15 128.127 128.13 128.675 129.057 127.197 127.102 128.717 128.769 127.544 127.479 127.464 127.417 127.387 127.294 127.212 127.149 127.084 126.999 126.952 126.887 126.834 126.802 126.734 126.714 126.649 126.614 126.569 126.532 126.484 126.452 126.409 126.354 126.309 126.277 126.232 126.182 126.134 126.087 126.027 125.984 125.899 125.857 125.782 125.694 125.637 125.582 125.499 125.422 125.369 125.287 125.237 125.162 125.077 125.022 124.962 124.907
38.32 38.432 38.542 38.638 38.708 38.783 38.843 38.934 39.027 39.12 39.22 39.306 39.432 39.509 39.533 39.598 39.69 39.69 40.068 40.628 40.95 41.62 41.643 41.768 43.598 41.538 41.003 41.06 41.175 41.278 41.358 41.433 41.495 41.608 41.693 41.803 41.918 42.033 42.153 42.333 42.578 42.835 43.128 43.433 43.608 43.65 43.67 43.8 43.953 44.038 44.065 44.053 44.055 44.173 45.25 48.32 48.04 47.475 45.613 47.59 46.668 45.73 45.85 46.018 46.223 46.655 46.88 46.825 46.685 46.788 47.18 47.848 48.148 48.085 47.153 47.108 50.663 53.645 49.828 49.92 50.02 50.093 50.233 50.41 50.605 51.258 52.55 52.95 51.97 51.623 55.49 58.013 56.88 53.308 51.355 51.39 52.148 54.543 53.755 52.118 53.11 55.098 57.148 58.325 59.053 59.763 60.468 61.13 61.423 62.038 64.473 63.9 64.675 65.303 65.778 66.305 66.839 67.412 67.931 68.441 68.882 69.368 69.863 70.382 70.919 71.447 71.981 72.534 73.08 73.638 74.18 74.715 75.252 75.795 76.302 76.837 77.345 77.935 78.557 79.197 79.835 80.76 81.185 81.505 81.712 82.187 82.94 83.605 83.96 84.285 84.47 84.79 85.112 85.49 85.837 86.187 86.555 86.892 87.25 87.602 87.965 88.287 88.652 89.015 89.397 89.735 90.002 90.265 90.637 90.945 91.267 91.565 91.86 92.172 92.475 92.732 93.057 93.365 93.672 93.997 94.28 94.582 94.867 95.162 95.43 95.7 95.977 96.245 96.517 96.79 97.05 97.325 97.592 97.87 98.125 98.405 98.69 98.96 99.255 99.575 99.882 100.187 100.54 100.917 101.297 101.735 102.195 102.682 103.197 103.735 104.297 104.815 105.33 105.852 106.357 106.857 107.34 107.825 108.29 108.772 109.242 109.705 110.192 110.657 111.12 111.567 112.005 112.441 112.84 113.241 113.631 114.031 114.455 114.827 115.228 115.58 115.964 116.304 116.648 116.994 117.322 117.619 117.892 118.195 118.467 118.752 119.037 119.307 119.6 119.897 120.177 120.502 120.82 121.137 121.47 121.805 122.132 122.467 122.812 123.082 123.35 123.645 123.922 124.195 124.48 124.76 125.025 125.262 125.475 125.665 125.87 126.072 126.26 126.572 127.255 127.815 127.977 128.325 128.735 128.842 128.447 129.152 129.237 129.3 128.827 128.942 128.365 128.132 128.342 128.915 128.79 129.135 130.012 129.48 129.437 129.49 129.53 129.615 129.762 129.85 129.92 129.95 129.955 130.017 130.032 130.017 130.06 130.107 130.137 130.172 130.22 130.185 130.177 130.242 130.252 130.287 130.307 130.34 130.34 130.39 130.405 130.412 130.437 130.475 130.545 130.577 130.547 130.595 130.555 130.595 130.61 130.612 130.552 130.52 130.485 130.415 130.38 130.302 130.27 130.2 130.17 130.095 130.045 129.985 129.91 129.797 129.767 129.682 129.605 129.475 129.455 129.4 129.242 129.127 129.045 128.962 128.862 128.795 128.68 128.562 128.497 128.447 128.38 128.327 128.307 128.167 128.222 128.152 128.11 128.07 128.007 127.957 127.94 127.897 128.61 127.59 126.817 127.98 128.847 127.489 127.327 127.309 127.269 127.232 127.154 127.089 127.017 126.934 126.864 126.812 126.779 126.714 126.674 126.632 126.582 126.522 126.507 126.467 126.424 126.377 126.354 126.314 126.247 126.227 126.179 126.137 126.102 126.042 126.002 125.949 125.887 125.814 125.754 125.687 125.614 125.552 125.484 125.399 125.327 125.267 125.192 125.119 125.044 124.972 124.894 124.842 124.782
38.285 38.4 38.481 38.541 38.593 38.642 38.708 38.797 38.894 38.989 39.044 39.118 39.198 39.297 39.304 39.346 40.108 40.503 40.873 40.98 41.41 41.425 40.875 40.72 41.688 41.08 40.823 40.933 41.028 41.138 41.228 41.303 41.378 41.475 41.585 41.713 41.828 41.96 42.08 42.275 42.565 42.86 43.2 43.205 43.335 43.53 43.68 43.81 43.9 43.958 44 44 43.99 44.103 44.805 48.303 48.478 47.938 45.665 47.505 47.038 45.605 45.825 46.423 47.853 48.415 46.805 46.42 46.435 46.475 46.53 46.523 46.81 47.028 47.85 47.07 49.49 53.358 50.013 49.865 49.88 50 50.133 50.39 51.165 52.415 52.05 51.848 51.66 55.68 57.995 58.72 57.668 53.873 51.268 51.27 51.28 52.22 51.668 52.858 54.568 56.258 57.663 58.45 59.298 60.225 60.485 60.818 61.953 62.458 63.303 64.413 65.533 65.65 66.963 67.133 67.077 67.578 68.072 68.524 68.993 69.497 70.004 70.535 71.094 71.649 72.187 72.736 73.29 73.847 74.403 74.932 75.465 75.982 76.47 76.967 77.635 78.605 80.727 80.137 80.555 81.027 81.32 81.532 81.82 82.362 83.617 83.825 84.345 84.32 84.587 84.932 85.305 85.685 86.04 86.377 86.732 87.07 87.422 87.762 88.13 88.46 88.8 89.157 89.505 89.877 90.1 90.52 90.717 91.057 91.35 91.625 91.897 92.2 92.475 92.765 93.04 93.375 93.675 93.99 94.28 94.555 94.842 95.135 95.395 95.672 95.945 96.212 96.487 96.76 97.015 97.28 97.57 97.837 98.127 98.375 98.667 98.945 99.247 99.555 99.867 100.197 100.55 100.91 101.307 101.747 102.227 102.695 103.2 103.737 104.292 104.83 105.345 105.85 106.357 106.85 107.322 107.785 108.267 108.75 109.217 109.705 110.217 110.712 111.17 111.627 112.06 112.491 112.881 113.263 113.669 114.08 114.493 114.889 115.274 115.618 115.985 116.331 116.664 116.993 117.325 117.646 117.925 118.23 118.512 118.792 119.07 119.335 119.625 119.917 120.232 120.542 120.865 121.197 121.497 121.87 122.2 122.54 122.857 123.17 123.437 123.73 123.987 124.26 124.532 124.83 125.052 125.257 125.48 125.767 126.122 126.92 127.46 127.44 126.865 127.31 127.16 127.195 127.375 127.32 127.38 127.457 127.485 127.72 127.81 127.902 128.092 128.29 128.417 128.567 128.797 129.077 130.317 129.512 129.437 129.5 129.562 129.65 129.742 129.802 129.857 129.867 129.88 129.892 129.935 129.952 130.017 130.06 130.075 130.11 130.12 130.097 130.125 130.115 130.11 130.14 130.165 130.207 130.222 130.267 130.275 130.307 130.35 130.385 130.447 130.51 130.495 130.487 130.467 130.475 130.482 130.45 130.42 130.33 130.295 130.28 130.265 130.157 130.06 130.005 129.972 129.907 129.88 129.812 129.675 129.602 129.605 129.52 129.402 129.365 129.27 129.11 128.987 128.905 128.802 128.752 128.635 128.545 128.485 128.415 128.34 128.305 128.25 128.22 128.16 128.09 128.052 128.02 127.957 127.9 127.855 127.807 127.805 127.772 128.127 128.452 126.627 126.99 128.484 128.102 127.172 127.124 127.119 127.064 127.019 126.954 126.877 126.797 126.752 126.689 126.627 126.574 126.529 126.489 126.454 126.439 126.372 126.339 126.297 126.274 126.232 126.194 126.167 126.134 126.097 126.067 125.989 125.954 125.882 125.847 125.787 125.714 125.667 125.582 125.517 125.457 125.369 125.292 125.227 125.159 125.087 125.007 124.927 124.872 124.797 124.722 124.662
38.232 38.315 38.379 38.419 38.461 38.537 38.597 38.631 38.684 38.737 38.805 38.904 38.997 39.39 39.977 40.555 40.758 41.005 40.6 40.39 40.39 40.365 40.358 40.405 41.173 41.153 40.723 40.828 40.923 40.995 41.088 41.153 41.275 41.383 41.498 41.65 41.785 41.88 42.035 42.24 42.565 42.98 43.133 43.103 43.198 43.408 43.69 43.85 43.888 43.89 43.93 43.915 43.943 44.025 44.433 47.75 49.133 48.288 46.068 46.903 47.145 45.635 45.94 47.09 48.883 48.743 47.065 45.9 46.023 46.198 46.235 46.225 46.37 46.67 47.753 47.12 47.44 51.15 49.73 49.683 49.778 49.878 50.41 54.16 52.563 52.055 51.343 55.878 55.893 57.81 59.335 58.77 56.573 51.653 51.183 51.163 51.203 51.255 52.425 54.035 55.683 57.028 57.873 58.69 59.383 60.848 60.818 61.67 62.528 63.913 63.9 64.188 65.293 65.935 67.89 67.57 67.225 67.707 68.189 68.644 69.137 69.641 70.181 70.709 71.29 71.829 72.39 72.956 73.511 74.063 74.599 75.13 75.607 76.19 76.695 77.882 78.657 79.39 79.985 80.35 80.672 80.995 81.29 81.555 81.962 82.565 83.195 83.98 84.345 84.507 84.802 85.077 85.455 85.855 86.195 86.54 86.9 87.25 87.592 87.935 88.27 88.617 88.945 89.297 89.622 89.992 90.285 90.532 90.755 91.085 91.377 91.675 91.95 92.227 92.515 92.807 93.057 93.35 93.662 93.955 94.26 94.535 94.8 95.087 95.362 95.637 95.915 96.182 96.457 96.73 96.987 97.242 97.515 97.81 98.09 98.362 98.635 98.947 99.24 99.562 99.892 100.225 100.602 100.952 101.36 101.797 102.247 102.727 103.225 103.747 104.28 104.83 105.345 105.845 106.33 106.827 107.302 107.785 108.252 108.73 109.247 109.772 110.272 110.75 111.222 111.67 112.092 112.506 112.911 113.302 113.716 114.117 114.513 114.907 115.286 115.642 115.986 116.324 116.643 116.982 117.322 117.632 117.922 118.215 118.52 118.815 119.092 119.367 119.65 119.95 120.232 120.567 120.88 121.19 121.53 121.872 122.227 122.567 122.88 123.162 123.47 123.787 124.052 124.315 124.595 124.86 125.072 125.3 125.67 126.707 127.812 128.047 127.582 126.575 126.412 126.535 126.727 126.957 127.127 127.322 127.49 127.632 127.777 127.947 128.157 128.322 128.467 128.625 128.73 128.89 129.012 129.115 130.24 129.797 129.427 129.492 129.577 129.597 129.675 129.71 129.757 129.775 129.785 129.817 129.865 129.897 129.917 129.932 129.935 129.94 129.947 129.967 130 130.027 130.05 130.032 130.09 130.142 130.15 130.18 130.195 130.2 130.275 130.287 130.31 130.337 130.377 130.395 130.342 130.33 130.317 130.317 130.26 130.185 130.147 130.13 130.002 129.922 129.932 129.87 129.78 129.685 129.602 129.512 129.497 129.48 129.385 129.275 129.157 129.072 128.955 128.882 128.78 128.675 128.545 128.457 128.432 128.377 128.277 128.255 128.235 128.165 128.132 128.055 128.002 128.025 127.922 127.882 127.83 127.77 127.715 127.685 127.622 127.6 127.632 128.652 127.027 126.38 127.797 128.392 127.112 126.964 126.942 126.902 126.862 126.812 126.737 126.684 126.612 126.557 126.502 126.457 126.409 126.364 126.349 126.307 126.279 126.217 126.199 126.167 126.127 126.097 126.062 126.034 125.987 125.942 125.889 125.844 125.784 125.739 125.669 125.609 125.537 125.469 125.414 125.334 125.252 125.187 125.114 125.044 124.972 124.882 124.827 124.752 124.682 124.627 124.562
38.135 38.193 38.223 38.225 38.298 38.37 38.388 38.411 38.474 38.535 38.724 39.13 39.931 40.226 40.524 40.48 40.108 40.113 40.043 40.123 40.168 40.223 40.27 40.255 40.805 41.32 40.688 40.67 40.788 40.88 40.968 41.043 41.165 41.278 41.405 41.543 41.67 41.81 41.975 42.175 42.425 42.713 42.858 42.963 43.04 43.305 43.67 43.853 43.863 43.885 43.893 43.86 43.883 43.968 44.083 46.958 49.055 48.518 46.505 46.483 46.865 46.1 46.165 46.645 46.108 45.665 45.703 45.865 45.885 46.208 47.488 48.75 47.39 46.66 47.578 47.068 47.185 50.395 49.695 49.538 49.675 50.358 54.493 56.018 54.035 50.968 50.208 54.01 57.28 58.963 59.385 58.025 53.563 51.105 51.09 51.078 51.105 51.66 53.323 54.913 56.378 57.3 58.025 58.958 59.695 60.908 64.048 62.525 62.818 63.923 63.918 64.215 64.985 66.43 66.943 66.955 67.378 67.825 68.307 68.79 69.283 69.812 70.346 70.9 71.459 72.025 72.581 73.151 73.692 74.231 74.752 75.235 75.895 76.6 77.447 78.547 79.115 79.49 79.875 80.245 80.597 80.957 81.3 81.61 81.977 82.525 83.285 84.027 84.427 84.675 84.99 85.332 85.617 85.995 86.347 86.705 87.047 87.415 87.73 88.08 88.395 88.75 89.092 89.41 89.702 90.05 90.307 90.582 90.975 91.137 91.43 91.707 91.987 92.247 92.512 92.805 93.085 93.315 93.655 93.94 94.232 94.5 94.787 95.067 95.342 95.605 95.882 96.135 96.407 96.655 96.94 97.202 97.472 97.765 98.042 98.33 98.617 98.935 99.257 99.572 99.905 100.245 100.617 100.98 101.402 101.835 102.267 102.765 103.235 103.752 104.267 104.81 105.332 105.84 106.332 106.847 107.302 107.767 108.252 108.735 109.275 109.785 110.292 110.772 111.25 111.68 112.1 112.518 112.916 113.302 113.706 114.117 114.529 114.918 115.29 115.629 115.983 116.316 116.623 116.959 117.275 117.6 117.9 118.185 118.505 118.805 119.082 119.345 119.642 119.942 120.235 120.56 120.87 121.172 121.535 121.87 122.217 122.562 122.885 123.22 123.502 123.78 124.067 124.352 124.61 124.827 125.067 125.367 126.64 127.535 127.7 126.815 126.375 126.53 126.662 126.795 126.942 127.13 127.312 127.5 127.71 127.89 128.1 128.267 128.422 128.567 128.687 128.75 128.827 128.9 128.975 129.035 129.432 129.845 129.427 129.437 129.487 129.527 129.592 129.64 129.697 129.707 129.71 129.717 129.757 129.772 129.792 129.817 129.835 129.802 129.827 129.832 129.845 129.887 129.89 129.917 129.96 129.972 130.03 130.032 130.055 130.07 130.11 130.245 130.46 130.367 130.207 130.18 130.147 130.17 130.177 130.255 130.09 130.03 129.977 129.887 129.842 129.822 129.742 129.635 129.567 129.545 129.457 129.41 129.34 129.222 129.075 128.992 128.907 128.805 128.69 128.62 128.595 128.482 128.377 128.332 128.267 128.18 128.147 128.075 128.03 127.992 127.955 127.94 127.915 127.94 127.835 127.795 127.74 127.657 127.605 127.547 127.505 127.452 127.402 128.202 127.755 126.17 126.829 128.124 127.579 126.814 126.769 126.744 126.712 126.672 126.594 126.552 126.499 126.437 126.372 126.319 126.277 126.219 126.219 126.179 126.142 126.127 126.087 126.059 126.012 125.982 125.944 125.899 125.854 125.824 125.779 125.724 125.677 125.619 125.562 125.497 125.429 125.364 125.294 125.207 125.137 125.064 125.002 124.914 124.849 124.777 124.697 124.619 124.579 124.487 124.439
