ncols 473
nrows 32
xllcorner    247016
yllcorner    136282
cellsize     2
NODATA_value -9999
6.829 6.824 6.869 6.846 6.856 6.812 6.838 6.791 6.794 6.843 6.788 6.783 6.769 6.761 6.751 6.721 6.705 6.689 6.67 6.629 6.611 6.579 6.571 6.574 6.569 6.544 6.579 6.529 6.546 6.521 6.519 6.556 6.499 6.631 6.484 6.449 6.471 6.459 6.471 6.459 6.491 6.439 6.439 6.411 6.409 6.396 6.376 6.374 6.396 6.391 6.349 6.349 6.349 6.349 6.339 6.324 6.266 6.236 6.256 6.264 6.219 6.191 6.166 6.146 6.109 6.089 6.051 6.036 6.014 5.991 6.011 6.001 5.989 5.969 5.994 5.964 5.944 5.879 5.836 5.786 5.776 5.824 5.627 5.05 5.273 6.099 6.382 6.481 6.503 6.503 6.487 6.503 6.465 6.481 6.479 6.495 6.501 6.457 6.387 6.257 6.131 6.08 5.803 5.186 5.504 5.903 6.109 6.327 6.534 6.711 6.831 6.876 6.924 6.879 6.866 6.881 6.861 6.851 6.839 6.846 6.826 6.701 6.714 7.004 6.811 6.384 6.276 6.341 6.406 5.729 5.999 6.314 6.226 6.211 6.224 6.234 6.269 6.274 6.234 6.286 6.334 6.334 6.369 6.401 6.426 6.449 6.446 6.524 6.521 6.539 6.576 6.604 6.644 6.639 6.654 6.651 6.671 6.696 6.744 6.749 6.739 6.746 6.769 6.801 6.789 6.841 6.831 6.874 6.901 6.899 6.911 6.941 6.954 6.954 6.974 6.984 6.991 7.046 7.051 7.071 7.094 7.096 7.096 7.106 7.099 7.091 7.091 7.106 7.124 7.081 7.129 7.356 9.454 11.856 10.056 9.816 9.786 9.886 9.879 9.931 9.986 10.056 10.084 10.139 10.179 10.204 10.199 10.184 10.199 10.219 10.206 10.229 10.259 10.211 10.199 10.201 10.139 10.001 9.971 12.606 7.634 7.539 7.516 7.566 7.601 7.629 7.634 7.689 7.699 7.684 7.711 7.716 7.739 7.746 7.739 7.769 7.784 7.799 7.844 7.866 7.861 7.916 7.874 7.891 7.914 7.916 7.946 7.926 7.941 7.946 7.939 7.951 7.944 7.984 7.966 8.011 8.014 7.976 8.006 8.011 8.036 8.034 8.096 8.056 8.076 8.111 8.134 8.161 8.174 8.191 8.239 8.246 8.251 8.266 8.251 8.239 8.259 8.264 8.269 8.254 8.214 8.236 8.279 8.279 8.344 8.331 8.324 8.376 8.389 8.401 8.384 8.414 8.429 8.466 8.464 8.481 8.529 8.559 8.609 8.596 8.616 8.634 8.679 8.689 8.729 8.749 8.739 8.789 8.804 8.891 8.911 8.956 9.034 9.024 9.024 9.069 9.099 9.126 9.166 9.194 9.259 9.296 9.311 9.311 9.364 9.369 9.356 9.341 9.339 9.369 9.336 9.376 9.376 9.381 9.399 9.456 9.449 9.489 9.499 9.499 9.514 9.541 9.569 9.599 9.629 9.629 9.666 9.693 9.733 9.746 9.744 9.758 9.805 9.817 9.833 9.866 9.87 9.92 9.933 9.983 10.008 10.044 10.061 10.049 10.106 10.104 10.174 10.179 10.219 10.234 10.261 10.284 10.281 10.324 10.334 10.376 10.371 10.414 10.429 10.421 10.471 10.439 10.516 10.521 10.534 10.561 10.561 10.609 10.621 10.641 10.679 10.706 10.714 10.739 10.791 10.819 10.839 10.824 10.824 10.839 10.841 10.861 10.964 11.021 11.096 11.186 11.351 11.284 11.329 11.349 11.369 11.331 11.346 11.344 11.311 11.411 11.356 11.369 11.434 11.421 11.466 11.449 11.436 11.464 11.486 11.496 11.476 11.514 11.536 11.596 11.659 11.641 11.671 11.659 11.694 11.724 11.751 11.756 11.801 11.814 11.839 11.871 11.894 11.901 11.951 11.916 11.936 12.041 12.054 12.044 12.064 12.144 12.141 12.189 12.241 12.236 12.294 12.306 12.366 12.399 12.429 12.431 12.446 12.471 12.534 12.486 12.551 12.516 12.524 12.524 12.566 12.586 12.551
6.823 6.789 6.846 6.859 6.881 6.866 6.857 6.837 6.801 6.8 6.809 6.806 6.768 6.773 6.737 6.703 6.666 6.673 6.667 6.606 6.586 6.584 6.569 6.554 6.574 6.579 6.554 6.554 6.544 6.534 6.536 6.504 6.504 6.514 6.496 6.496 6.504 6.461 6.476 6.461 6.486 6.466 6.466 6.441 6.424 6.434 6.396 6.406 6.394 6.386 6.356 6.381 6.351 6.374 6.324 6.321 6.281 6.264 6.291 6.274 6.221 6.216 6.186 6.149 6.114 6.104 6.074 6.054 6.036 6.019 6.014 6.001 5.971 5.956 5.939 5.921 5.919 5.906 5.851 5.821 5.739 5.749 5.793 5.484 4.923 5.472 6.223 6.417 6.489 6.469 6.49 6.496 6.48 6.464 6.453 6.459 6.509 6.481 6.395 6.312 6.19 6.132 5.883 5.113 5.481 5.899 6.111 6.32 6.52 6.685 6.808 6.834 6.879 6.854 6.836 6.814 6.819 6.819 6.784 6.786 6.721 6.664 7.416 7.454 6.794 6.261 6.281 6.404 6.281 5.684 6.101 6.229 6.229 6.221 6.256 6.234 6.249 6.229 6.251 6.299 6.339 6.351 6.389 6.399 6.429 6.436 6.464 6.474 6.496 6.536 6.559 6.559 6.591 6.636 6.686 6.699 6.709 6.749 6.724 6.734 6.769 6.794 6.809 6.836 6.846 6.861 6.861 6.899 6.911 6.924 6.931 6.936 6.924 6.931 6.979 6.974 7.016 7.039 7.061 7.056 7.076 7.111 7.114 7.084 7.094 7.094 7.091 7.094 7.109 7.086 7.106 7.671 8.784 9.519 10.294 9.646 9.684 9.831 9.874 9.911 9.934 10.021 10.051 10.116 10.159 10.189 10.206 10.224 10.244 10.234 10.249 10.294 10.274 10.249 10.231 10.174 10.104 9.961 10.701 10.541 7.456 7.514 7.509 7.556 7.574 7.611 7.641 7.671 7.676 7.676 7.714 7.691 7.701 7.729 7.734 7.749 7.749 7.794 7.814 7.871 7.851 7.871 7.866 7.876 7.924 7.911 7.906 7.899 7.909 7.929 7.939 7.921 7.919 7.966 7.981 7.949 7.996 7.976 7.986 7.979 7.981 8.016 8.061 8.044 8.039 8.069 8.124 8.131 8.154 8.184 8.196 8.211 8.209 8.231 8.244 8.251 8.246 8.259 8.241 8.206 8.231 8.244 8.259 8.251 8.299 8.334 8.316 8.354 8.356 8.381 8.394 8.416 8.386 8.461 8.449 8.481 8.499 8.539 8.566 8.586 8.621 8.626 8.679 8.661 8.709 8.704 8.701 8.791 8.811 8.864 8.881 8.959 8.996 8.991 9.041 9.044 9.084 9.109 9.146 9.211 9.256 9.299 9.301 9.311 9.339 9.331 9.346 9.339 9.339 9.311 9.316 9.369 9.376 9.369 9.389 9.431 9.431 9.481 9.481 9.489 9.524 9.566 9.559 9.579 9.621 9.641 9.664 9.686 9.715 9.741 9.756 9.752 9.796 9.8 9.823 9.836 9.859 9.904 9.934 9.962 9.985 10.002 10.036 10.051 10.094 10.076 10.164 10.154 10.186 10.219 10.241 10.269 10.271 10.309 10.321 10.354 10.346 10.379 10.424 10.386 10.454 10.439 10.501 10.486 10.521 10.551 10.551 10.579 10.624 10.651 10.661 10.681 10.694 10.726 10.771 10.774 10.829 10.794 10.806 10.816 10.849 10.839 10.921 11.016 11.084 11.141 11.291 11.311 11.311 11.336 11.344 11.339 11.341 11.329 11.301 11.384 11.436 11.374 11.414 11.394 11.431 11.449 11.439 11.469 11.476 11.451 11.461 11.501 11.524 11.611 11.644 11.604 11.644 11.659 11.649 11.674 11.751 11.739 11.784 11.794 11.851 11.841 11.889 11.866 11.921 11.921 11.929 11.964 12.024 12.074 12.049 12.104 12.139 12.179 12.199 12.224 12.266 12.299 12.349 12.361 12.419 12.431 12.434 12.481 12.501 12.479 12.506 12.466 12.461 12.511 12.531 12.549 12.516
6.84 6.869 6.869 6.86 6.848 6.837 6.845 6.84 6.802 6.771 6.752 6.749 6.75 6.761 6.731 6.687 6.694 6.661 6.652 6.651 6.571 6.584 6.589 6.559 6.566 6.576 6.554 6.561 6.539 6.546 6.569 6.539 6.479 6.446 6.494 6.529 6.496 6.469 6.441 6.466 6.476 6.441 6.416 6.421 6.419 6.391 6.401 6.381 6.419 6.401 6.386 6.389 6.371 6.331 6.336 6.306 6.289 6.261 6.286 6.234 6.224 6.206 6.179 6.171 6.124 6.104 6.114 6.089 6.059 6.039 6.031 5.991 5.989 5.959 5.934 5.959 5.956 5.931 5.911 5.854 5.776 5.742 5.757 5.761 5.195 4.939 5.812 6.303 6.462 6.503 6.466 6.471 6.496 6.449 6.423 6.451 6.47 6.495 6.466 6.367 6.187 6.105 6.017 5.449 5.194 5.868 6.15 6.352 6.557 6.695 6.781 6.797 6.794 6.836 6.829 6.806 6.789 6.771 6.744 6.731 6.669 6.756 7.906 7.584 6.566 6.246 6.281 6.454 6.056 5.676 6.196 6.221 6.209 6.226 6.246 6.234 6.254 6.234 6.244 6.289 6.319 6.351 6.361 6.384 6.406 6.431 6.461 6.464 6.524 6.549 6.554 6.559 6.601 6.639 6.636 6.651 6.684 6.739 6.751 6.769 6.781 6.789 6.809 6.854 6.886 6.881 6.886 6.916 6.931 6.919 6.936 6.924 6.929 6.941 6.981 7.004 7.011 7.011 7.049 7.026 7.064 7.096 7.094 7.061 7.099 7.079 7.064 7.081 7.079 7.094 7.136 8.156 9.206 10.934 10.619 9.701 9.689 9.794 9.856 9.866 9.879 9.979 10.036 10.101 10.174 10.191 10.166 10.219 10.241 10.241 10.274 10.289 10.281 10.239 10.239 10.169 10.111 9.894 9.139 8.424 7.509 7.506 7.534 7.531 7.571 7.631 7.639 7.634 7.676 7.654 7.681 7.669 7.699 7.739 7.724 7.741 7.719 7.766 7.794 7.836 7.846 7.841 7.906 7.849 7.891 7.901 7.869 7.904 7.904 7.904 7.896 7.899 7.909 7.936 7.931 7.934 7.954 7.914 7.971 7.966 7.979 7.981 8.009 8.009 8.029 8.054 8.031 8.104 8.149 8.151 8.154 8.206 8.214 8.226 8.224 8.221 8.206 8.229 8.221 8.194 8.211 8.224 8.244 8.269 8.291 8.324 8.316 8.341 8.339 8.356 8.356 8.389 8.419 8.419 8.424 8.454 8.524 8.526 8.589 8.571 8.636 8.644 8.669 8.641 8.691 8.704 8.731 8.771 8.791 8.864 8.901 8.951 8.964 8.984 9.016 9.051 9.084 9.091 9.151 9.191 9.274 9.299 9.304 9.301 9.354 9.364 9.349 9.339 9.336 9.306 9.336 9.349 9.356 9.351 9.389 9.439 9.441 9.469 9.504 9.519 9.524 9.564 9.554 9.584 9.619 9.626 9.664 9.69 9.668 9.703 9.732 9.769 9.801 9.8 9.8 9.837 9.868 9.91 9.933 9.948 9.965 9.969 10.011 10.031 10.064 10.059 10.146 10.139 10.134 10.219 10.221 10.251 10.261 10.291 10.319 10.326 10.346 10.359 10.396 10.379 10.421 10.434 10.476 10.484 10.506 10.544 10.529 10.576 10.604 10.634 10.631 10.644 10.696 10.706 10.754 10.799 10.814 10.809 10.769 10.819 10.834 10.849 10.904 10.981 11.046 11.114 11.229 11.376 11.304 11.336 11.321 11.351 11.326 11.346 11.316 11.331 11.456 11.354 11.364 11.416 11.434 11.409 11.436 11.436 11.464 11.459 11.476 11.481 11.504 11.604 11.626 11.611 11.651 11.644 11.631 11.656 11.731 11.706 11.756 11.769 11.806 11.814 11.881 11.886 11.914 11.921 11.919 11.924 12.031 12.064 12.036 12.109 12.124 12.136 12.186 12.194 12.256 12.294 12.281 12.349 12.401 12.401 12.429 12.446 12.491 12.446 12.466 12.451 12.474 12.511 12.509 12.524 12.481
6.89 6.889 6.893 6.895 6.855 6.862 6.836 6.861 6.823 6.782 6.768 6.733 6.768 6.719 6.709 6.689 6.696 6.66 6.634 6.616 6.566 6.574 6.579 6.574 6.576 6.564 6.561 6.541 6.536 6.521 6.489 6.496 6.504 6.496 6.536 6.524 6.526 6.481 6.499 6.486 6.489 6.449 6.409 6.404 6.406 6.401 6.376 6.381 6.386 6.376 6.336 6.394 6.369 6.369 6.341 6.339 6.286 6.289 6.249 6.234 6.249 6.211 6.171 6.139 6.136 6.119 6.099 6.079 6.074 6.064 6.051 6.001 6.004 5.939 5.926 5.936 5.944 5.934 5.926 5.869 5.804 5.771 5.729 5.735 5.659 5.043 5.185 5.995 6.37 6.478 6.477 6.456 6.474 6.458 6.439 6.443 6.446 6.471 6.516 6.532 6.281 6.133 6.176 5.376 5.159 5.807 6.156 6.375 6.554 6.685 6.738 6.768 6.789 6.8 6.799 6.779 6.766 6.726 6.711 6.644 6.569 6.691 7.531 7.139 6.401 6.261 6.309 6.464 5.719 5.986 6.314 6.209 6.216 6.216 6.224 6.249 6.241 6.239 6.279 6.314 6.301 6.351 6.354 6.404 6.431 6.441 6.456 6.466 6.499 6.544 6.574 6.546 6.594 6.594 6.634 6.626 6.671 6.699 6.711 6.734 6.764 6.819 6.829 6.849 6.899 6.921 6.936 6.949 6.949 6.974 6.956 6.941 6.946 6.981 7.009 7.006 7.011 7.004 7.031 7.021 7.034 7.054 7.084 7.059 7.074 7.079 7.081 7.094 7.089 7.109 7.189 8.851 9.736 10.544 9.886 9.604 9.684 9.786 9.819 9.819 9.869 9.974 9.994 10.079 10.144 10.136 10.154 10.226 10.214 10.201 10.246 10.284 10.251 10.251 10.256 10.189 10.074 9.886 9.461 8.071 7.516 7.501 7.519 7.531 7.589 7.599 7.626 7.614 7.656 7.639 7.704 7.674 7.699 7.686 7.704 7.714 7.736 7.746 7.764 7.816 7.846 7.811 7.836 7.854 7.859 7.879 7.856 7.884 7.886 7.914 7.861 7.841 7.891 7.886 7.896 7.889 7.931 7.906 7.929 7.936 7.971 7.991 7.999 7.989 8.034 8.046 8.056 8.086 8.094 8.141 8.164 8.139 8.186 8.206 8.189 8.206 8.216 8.196 8.184 8.181 8.199 8.214 8.229 8.251 8.264 8.281 8.284 8.309 8.334 8.329 8.376 8.384 8.401 8.399 8.449 8.434 8.494 8.516 8.549 8.596 8.589 8.641 8.679 8.681 8.699 8.711 8.699 8.754 8.841 8.851 8.891 8.931 8.966 9.004 8.994 9.071 9.044 9.116 9.149 9.216 9.256 9.251 9.279 9.331 9.361 9.339 9.346 9.311 9.299 9.271 9.334 9.329 9.351 9.364 9.386 9.411 9.436 9.454 9.481 9.496 9.516 9.526 9.559 9.549 9.611 9.604 9.659 9.654 9.683 9.698 9.699 9.753 9.794 9.813 9.787 9.828 9.873 9.878 9.916 9.933 9.967 9.974 10.004 10.024 10.044 10.089 10.121 10.121 10.121 10.199 10.216 10.251 10.251 10.274 10.306 10.324 10.354 10.334 10.384 10.374 10.416 10.429 10.439 10.481 10.484 10.516 10.516 10.566 10.586 10.619 10.644 10.639 10.681 10.701 10.756 10.784 10.779 10.789 10.754 10.799 10.809 10.809 10.854 10.956 10.994 11.066 11.184 11.424 11.209 11.256 11.344 11.321 11.304 11.341 11.351 11.334 11.454 11.336 11.351 11.429 11.416 11.436 11.419 11.449 11.456 11.476 11.459 11.489 11.511 11.599 11.614 11.589 11.621 11.654 11.666 11.681 11.711 11.704 11.741 11.749 11.806 11.799 11.864 11.864 11.884 11.911 11.924 11.971 12.004 12.019 12.039 12.066 12.101 12.131 12.189 12.199 12.241 12.234 12.239 12.344 12.361 12.409 12.424 12.389 12.426 12.456 12.454 12.509 12.516 12.491 12.489 12.504 12.491
6.924 6.929 6.919 6.899 6.871 6.847 6.826 6.804 6.808 6.788 6.773 6.746 6.735 6.716 6.67 6.666 6.663 6.654 6.601 6.579 6.581 6.559 6.586 6.571 6.569 6.554 6.551 6.539 6.561 6.531 6.506 6.499 6.496 6.506 6.514 6.499 6.476 6.469 6.474 6.476 6.466 6.439 6.404 6.426 6.411 6.444 6.394 6.381 6.381 6.394 6.394 6.354 6.411 6.349 6.329 6.306 6.281 6.306 6.241 6.224 6.214 6.189 6.166 6.121 6.149 6.089 6.074 6.076 6.076 6.076 6.044 6.021 5.984 5.969 5.951 5.934 5.929 5.951 5.921 5.886 5.849 5.827 5.778 5.734 5.744 5.565 5.012 5.585 6.185 6.448 6.489 6.492 6.442 6.444 6.431 6.424 6.439 6.449 6.482 6.444 6.308 6.173 6.096 5.521 5.064 5.746 6.08 6.356 6.588 6.69 6.729 6.756 6.771 6.771 6.762 6.744 6.714 6.681 6.644 6.611 6.544 7.049 7.584 6.671 6.256 6.259 6.386 6.224 5.696 6.279 6.206 6.216 6.216 6.231 6.241 6.274 6.251 6.286 6.289 6.299 6.311 6.349 6.356 6.386 6.406 6.436 6.481 6.511 6.516 6.536 6.551 6.571 6.574 6.611 6.619 6.644 6.646 6.686 6.699 6.714 6.774 6.779 6.829 6.861 6.899 6.939 6.934 6.956 6.964 6.959 6.976 6.979 6.966 7.011 7.039 7.029 7.026 7.016 7.009 7.039 7.031 7.044 7.066 7.044 7.076 7.049 7.071 7.076 7.079 7.116 7.344 9.204 9.254 10.341 9.721 9.626 9.689 9.764 9.824 9.881 9.901 9.939 9.989 10.064 10.119 10.124 10.159 10.214 10.234 10.194 10.204 10.244 10.226 10.259 10.231 10.154 10.039 9.706 8.679 7.479 7.491 7.474 7.479 7.501 7.584 7.589 7.644 7.604 7.634 7.614 7.664 7.669 7.676 7.681 7.664 7.716 7.714 7.746 7.776 7.789 7.801 7.824 7.824 7.834 7.821 7.839 7.809 7.871 7.844 7.869 7.869 7.844 7.864 7.901 7.876 7.891 7.921 7.906 7.926 7.929 7.939 7.989 7.946 7.974 7.979 8.001 7.989 8.046 8.106 8.119 8.121 8.126 8.189 8.161 8.179 8.161 8.196 8.159 8.151 8.191 8.164 8.201 8.191 8.244 8.261 8.269 8.279 8.314 8.304 8.334 8.359 8.384 8.406 8.404 8.404 8.429 8.471 8.526 8.569 8.594 8.599 8.641 8.651 8.656 8.689 8.706 8.714 8.771 8.804 8.841 8.909 8.926 8.944 8.979 8.981 9.046 9.029 9.084 9.121 9.164 9.226 9.254 9.266 9.314 9.319 9.329 9.316 9.329 9.316 9.304 9.321 9.339 9.359 9.346 9.376 9.421 9.439 9.461 9.484 9.476 9.501 9.524 9.544 9.601 9.601 9.629 9.641 9.686 9.683 9.685 9.691 9.757 9.759 9.793 9.796 9.812 9.856 9.864 9.91 9.918 9.979 9.975 9.996 10.029 10.031 10.086 10.086 10.136 10.116 10.191 10.204 10.201 10.226 10.251 10.284 10.294 10.336 10.336 10.359 10.374 10.411 10.416 10.431 10.476 10.476 10.521 10.536 10.554 10.569 10.589 10.629 10.649 10.679 10.689 10.721 10.774 10.774 10.769 10.751 10.786 10.781 10.746 10.821 10.946 11.024 10.996 11.104 11.436 11.134 11.289 11.361 11.321 11.289 11.349 11.369 11.361 11.409 11.391 11.409 11.434 11.411 11.421 11.399 11.414 11.404 11.439 11.439 11.496 11.541 11.581 11.571 11.609 11.614 11.606 11.686 11.686 11.701 11.696 11.689 11.744 11.791 11.804 11.819 11.851 11.884 11.874 11.934 11.976 11.986 11.984 12.034 12.039 12.104 12.116 12.154 12.179 12.206 12.216 12.244 12.331 12.326 12.354 12.391 12.409 12.436 12.476 12.446 12.486 12.484 12.516 12.484 12.504 12.469
6.903 6.861 6.885 6.866 6.833 6.844 6.809 6.78 6.777 6.749 6.786 6.764 6.734 6.684 6.674 6.649 6.654 6.631 6.586 6.586 6.574 6.564 6.546 6.541 6.566 6.561 6.566 6.539 6.529 6.569 6.539 6.514 6.521 6.529 6.509 6.491 6.474 6.501 6.486 6.476 6.459 6.444 6.406 6.419 6.404 6.419 6.419 6.381 6.369 6.384 6.401 6.391 6.376 6.354 6.314 6.311 6.249 6.246 6.231 6.196 6.209 6.171 6.129 6.106 6.116 6.091 6.111 6.094 6.114 6.069 6.036 6.034 5.991 5.961 5.939 5.896 5.931 5.921 5.934 5.916 5.881 5.861 5.844 5.737 5.75 5.754 5.402 5.163 6.108 6.454 6.444 6.461 6.442 6.416 6.44 6.424 6.423 6.438 6.435 6.412 6.306 6.211 6.086 5.598 4.959 5.677 6.063 6.359 6.579 6.681 6.722 6.759 6.77 6.812 6.788 6.707 6.692 6.674 6.641 6.571 6.801 7.654 7.211 6.374 6.284 6.301 6.464 5.929 5.901 6.276 6.221 6.204 6.204 6.221 6.261 6.261 6.259 6.279 6.304 6.321 6.321 6.354 6.351 6.391 6.404 6.449 6.456 6.476 6.494 6.524 6.559 6.566 6.596 6.599 6.611 6.646 6.649 6.686 6.714 6.694 6.714 6.781 6.824 6.844 6.874 6.901 6.936 6.959 6.994 6.986 6.971 6.989 7.004 7.041 7.051 7.024 7.034 7.041 7.039 7.029 7.051 7.061 7.049 7.059 7.061 7.029 7.084 7.081 7.099 7.109 7.559 9.149 9.544 10.819 9.656 9.669 9.729 9.794 9.839 9.921 9.944 9.976 10.001 10.034 10.086 10.136 10.171 10.216 10.251 10.221 10.196 10.214 10.224 10.239 10.199 10.121 10.209 9.561 8.061 7.459 7.474 7.471 7.509 7.516 7.516 7.581 7.629 7.576 7.649 7.639 7.654 7.651 7.641 7.646 7.694 7.671 7.721 7.719 7.774 7.786 7.814 7.786 7.839 7.804 7.826 7.829 7.811 7.824 7.851 7.851 7.811 7.856 7.846 7.836 7.861 7.866 7.876 7.889 7.909 7.894 7.931 7.956 7.919 7.946 7.976 8.001 8.026 8.026 8.109 8.079 8.134 8.134 8.154 8.146 8.139 8.149 8.171 8.179 8.151 8.176 8.169 8.189 8.181 8.241 8.256 8.259 8.301 8.279 8.311 8.316 8.341 8.346 8.376 8.386 8.419 8.439 8.469 8.519 8.534 8.584 8.591 8.621 8.621 8.641 8.636 8.681 8.684 8.746 8.791 8.831 8.886 8.931 8.949 8.969 8.976 9.006 9.026 9.091 9.114 9.181 9.244 9.251 9.261 9.311 9.314 9.299 9.306 9.311 9.301 9.296 9.331 9.331 9.341 9.359 9.346 9.401 9.416 9.426 9.429 9.464 9.484 9.491 9.539 9.584 9.571 9.636 9.641 9.672 9.673 9.666 9.692 9.76 9.739 9.791 9.801 9.807 9.867 9.862 9.91 9.929 9.949 9.965 9.996 10.024 10.014 10.071 10.084 10.129 10.139 10.184 10.204 10.169 10.219 10.231 10.284 10.279 10.334 10.354 10.351 10.354 10.384 10.406 10.419 10.444 10.474 10.511 10.536 10.559 10.561 10.594 10.629 10.654 10.661 10.681 10.736 10.769 10.766 10.761 10.754 10.764 10.791 10.709 10.821 10.939 11.031 11.001 11.151 11.406 11.219 11.281 11.364 11.339 11.346 11.341 11.346 11.369 11.381 11.356 11.394 11.419 11.409 11.434 11.426 11.404 11.401 11.441 11.426 11.474 11.494 11.559 11.549 11.594 11.599 11.581 11.656 11.674 11.674 11.676 11.689 11.716 11.754 11.794 11.819 11.826 11.849 11.856 11.906 11.944 11.966 11.934 12.004 12.034 12.071 12.096 12.106 12.159 12.169 12.236 12.264 12.296 12.326 12.321 12.364 12.411 12.391 12.461 12.456 12.466 12.449 12.501 12.489 12.484 12.484
6.863 6.854 6.864 6.884 6.858 6.86 6.848 6.768 6.755 6.767 6.771 6.757 6.708 6.69 6.664 6.656 6.659 6.609 6.591 6.601 6.591 6.599 6.576 6.581 6.569 6.574 6.559 6.576 6.521 6.534 6.511 6.511 6.534 6.521 6.529 6.466 6.501 6.496 6.521 6.494 6.474 6.444 6.436 6.436 6.424 6.449 6.431 6.406 6.369 6.384 6.401 6.389 6.356 6.331 6.294 6.266 6.276 6.259 6.214 6.206 6.186 6.181 6.154 6.144 6.134 6.106 6.074 6.094 6.089 6.034 6.024 5.999 5.976 5.981 5.949 5.951 5.919 5.934 5.921 5.946 5.906 5.891 5.864 5.803 5.73 5.752 5.747 5.215 5.251 6.289 6.453 6.461 6.486 6.41 6.439 6.449 6.444 6.452 6.457 6.395 6.293 6.208 6.187 5.762 4.885 5.625 6.01 6.343 6.554 6.656 6.71 6.735 6.748 6.793 6.781 6.729 6.677 6.646 6.614 6.566 7.556 7.634 6.824 6.256 6.304 6.376 6.411 5.681 6.149 6.216 6.204 6.214 6.216 6.249 6.254 6.266 6.261 6.286 6.311 6.321 6.319 6.336 6.356 6.366 6.374 6.431 6.461 6.489 6.509 6.534 6.531 6.549 6.584 6.606 6.624 6.644 6.614 6.651 6.689 6.704 6.726 6.771 6.799 6.806 6.846 6.871 6.906 6.961 6.959 6.989 7.006 6.994 7.009 7.044 7.049 7.064 7.071 7.054 7.064 7.041 7.041 7.054 7.056 7.039 7.049 7.066 7.081 7.061 7.069 7.136 7.954 9.144 9.989 9.866 9.611 9.654 9.749 9.804 9.874 9.944 9.971 10.011 10.026 10.044 10.101 10.146 10.151 10.166 10.254 10.251 10.224 10.191 10.206 10.234 10.181 10.096 9.959 10.649 7.826 7.456 7.459 7.439 7.484 7.526 7.549 7.574 7.576 7.571 7.611 7.649 7.619 7.624 7.614 7.634 7.666 7.664 7.679 7.709 7.751 7.771 7.786 7.769 7.794 7.786 7.801 7.809 7.816 7.794 7.844 7.814 7.819 7.821 7.814 7.824 7.846 7.834 7.844 7.884 7.889 7.879 7.926 7.974 7.941 7.954 7.969 7.961 7.999 7.984 8.076 8.079 8.094 8.106 8.119 8.139 8.144 8.129 8.159 8.164 8.139 8.156 8.166 8.179 8.206 8.219 8.241 8.251 8.279 8.266 8.314 8.299 8.311 8.359 8.364 8.354 8.386 8.444 8.451 8.476 8.536 8.564 8.581 8.626 8.639 8.639 8.639 8.641 8.699 8.741 8.789 8.839 8.844 8.884 8.944 8.919 8.956 9.019 8.999 9.064 9.116 9.206 9.204 9.224 9.246 9.296 9.296 9.311 9.301 9.289 9.276 9.296 9.301 9.311 9.301 9.331 9.356 9.391 9.419 9.431 9.441 9.439 9.501 9.501 9.551 9.581 9.559 9.584 9.629 9.686 9.665 9.687 9.702 9.761 9.743 9.771 9.784 9.807 9.846 9.854 9.894 9.91 9.931 9.962 9.979 10.024 9.991 10.081 10.084 10.119 10.144 10.184 10.191 10.196 10.231 10.244 10.279 10.274 10.329 10.354 10.339 10.369 10.359 10.404 10.426 10.446 10.496 10.496 10.519 10.554 10.581 10.594 10.621 10.674 10.661 10.686 10.726 10.751 10.716 10.744 10.759 10.776 10.809 10.736 10.796 10.919 11.014 11.036 11.169 11.401 11.299 11.296 11.364 11.391 11.386 11.354 11.339 11.359 11.374 11.436 11.359 11.386 11.406 11.409 11.416 11.396 11.416 11.409 11.421 11.439 11.506 11.536 11.509 11.576 11.564 11.584 11.626 11.676 11.656 11.681 11.711 11.711 11.726 11.776 11.769 11.806 11.776 11.794 11.859 11.906 11.946 11.934 11.994 11.996 12.026 12.076 12.109 12.126 12.186 12.204 12.216 12.271 12.311 12.296 12.354 12.399 12.394 12.424 12.426 12.414 12.436 12.479 12.484 12.446 12.464
6.862 6.854 6.85 6.858 6.869 6.862 6.831 6.816 6.801 6.774 6.758 6.729 6.697 6.673 6.655 6.635 6.607 6.584 6.581 6.569 6.576 6.586 6.576 6.556 6.576 6.529 6.566 6.551 6.611 6.521 6.511 6.526 6.539 6.519 6.499 6.494 6.521 6.521 6.484 6.481 6.481 6.489 6.486 6.446 6.444 6.434 6.416 6.419 6.436 6.391 6.424 6.396 6.361 6.324 6.311 6.289 6.286 6.274 6.231 6.224 6.174 6.196 6.164 6.144 6.116 6.089 6.086 6.081 6.066 6.079 6.021 6.029 5.984 5.989 5.961 5.961 5.969 5.949 5.951 5.951 5.949 5.909 5.902 5.85 5.78 5.714 5.703 5.615 5.059 5.492 6.471 6.419 6.473 6.454 6.403 6.431 6.476 6.453 6.454 6.372 6.295 6.216 6.205 6.039 4.867 5.528 6.028 6.33 6.558 6.66 6.715 6.735 6.767 6.764 6.765 6.744 6.686 6.649 6.586 6.621 7.564 7.411 6.454 6.279 6.329 6.411 6.131 5.651 6.346 6.241 6.206 6.219 6.234 6.261 6.269 6.261 6.294 6.294 6.314 6.334 6.356 6.364 6.369 6.396 6.391 6.456 6.476 6.486 6.486 6.514 6.564 6.591 6.594 6.609 6.611 6.624 6.646 6.674 6.701 6.699 6.714 6.761 6.789 6.809 6.824 6.871 6.901 6.911 6.939 6.979 7.014 7.011 7.029 7.061 7.059 7.051 7.079 7.081 7.081 7.081 7.056 7.066 7.061 7.049 7.061 7.081 7.096 7.074 7.086 7.226 9.046 9.061 9.799 9.884 9.671 9.689 9.746 9.841 9.954 9.966 10.011 9.991 10.039 10.061 10.149 10.161 10.151 10.191 10.216 10.199 10.206 10.186 10.179 10.201 10.146 10.091 10.059 8.971 7.431 7.409 7.479 7.471 7.446 7.506 7.551 7.571 7.559 7.579 7.561 7.626 7.619 7.614 7.596 7.641 7.641 7.631 7.664 7.709 7.751 7.754 7.759 7.776 7.754 7.759 7.784 7.781 7.794 7.809 7.786 7.804 7.799 7.779 7.811 7.834 7.841 7.851 7.826 7.859 7.869 7.849 7.881 7.929 7.891 7.904 7.944 7.966 7.991 8.014 8.066 8.061 8.101 8.106 8.106 8.109 8.096 8.104 8.119 8.116 8.084 8.131 8.144 8.171 8.154 8.184 8.204 8.231 8.236 8.234 8.276 8.286 8.316 8.309 8.331 8.354 8.376 8.431 8.451 8.481 8.531 8.546 8.574 8.589 8.604 8.616 8.629 8.636 8.691 8.714 8.789 8.809 8.844 8.876 8.911 8.941 8.914 8.999 9.006 9.076 9.079 9.199 9.194 9.231 9.241 9.269 9.266 9.254 9.279 9.264 9.236 9.271 9.294 9.274 9.304 9.341 9.356 9.354 9.401 9.406 9.439 9.481 9.476 9.479 9.506 9.524 9.574 9.591 9.616 9.641 9.654 9.667 9.678 9.733 9.745 9.759 9.76 9.782 9.837 9.857 9.908 9.912 9.911 9.941 9.964 10.009 10.006 10.056 10.061 10.076 10.139 10.156 10.181 10.201 10.204 10.236 10.274 10.289 10.311 10.334 10.329 10.364 10.364 10.411 10.416 10.436 10.486 10.479 10.519 10.551 10.569 10.584 10.594 10.634 10.641 10.681 10.726 10.739 10.714 10.721 10.766 10.739 10.811 10.781 10.801 10.896 10.994 11.041 11.119 11.386 11.359 11.344 11.381 11.349 11.381 11.336 11.376 11.276 11.301 11.436 11.371 11.381 11.396 11.414 11.436 11.424 11.359 11.379 11.419 11.414 11.531 11.531 11.506 11.526 11.564 11.534 11.574 11.664 11.641 11.679 11.716 11.691 11.706 11.751 11.774 11.786 11.739 11.821 11.829 11.899 11.921 11.929 11.989 11.956 12.001 12.036 12.106 12.101 12.151 12.176 12.209 12.264 12.286 12.291 12.321 12.381 12.376 12.399 12.354 12.344 12.444 12.461 12.454 12.404 12.481
6.913 6.891 6.874 6.866 6.829 6.844 6.81 6.806 6.803 6.754 6.754 6.705 6.688 6.68 6.666 6.624 6.619 6.569 6.586 6.571 6.571 6.536 6.596 6.564 6.556 6.586 6.526 6.536 6.559 6.554 6.529 6.534 6.534 6.524 6.519 6.519 6.546 6.524 6.499 6.501 6.499 6.471 6.496 6.466 6.474 6.449 6.451 6.456 6.436 6.411 6.396 6.379 6.354 6.341 6.319 6.309 6.291 6.289 6.231 6.216 6.211 6.214 6.206 6.156 6.149 6.101 6.116 6.149 6.094 6.099 6.084 6.029 6.029 5.996 5.991 5.954 5.939 5.904 5.906 5.914 5.916 5.9 5.916 5.894 5.847 5.767 5.713 5.721 5.549 5.355 5.687 6.501 6.385 6.451 6.417 6.361 6.386 6.439 6.432 6.378 6.292 6.215 6.154 6.199 4.778 5.473 6.02 6.326 6.55 6.646 6.722 6.761 6.77 6.775 6.754 6.741 6.69 6.618 6.558 6.883 7.864 6.856 6.281 6.311 6.354 6.434 5.686 6.029 6.299 6.239 6.211 6.224 6.234 6.266 6.241 6.264 6.314 6.334 6.316 6.336 6.349 6.349 6.391 6.411 6.414 6.454 6.466 6.481 6.526 6.531 6.544 6.549 6.571 6.604 6.634 6.634 6.651 6.661 6.664 6.704 6.726 6.761 6.769 6.784 6.826 6.854 6.884 6.899 6.909 6.951 6.949 6.981 7.006 7.024 7.051 7.064 7.056 7.056 7.066 7.076 7.091 7.084 7.086 7.064 7.104 7.124 7.149 7.074 7.096 7.296 8.826 9.961 10.009 10.189 9.874 9.769 9.751 9.836 9.921 10.009 10.056 10.069 10.036 10.089 10.151 10.169 10.139 10.179 10.166 10.179 10.196 10.194 10.179 10.129 10.109 10.081 9.826 8.354 7.431 7.431 7.451 7.451 7.464 7.484 7.539 7.531 7.579 7.556 7.554 7.601 7.546 7.611 7.594 7.594 7.611 7.611 7.631 7.664 7.736 7.726 7.739 7.749 7.739 7.761 7.746 7.766 7.769 7.761 7.774 7.746 7.796 7.799 7.771 7.796 7.834 7.826 7.814 7.874 7.846 7.884 7.919 7.896 7.891 7.901 7.924 7.941 7.966 7.971 8.014 8.071 8.069 8.096 8.096 8.104 8.104 8.106 8.119 8.109 8.096 8.109 8.104 8.139 8.186 8.189 8.181 8.181 8.234 8.241 8.274 8.271 8.286 8.316 8.326 8.361 8.374 8.434 8.446 8.459 8.504 8.521 8.564 8.571 8.566 8.604 8.609 8.624 8.691 8.721 8.769 8.789 8.841 8.866 8.861 8.901 8.931 8.949 8.991 9.046 9.059 9.149 9.189 9.186 9.251 9.286 9.271 9.259 9.266 9.244 9.274 9.271 9.276 9.271 9.274 9.314 9.364 9.354 9.381 9.394 9.426 9.446 9.461 9.481 9.484 9.541 9.549 9.579 9.614 9.654 9.641 9.684 9.704 9.721 9.741 9.727 9.766 9.797 9.814 9.831 9.88 9.893 9.909 9.932 9.956 9.974 10.014 10.066 10.059 10.071 10.136 10.131 10.174 10.194 10.219 10.231 10.244 10.291 10.291 10.319 10.324 10.344 10.366 10.404 10.421 10.424 10.496 10.459 10.499 10.541 10.566 10.581 10.601 10.626 10.626 10.664 10.709 10.714 10.721 10.709 10.776 10.761 10.804 10.806 10.814 10.869 10.966 11.071 11.099 11.264 11.454 11.309 11.374 11.366 11.394 11.296 11.321 11.291 11.281 11.416 11.344 11.339 11.389 11.391 11.409 11.401 11.381 11.404 11.429 11.446 11.511 11.531 11.496 11.526 11.559 11.546 11.581 11.634 11.626 11.661 11.671 11.686 11.701 11.724 11.769 11.769 11.801 11.829 11.826 11.884 11.921 11.961 11.961 11.974 12.001 12.006 12.041 12.089 12.121 12.141 12.206 12.246 12.266 12.324 12.319 12.314 12.381 12.381 12.374 12.384 12.431 12.436 12.434 12.419 12.451
6.917 6.86 6.856 6.836 6.81 6.769 6.777 6.784 6.78 6.756 6.717 6.687 6.7 6.681 6.655 6.618 6.601 6.601 6.606 6.536 6.516 6.571 6.574 6.596 6.551 6.544 6.516 6.509 6.494 6.539 6.534 6.519 6.491 6.481 6.519 6.496 6.486 6.464 6.484 6.474 6.501 6.479 6.471 6.454 6.459 6.431 6.456 6.466 6.449 6.444 6.406 6.374 6.346 6.331 6.306 6.276 6.279 6.256 6.231 6.216 6.191 6.171 6.171 6.119 6.139 6.114 6.124 6.094 6.116 6.094 6.059 6.041 6.026 6.011 5.999 5.956 5.949 5.934 5.934 5.931 5.949 5.948 5.912 5.895 5.881 5.848 5.775 5.737 5.749 5.516 5.104 6.088 6.554 6.388 6.459 6.409 6.379 6.384 6.381 6.36 6.327 6.218 6.131 6.296 5.007 5.421 5.962 6.344 6.556 6.643 6.695 6.765 6.786 6.775 6.746 6.728 6.674 6.578 6.576 7.416 7.571 6.553 6.269 6.311 6.451 6.176 5.619 6.274 6.216 6.206 6.184 6.214 6.234 6.279 6.266 6.306 6.326 6.316 6.324 6.359 6.369 6.399 6.381 6.411 6.414 6.449 6.486 6.489 6.511 6.524 6.549 6.566 6.594 6.606 6.611 6.606 6.639 6.649 6.676 6.679 6.691 6.719 6.774 6.799 6.836 6.829 6.866 6.904 6.916 6.954 6.961 6.969 6.974 7.006 7.024 7.044 7.069 7.074 7.049 7.081 7.086 7.136 7.129 7.136 7.146 7.164 7.159 7.119 7.104 7.509 8.864 9.056 10.176 10.339 10.341 10.211 10.079 9.936 9.941 10.009 10.051 10.076 10.071 10.081 10.116 10.136 10.141 10.169 10.154 10.174 10.189 10.224 10.194 10.151 10.394 9.931 9.469 7.871 7.369 7.429 7.446 7.444 7.469 7.496 7.526 7.541 7.546 7.564 7.539 7.551 7.551 7.579 7.574 7.586 7.591 7.611 7.661 7.671 7.691 7.694 7.709 7.714 7.704 7.736 7.719 7.741 7.774 7.721 7.744 7.756 7.774 7.764 7.749 7.801 7.819 7.809 7.821 7.851 7.824 7.824 7.886 7.861 7.854 7.889 7.904 7.949 7.946 7.979 8.006 8.051 8.074 8.094 8.079 8.091 8.069 8.096 8.089 8.066 8.091 8.086 8.109 8.124 8.161 8.181 8.186 8.206 8.214 8.241 8.251 8.276 8.266 8.306 8.306 8.326 8.374 8.414 8.414 8.451 8.516 8.516 8.531 8.554 8.586 8.579 8.614 8.614 8.659 8.706 8.771 8.791 8.834 8.849 8.879 8.876 8.941 8.936 9.004 9.011 9.044 9.119 9.161 9.179 9.244 9.246 9.266 9.229 9.214 9.229 9.261 9.234 9.261 9.271 9.281 9.306 9.329 9.359 9.331 9.379 9.411 9.431 9.434 9.459 9.491 9.521 9.544 9.561 9.594 9.616 9.644 9.667 9.7 9.706 9.757 9.735 9.754 9.808 9.801 9.83 9.845 9.899 9.915 9.928 9.967 9.969 10.024 10.026 10.069 10.081 10.131 10.136 10.156 10.179 10.204 10.219 10.234 10.266 10.269 10.309 10.314 10.341 10.361 10.376 10.409 10.419 10.449 10.466 10.504 10.539 10.531 10.566 10.596 10.596 10.631 10.656 10.711 10.711 10.719 10.709 10.756 10.786 10.776 10.804 10.801 10.866 10.956 11.049 11.106 11.291 11.539 11.169 11.349 11.371 11.384 11.331 11.341 11.341 11.321 11.419 11.324 11.334 11.366 11.384 11.396 11.351 11.426 11.394 11.401 11.461 11.489 11.489 11.501 11.526 11.536 11.566 11.559 11.611 11.594 11.581 11.621 11.681 11.694 11.731 11.749 11.751 11.794 11.814 11.831 11.851 11.869 11.929 11.929 11.946 12.001 12.011 12.031 12.071 12.049 12.079 12.204 12.196 12.266 12.281 12.301 12.309 12.354 12.371 12.391 12.426 12.399 12.399 12.429 12.411 12.419
6.901 6.856 6.849 6.832 6.777 6.776 6.799 6.796 6.783 6.747 6.706 6.698 6.689 6.678 6.665 6.595 6.591 6.601 6.609 6.559 6.594 6.571 6.596 6.551 6.589 6.579 6.541 6.534 6.544 6.556 6.549 6.511 6.486 6.484 6.491 6.491 6.476 6.464 6.471 6.476 6.469 6.446 6.459 6.454 6.454 6.479 6.446 6.436 6.399 6.406 6.399 6.369 6.374 6.349 6.304 6.296 6.279 6.289 6.249 6.256 6.211 6.201 6.126 6.161 6.126 6.146 6.124 6.119 6.094 6.076 6.059 6.034 6.049 5.994 6.001 5.969 5.971 5.976 5.954 5.911 5.916 5.922 5.923 5.915 5.907 5.898 5.827 5.726 5.721 5.731 5.337 5.221 6.336 6.666 6.4 6.431 6.401 6.376 6.359 6.366 6.334 6.26 6.178 6.475 5.104 5.363 5.927 6.312 6.526 6.62 6.682 6.76 6.787 6.755 6.717 6.701 6.642 6.576 6.846 7.865 7.155 6.355 6.271 6.344 6.391 5.854 5.971 6.229 6.241 6.196 6.189 6.231 6.264 6.246 6.266 6.291 6.314 6.319 6.351 6.356 6.354 6.381 6.384 6.401 6.431 6.469 6.469 6.494 6.514 6.541 6.554 6.561 6.559 6.606 6.619 6.636 6.626 6.649 6.674 6.674 6.694 6.691 6.736 6.766 6.809 6.831 6.861 6.896 6.911 6.926 6.956 6.984 6.969 6.989 7.009 7.021 7.059 7.051 7.059 7.084 7.109 7.136 7.139 7.144 7.201 7.209 7.201 7.199 7.146 7.499 8.104 8.961 9.944 10.736 10.261 10.389 10.461 10.444 10.374 10.214 10.066 10.051 10.089 10.104 10.121 10.149 10.154 10.151 10.169 10.191 10.204 10.239 10.199 10.804 11.619 9.959 9.921 7.559 7.334 7.406 7.409 7.424 7.446 7.484 7.476 7.509 7.516 7.504 7.521 7.539 7.556 7.549 7.519 7.576 7.591 7.579 7.636 7.644 7.661 7.684 7.701 7.689 7.676 7.734 7.709 7.714 7.719 7.696 7.699 7.726 7.756 7.754 7.759 7.761 7.786 7.781 7.809 7.829 7.804 7.806 7.871 7.819 7.826 7.869 7.894 7.949 7.956 7.976 8.004 8.011 8.024 8.054 8.046 8.074 8.056 8.069 8.059 8.059 8.076 8.071 8.094 8.091 8.156 8.154 8.146 8.204 8.189 8.221 8.251 8.271 8.274 8.296 8.304 8.326 8.336 8.406 8.431 8.444 8.484 8.474 8.521 8.546 8.571 8.571 8.584 8.624 8.639 8.676 8.726 8.796 8.814 8.846 8.871 8.876 8.909 8.929 8.979 9.009 9.054 9.119 9.139 9.179 9.224 9.209 9.216 9.246 9.201 9.209 9.231 9.199 9.249 9.251 9.271 9.299 9.274 9.344 9.369 9.361 9.416 9.401 9.426 9.424 9.489 9.491 9.536 9.569 9.594 9.584 9.601 9.637 9.677 9.677 9.722 9.731 9.724 9.791 9.8 9.83 9.853 9.887 9.897 9.914 9.958 9.949 10.009 9.991 10.061 10.071 10.119 10.136 10.109 10.171 10.184 10.204 10.216 10.244 10.266 10.286 10.286 10.321 10.344 10.354 10.416 10.421 10.426 10.469 10.479 10.511 10.536 10.566 10.589 10.589 10.634 10.664 10.719 10.701 10.714 10.704 10.726 10.761 10.761 10.786 10.759 10.851 10.941 11.039 11.116 11.279 11.514 11.251 11.359 11.386 11.399 11.354 11.361 11.326 11.299 11.401 11.306 11.311 11.381 11.386 11.384 11.349 11.411 11.376 11.396 11.446 11.486 11.451 11.511 11.499 11.509 11.541 11.556 11.581 11.576 11.601 11.619 11.649 11.659 11.711 11.711 11.756 11.769 11.799 11.801 11.841 11.834 11.899 11.909 11.939 11.969 11.989 12.016 12.039 12.081 12.084 12.191 12.171 12.249 12.239 12.271 12.306 12.354 12.351 12.379 12.389 12.396 12.379 12.441 12.391 12.416
6.885 6.844 6.802 6.807 6.775 6.799 6.79 6.793 6.772 6.699 6.685 6.69 6.689 6.672 6.638 6.579 6.624 6.611 6.626 6.631 6.624 6.596 6.541 6.519 6.526 6.541 6.541 6.539 6.551 6.566 6.539 6.496 6.491 6.481 6.501 6.519 6.486 6.474 6.479 6.519 6.501 6.464 6.506 6.506 6.464 6.471 6.444 6.449 6.414 6.401 6.359 6.364 6.329 6.311 6.311 6.301 6.301 6.251 6.236 6.236 6.221 6.174 6.174 6.141 6.166 6.136 6.151 6.119 6.109 6.084 6.084 6.074 6.039 5.999 6.011 6.006 5.996 5.984 5.931 5.949 5.919 5.939 5.926 5.905 5.913 5.888 5.821 5.78 5.713 5.718 5.692 5.298 5.203 6.57 6.477 6.434 6.374 6.359 6.326 6.299 6.306 6.296 6.24 6.503 5.301 5.287 5.925 6.272 6.494 6.608 6.652 6.696 6.741 6.742 6.736 6.673 6.604 6.582 7.436 7.884 6.793 6.296 6.306 6.333 6.211 5.589 6.171 6.206 6.211 6.191 6.216 6.246 6.281 6.254 6.251 6.306 6.304 6.324 6.326 6.351 6.381 6.406 6.414 6.411 6.431 6.456 6.479 6.524 6.524 6.544 6.561 6.591 6.594 6.601 6.609 6.621 6.654 6.644 6.674 6.691 6.681 6.696 6.721 6.756 6.796 6.809 6.819 6.869 6.874 6.921 6.939 6.961 6.989 6.956 6.989 7.009 7.051 7.076 7.089 7.099 7.139 7.136 7.141 7.179 7.186 7.204 7.196 7.216 7.261 7.284 7.474 7.954 9.234 9.486 9.839 10.009 10.259 10.419 10.514 10.514 10.414 10.234 10.124 10.104 10.084 10.144 10.156 10.149 10.141 10.161 10.189 10.186 10.206 11.399 10.794 10.346 11.591 9.651 8.669 7.404 7.399 7.451 7.426 7.426 7.464 7.494 7.489 7.494 7.504 7.526 7.531 7.484 7.556 7.584 7.606 7.589 7.619 7.626 7.646 7.674 7.636 7.636 7.689 7.696 7.671 7.686 7.679 7.674 7.696 7.739 7.694 7.704 7.741 7.746 7.784 7.766 7.784 7.781 7.794 7.814 7.864 7.801 7.816 7.861 7.874 7.911 7.924 7.971 7.976 8.034 8.029 8.029 8.046 8.056 8.046 8.044 8.064 8.066 8.044 8.056 8.074 8.074 8.134 8.144 8.144 8.156 8.171 8.219 8.209 8.241 8.254 8.289 8.269 8.321 8.349 8.374 8.414 8.441 8.479 8.496 8.524 8.524 8.544 8.549 8.596 8.599 8.629 8.709 8.721 8.776 8.811 8.846 8.839 8.901 8.904 8.901 8.931 8.991 9.049 9.099 9.136 9.161 9.204 9.231 9.204 9.211 9.189 9.191 9.216 9.236 9.236 9.206 9.239 9.274 9.286 9.314 9.324 9.356 9.366 9.396 9.406 9.446 9.481 9.476 9.524 9.534 9.591 9.591 9.631 9.622 9.674 9.663 9.676 9.711 9.725 9.773 9.786 9.824 9.826 9.879 9.896 9.894 9.934 9.934 10.011 10.001 10.041 10.066 10.096 10.119 10.101 10.161 10.181 10.204 10.211 10.259 10.266 10.284 10.291 10.299 10.339 10.339 10.376 10.421 10.414 10.471 10.484 10.506 10.524 10.551 10.566 10.571 10.621 10.644 10.699 10.664 10.681 10.711 10.726 10.779 10.744 10.781 10.696 10.826 10.909 11.014 11.094 11.241 11.401 11.331 11.334 11.386 11.381 11.364 11.336 11.334 11.354 11.371 11.386 11.291 11.364 11.411 11.346 11.369 11.399 11.361 11.354 11.439 11.489 11.406 11.514 11.479 11.511 11.529 11.554 11.559 11.589 11.591 11.591 11.619 11.639 11.664 11.696 11.716 11.734 11.756 11.781 11.799 11.819 11.894 11.871 11.921 11.949 11.959 11.974 12.036 12.054 12.076 12.184 12.166 12.169 12.226 12.286 12.274 12.369 12.351 12.361 12.374 12.376 12.396 12.414 12.406 12.396
6.846 6.807 6.802 6.795 6.793 6.791 6.782 6.787 6.72 6.709 6.675 6.683 6.675 6.643 6.615 6.614 6.611 6.571 6.626 6.551 6.584 6.571 6.574 6.591 6.536 6.511 6.529 6.549 6.576 6.564 6.524 6.481 6.511 6.501 6.509 6.521 6.471 6.459 6.461 6.496 6.501 6.514 6.481 6.494 6.489 6.481 6.461 6.454 6.419 6.404 6.369 6.344 6.366 6.304 6.311 6.324 6.279 6.234 6.224 6.226 6.191 6.171 6.159 6.179 6.159 6.174 6.149 6.121 6.084 6.104 6.084 6.046 6.039 6.026 6.009 5.996 5.979 5.944 5.941 5.961 5.921 5.871 5.9 5.924 5.912 5.878 5.877 5.809 5.779 5.753 5.703 5.636 5.175 5.378 6.716 6.451 6.366 6.344 6.314 6.266 6.269 6.309 6.271 6.648 5.648 5.389 5.898 6.206 6.482 6.595 6.651 6.689 6.721 6.726 6.715 6.658 6.582 6.642 8.06 7.534 6.404 6.285 6.318 6.461 5.889 5.911 6.336 6.224 6.209 6.214 6.234 6.279 6.251 6.254 6.286 6.301 6.326 6.329 6.384 6.351 6.386 6.399 6.419 6.439 6.469 6.484 6.476 6.501 6.529 6.559 6.576 6.586 6.584 6.596 6.631 6.619 6.641 6.654 6.681 6.679 6.686 6.724 6.719 6.736 6.766 6.784 6.816 6.839 6.854 6.874 6.899 6.924 6.949 6.964 6.986 7.011 7.021 7.051 7.064 7.094 7.131 7.121 7.131 7.129 7.144 7.176 7.194 7.209 7.206 7.201 7.286 7.311 7.589 8.964 9.266 9.241 9.739 9.851 10.206 10.379 10.459 10.486 10.396 10.271 10.156 10.074 10.104 10.121 10.119 10.089 10.069 10.081 10.074 9.961 9.819 9.539 9.799 8.141 7.404 7.369 7.414 7.426 7.376 7.379 7.424 7.451 7.479 7.486 7.464 7.461 7.494 7.474 7.526 7.566 7.551 7.581 7.594 7.636 7.626 7.641 7.596 7.649 7.639 7.681 7.639 7.661 7.646 7.639 7.651 7.674 7.656 7.691 7.729 7.726 7.734 7.736 7.786 7.781 7.761 7.771 7.824 7.759 7.794 7.849 7.844 7.871 7.906 7.944 7.964 8.009 8.046 8.014 8.029 8.051 8.064 8.046 8.029 8.031 8.059 8.039 8.084 8.084 8.106 8.154 8.159 8.176 8.159 8.204 8.211 8.234 8.214 8.269 8.261 8.296 8.351 8.339 8.429 8.436 8.454 8.456 8.489 8.494 8.529 8.554 8.556 8.589 8.631 8.686 8.724 8.746 8.794 8.819 8.846 8.876 8.901 8.909 8.941 8.961 9.024 9.086 9.116 9.149 9.184 9.199 9.184 9.179 9.204 9.179 9.174 9.194 9.206 9.231 9.239 9.264 9.281 9.316 9.314 9.334 9.349 9.389 9.386 9.419 9.464 9.514 9.521 9.549 9.546 9.589 9.629 9.624 9.638 9.685 9.682 9.716 9.728 9.747 9.782 9.817 9.825 9.843 9.878 9.868 9.924 9.934 9.989 9.984 10.009 10.061 10.074 10.111 10.104 10.131 10.174 10.194 10.209 10.229 10.264 10.254 10.269 10.271 10.331 10.336 10.369 10.419 10.411 10.439 10.456 10.496 10.516 10.519 10.561 10.551 10.594 10.629 10.671 10.624 10.644 10.706 10.721 10.759 10.761 10.786 10.691 10.811 10.914 10.979 11.051 11.174 11.269 11.379 11.361 11.351 11.351 11.341 11.324 11.291 11.286 11.314 11.389 11.306 11.324 11.381 11.374 11.341 11.359 11.344 11.351 11.446 11.444 11.424 11.459 11.459 11.481 11.479 11.549 11.539 11.574 11.564 11.594 11.614 11.634 11.671 11.714 11.626 11.681 11.711 11.779 11.791 11.799 11.874 11.856 11.876 11.894 11.951 11.986 12.024 12.049 12.044 12.144 12.151 12.169 12.224 12.264 12.276 12.309 12.306 12.321 12.346 12.359 12.346 12.371 12.366 12.406
6.837 6.845 6.824 6.801 6.813 6.798 6.781 6.757 6.716 6.699 6.693 6.664 6.67 6.631 6.616 6.609 6.599 6.596 6.549 6.604 6.556 6.551 6.554 6.556 6.604 6.549 6.529 6.574 6.579 6.529 6.499 6.509 6.516 6.499 6.491 6.481 6.484 6.501 6.474 6.491 6.481 6.491 6.496 6.494 6.504 6.466 6.466 6.419 6.391 6.394 6.394 6.351 6.349 6.356 6.299 6.301 6.271 6.279 6.221 6.234 6.199 6.194 6.184 6.171 6.161 6.129 6.104 6.104 6.111 6.116 6.116 6.064 6.044 6.044 6.049 5.986 5.974 5.971 5.966 5.961 5.936 5.917 5.921 5.917 5.938 5.876 5.867 5.828 5.82 5.775 5.727 5.697 5.607 5.07 5.687 6.729 6.369 6.284 6.289 6.254 6.266 6.301 6.351 6.664 5.851 5.688 5.946 6.259 6.48 6.619 6.689 6.71 6.708 6.695 6.667 6.647 6.578 6.983 8.062 6.971 6.308 6.296 6.373 6.481 5.589 6.304 6.264 6.229 6.206 6.221 6.234 6.291 6.269 6.266 6.261 6.316 6.334 6.359 6.371 6.364 6.409 6.414 6.434 6.444 6.441 6.456 6.516 6.526 6.544 6.539 6.554 6.576 6.569 6.616 6.616 6.626 6.626 6.634 6.664 6.699 6.714 6.716 6.731 6.756 6.754 6.789 6.824 6.834 6.854 6.881 6.889 6.906 6.944 6.931 6.991 6.976 6.996 7.021 7.051 7.089 7.091 7.084 7.116 7.116 7.134 7.139 7.151 7.181 7.209 7.196 7.206 7.224 7.254 7.306 7.486 7.836 8.309 8.816 9.641 9.944 10.064 10.354 10.456 10.444 10.404 10.189 10.084 10.039 10.031 10.059 10.061 10.064 9.996 9.891 10.481 9.076 10.829 9.856 8.744 7.319 7.376 7.391 7.394 7.391 7.369 7.379 7.419 7.469 7.416 7.459 7.499 7.484 7.501 7.566 7.539 7.579 7.574 7.596 7.594 7.626 7.594 7.641 7.616 7.631 7.629 7.646 7.636 7.621 7.626 7.694 7.626 7.661 7.691 7.689 7.704 7.704 7.731 7.724 7.761 7.761 7.779 7.769 7.779 7.814 7.846 7.889 7.879 7.939 7.941 7.986 8.019 8.009 8.009 7.984 7.999 8.016 8.021 7.991 8.046 8.046 8.036 8.064 8.109 8.126 8.144 8.154 8.164 8.171 8.209 8.214 8.231 8.226 8.241 8.269 8.336 8.336 8.379 8.396 8.446 8.454 8.484 8.476 8.499 8.541 8.549 8.584 8.609 8.669 8.711 8.751 8.766 8.806 8.841 8.861 8.871 8.869 8.909 8.941 8.989 9.079 9.106 9.139 9.156 9.151 9.174 9.126 9.151 9.169 9.174 9.176 9.184 9.204 9.204 9.269 9.261 9.271 9.299 9.316 9.339 9.356 9.379 9.401 9.456 9.474 9.516 9.534 9.519 9.559 9.609 9.634 9.643 9.67 9.665 9.701 9.704 9.751 9.781 9.793 9.822 9.827 9.849 9.876 9.889 9.909 9.961 9.969 10.009 10.069 10.034 10.109 10.109 10.121 10.161 10.176 10.186 10.209 10.254 10.236 10.259 10.286 10.316 10.339 10.334 10.399 10.396 10.431 10.454 10.481 10.496 10.504 10.554 10.536 10.586 10.641 10.639 10.641 10.639 10.691 10.706 10.749 10.746 10.764 10.754 10.771 10.894 10.956 11.009 11.099 11.314 11.476 11.251 11.349 11.329 11.326 11.289 11.284 11.299 11.274 11.331 11.294 11.316 11.341 11.376 11.331 11.341 11.376 11.371 11.449 11.414 11.436 11.404 11.466 11.439 11.436 11.534 11.511 11.569 11.569 11.596 11.626 11.614 11.676 11.674 11.629 11.684 11.684 11.776 11.796 11.801 11.844 11.859 11.881 11.916 11.921 11.949 12.004 12.026 12.044 12.114 12.119 12.159 12.196 12.221 12.264 12.291 12.264 12.264 12.294 12.361 12.366 12.359 12.359 12.361
6.852 6.861 6.852 6.828 6.836 6.796 6.793 6.734 6.726 6.711 6.691 6.645 6.631 6.624 6.609 6.609 6.559 6.586 6.526 6.594 6.566 6.576 6.514 6.544 6.516 6.536 6.551 6.581 6.559 6.509 6.491 6.496 6.501 6.509 6.509 6.489 6.464 6.489 6.471 6.499 6.531 6.511 6.509 6.514 6.514 6.491 6.444 6.434 6.361 6.366 6.379 6.389 6.374 6.339 6.306 6.286 6.294 6.284 6.296 6.234 6.211 6.189 6.191 6.161 6.169 6.129 6.089 6.091 6.101 6.119 6.106 6.089 6.084 6.101 6.051 6.039 5.969 6.011 6.016 6.009 5.986 5.972 5.926 5.938 5.925 5.876 5.844 5.855 5.854 5.816 5.763 5.703 5.656 5.511 5.04 5.764 6.376 6.319 6.301 6.256 6.281 6.321 6.406 6.641 6.366 5.429 5.941 6.342 6.493 6.602 6.682 6.715 6.677 6.662 6.634 6.606 6.586 8.232 8.026 6.658 6.302 6.311 6.513 6.188 5.911 6.444 6.235 6.229 6.206 6.224 6.276 6.299 6.246 6.286 6.274 6.314 6.326 6.351 6.371 6.394 6.409 6.396 6.441 6.444 6.484 6.496 6.514 6.521 6.529 6.576 6.571 6.564 6.554 6.571 6.611 6.641 6.629 6.666 6.641 6.669 6.686 6.714 6.734 6.749 6.764 6.784 6.804 6.831 6.864 6.866 6.894 6.889 6.919 6.939 6.961 6.999 7.021 7.029 7.034 7.046 7.069 7.086 7.089 7.111 7.124 7.121 7.144 7.189 7.186 7.186 7.201 7.209 7.226 7.244 7.236 7.321 7.396 7.566 8.436 9.046 10.236 10.581 10.976 10.354 10.394 10.386 10.311 10.161 10.026 9.979 10.029 10.029 10.029 10.076 10.244 8.671 8.429 8.046 7.451 7.289 7.329 7.336 7.409 7.406 7.376 7.356 7.406 7.364 7.336 7.414 7.436 7.486 7.494 7.541 7.556 7.556 7.549 7.586 7.576 7.579 7.584 7.594 7.609 7.616 7.574 7.601 7.596 7.616 7.609 7.594 7.644 7.641 7.646 7.674 7.676 7.714 7.711 7.691 7.729 7.759 7.736 7.729 7.749 7.794 7.824 7.856 7.844 7.904 7.926 7.981 7.984 7.969 7.971 7.979 8.014 7.991 7.959 8.006 8.029 8.004 8.066 8.051 8.099 8.114 8.114 8.134 8.179 8.191 8.181 8.211 8.239 8.216 8.256 8.271 8.289 8.319 8.389 8.401 8.414 8.439 8.469 8.491 8.479 8.529 8.524 8.574 8.636 8.636 8.706 8.751 8.741 8.781 8.809 8.841 8.844 8.869 8.906 8.951 9.011 9.054 9.081 9.146 9.126 9.139 9.146 9.124 9.131 9.144 9.121 9.194 9.164 9.179 9.224 9.234 9.251 9.279 9.274 9.309 9.326 9.379 9.369 9.406 9.429 9.454 9.516 9.509 9.536 9.546 9.589 9.629 9.614 9.647 9.635 9.67 9.722 9.718 9.755 9.772 9.811 9.839 9.852 9.882 9.885 9.916 9.929 9.981 10.014 10.049 10.031 10.079 10.086 10.116 10.139 10.144 10.176 10.181 10.234 10.229 10.251 10.261 10.286 10.334 10.319 10.369 10.351 10.409 10.436 10.441 10.471 10.489 10.554 10.534 10.569 10.629 10.604 10.626 10.629 10.669 10.699 10.696 10.734 10.739 10.751 10.746 10.851 10.921 11.024 11.074 11.259 11.499 11.156 11.359 11.354 11.316 11.314 11.261 11.304 11.299 11.286 11.276 11.284 11.306 11.319 11.346 11.356 11.346 11.381 11.434 11.424 11.434 11.404 11.456 11.431 11.444 11.501 11.494 11.521 11.544 11.584 11.589 11.644 11.649 11.656 11.676 11.691 11.694 11.759 11.771 11.794 11.816 11.789 11.846 11.889 11.934 11.924 11.969 12.001 12.049 12.069 12.109 12.156 12.189 12.196 12.239 12.269 12.281 12.271 12.299 12.344 12.334 12.334 12.344 12.374
6.886 6.848 6.82 6.83 6.785 6.786 6.754 6.748 6.714 6.686 6.65 6.616 6.614 6.628 6.599 6.574 6.561 6.554 6.556 6.504 6.509 6.514 6.514 6.541 6.489 6.559 6.561 6.544 6.506 6.486 6.474 6.461 6.481 6.484 6.476 6.456 6.486 6.476 6.486 6.509 6.496 6.509 6.509 6.531 6.479 6.466 6.431 6.414 6.391 6.394 6.369 6.411 6.374 6.361 6.334 6.281 6.279 6.274 6.264 6.229 6.209 6.221 6.201 6.171 6.149 6.146 6.131 6.139 6.124 6.121 6.091 6.111 6.109 6.096 6.064 6.054 6.019 6.014 6.009 5.996 5.986 5.984 5.94 5.92 5.897 5.874 5.868 5.885 5.889 5.831 5.787 5.73 5.68 5.641 5.497 5.064 5.694 6.314 6.251 6.256 6.259 6.294 6.406 6.549 6.496 5.771 5.994 6.41 6.479 6.568 6.631 6.643 6.63 6.636 6.615 6.612 6.892 8.336 7.663 6.367 6.309 6.345 6.584 5.954 6.28 6.246 6.214 6.194 6.224 6.269 6.274 6.271 6.266 6.296 6.309 6.311 6.316 6.344 6.344 6.384 6.419 6.456 6.449 6.464 6.461 6.486 6.519 6.531 6.561 6.546 6.559 6.571 6.599 6.601 6.629 6.639 6.634 6.654 6.666 6.696 6.704 6.711 6.734 6.739 6.754 6.791 6.814 6.831 6.834 6.859 6.884 6.881 6.869 6.909 6.961 6.974 7.001 7.001 7.021 7.056 7.059 7.061 7.079 7.106 7.111 7.099 7.131 7.154 7.184 7.214 7.216 7.189 7.191 7.224 7.246 7.254 7.266 7.339 7.366 7.591 8.241 9.199 10.249 11.241 11.019 10.204 10.286 10.416 10.389 10.289 10.226 10.131 10.066 10.784 10.776 8.969 7.469 7.314 7.336 7.266 7.326 7.321 7.294 7.359 7.349 7.354 7.361 7.346 7.356 7.361 7.379 7.376 7.454 7.479 7.504 7.509 7.546 7.559 7.571 7.596 7.574 7.591 7.554 7.591 7.546 7.571 7.586 7.589 7.594 7.626 7.611 7.651 7.639 7.666 7.669 7.674 7.666 7.684 7.704 7.744 7.701 7.706 7.749 7.776 7.796 7.836 7.846 7.894 7.904 7.916 7.961 7.956 7.939 7.949 7.974 7.981 7.959 7.959 8.004 8.021 8.031 8.064 8.069 8.099 8.111 8.119 8.134 8.144 8.171 8.171 8.211 8.184 8.211 8.271 8.301 8.311 8.349 8.386 8.409 8.419 8.449 8.471 8.444 8.484 8.509 8.574 8.634 8.669 8.686 8.714 8.726 8.759 8.779 8.816 8.841 8.851 8.899 8.939 9.006 9.009 9.049 9.106 9.099 9.119 9.136 9.111 9.126 9.099 9.136 9.174 9.169 9.189 9.196 9.201 9.239 9.279 9.254 9.306 9.321 9.356 9.376 9.394 9.394 9.456 9.481 9.509 9.506 9.584 9.571 9.593 9.606 9.631 9.634 9.646 9.712 9.736 9.758 9.777 9.813 9.831 9.839 9.877 9.872 9.916 9.924 9.969 10.004 10.019 10.039 10.049 10.056 10.086 10.119 10.126 10.181 10.184 10.219 10.209 10.226 10.269 10.241 10.324 10.309 10.339 10.351 10.384 10.411 10.424 10.474 10.489 10.516 10.514 10.566 10.604 10.579 10.604 10.619 10.656 10.666 10.659 10.726 10.726 10.711 10.696 10.806 10.886 10.976 11.041 11.176 11.376 11.289 11.306 11.351 11.301 11.299 11.274 11.301 11.266 11.306 11.301 11.296 11.279 11.286 11.366 11.324 11.361 11.379 11.419 11.394 11.414 11.394 11.431 11.449 11.441 11.504 11.506 11.489 11.506 11.574 11.571 11.629 11.646 11.654 11.671 11.689 11.716 11.724 11.734 11.774 11.786 11.789 11.844 11.864 11.901 11.924 11.904 11.954 12.044 12.039 12.054 12.121 12.136 12.194 12.209 12.251 12.274 12.276 12.299 12.304 12.346 12.304 12.339 12.361
6.859 6.803 6.775 6.807 6.788 6.751 6.735 6.728 6.699 6.706 6.636 6.604 6.607 6.611 6.614 6.569 6.551 6.494 6.536 6.561 6.561 6.516 6.491 6.529 6.511 6.566 6.554 6.506 6.489 6.494 6.494 6.501 6.504 6.491 6.471 6.484 6.489 6.491 6.481 6.489 6.464 6.506 6.526 6.496 6.461 6.449 6.436 6.411 6.391 6.391 6.364 6.404 6.351 6.311 6.289 6.289 6.266 6.266 6.226 6.219 6.254 6.204 6.199 6.179 6.156 6.134 6.144 6.146 6.154 6.129 6.084 6.076 6.101 6.021 6.016 6.039 6.059 6.024 6.011 6.011 6.019 5.994 5.964 5.943 5.894 5.875 5.896 5.923 5.924 5.88 5.839 5.76 5.717 5.675 5.636 5.466 5.099 5.544 6.214 6.271 6.264 6.241 6.319 6.439 6.619 5.349 6.034 6.51 6.478 6.532 6.559 6.556 6.588 6.63 6.641 6.647 7.265 8.279 7.025 6.284 6.296 6.434 6.299 5.946 6.267 6.21 6.189 6.192 6.238 6.251 6.266 6.279 6.289 6.296 6.341 6.356 6.359 6.356 6.374 6.379 6.424 6.419 6.441 6.466 6.506 6.516 6.529 6.549 6.544 6.551 6.566 6.589 6.624 6.626 6.609 6.634 6.639 6.666 6.661 6.674 6.689 6.719 6.741 6.751 6.754 6.794 6.821 6.844 6.844 6.879 6.891 6.884 6.886 6.901 6.921 6.929 6.974 6.981 6.961 6.996 7.019 7.056 7.081 7.079 7.101 7.116 7.119 7.141 7.146 7.136 7.181 7.204 7.191 7.209 7.211 7.236 7.256 7.259 7.316 7.341 7.401 7.586 8.141 8.914 9.319 9.536 9.881 10.126 10.281 10.311 10.294 10.239 9.931 9.399 9.144 10.436 8.316 7.354 7.314 7.289 7.294 7.336 7.366 7.331 7.326 7.304 7.321 7.361 7.384 7.391 7.401 7.396 7.376 7.366 7.451 7.511 7.499 7.544 7.554 7.551 7.514 7.539 7.534 7.541 7.546 7.571 7.564 7.561 7.554 7.601 7.566 7.601 7.624 7.636 7.644 7.664 7.646 7.691 7.676 7.721 7.694 7.686 7.734 7.764 7.796 7.756 7.824 7.849 7.901 7.919 7.944 7.924 7.939 7.959 7.954 7.966 7.941 7.964 7.964 7.991 8.014 8.041 8.066 8.081 8.129 8.116 8.131 8.114 8.149 8.121 8.186 8.214 8.224 8.246 8.269 8.304 8.324 8.349 8.386 8.394 8.431 8.444 8.471 8.521 8.526 8.564 8.606 8.641 8.674 8.716 8.741 8.761 8.776 8.781 8.796 8.854 8.906 8.926 8.979 9.021 9.066 9.121 9.094 9.094 9.106 9.111 9.094 9.101 9.111 9.136 9.141 9.194 9.186 9.211 9.219 9.274 9.249 9.284 9.309 9.336 9.351 9.401 9.394 9.446 9.469 9.489 9.496 9.516 9.546 9.597 9.621 9.633 9.646 9.646 9.708 9.714 9.746 9.767 9.812 9.826 9.823 9.864 9.839 9.907 9.906 9.974 9.989 10.001 10.024 10.001 10.054 10.071 10.089 10.111 10.144 10.146 10.184 10.211 10.219 10.251 10.244 10.286 10.311 10.314 10.359 10.369 10.399 10.421 10.429 10.466 10.491 10.521 10.546 10.599 10.561 10.576 10.609 10.636 10.671 10.646 10.714 10.721 10.709 10.644 10.779 10.866 10.956 11.009 11.101 11.229 11.346 11.289 11.289 11.264 11.236 11.231 11.281 11.284 11.224 11.364 11.259 11.269 11.316 11.329 11.316 11.311 11.376 11.404 11.334 11.404 11.414 11.424 11.451 11.459 11.484 11.504 11.476 11.506 11.546 11.551 11.571 11.614 11.616 11.671 11.669 11.694 11.689 11.709 11.761 11.784 11.776 11.831 11.864 11.881 11.896 11.924 11.956 12.014 12.026 12.041 12.084 12.101 12.131 12.176 12.246 12.249 12.244 12.296 12.276 12.341 12.304 12.316 12.344
6.822 6.817 6.797 6.811 6.752 6.722 6.717 6.715 6.686 6.668 6.635 6.623 6.634 6.634 6.584 6.584 6.584 6.536 6.491 6.531 6.556 6.594 6.519 6.541 6.539 6.564 6.541 6.494 6.491 6.516 6.521 6.511 6.481 6.469 6.444 6.451 6.509 6.496 6.506 6.519 6.471 6.484 6.476 6.476 6.444 6.409 6.411 6.386 6.404 6.391 6.396 6.356 6.359 6.309 6.291 6.261 6.299 6.259 6.249 6.221 6.214 6.204 6.179 6.156 6.151 6.136 6.126 6.129 6.149 6.144 6.091 6.074 6.084 6.066 6.064 6.051 6.044 6.019 6.019 5.996 5.991 5.995 5.976 5.932 5.908 5.881 5.9 5.947 5.937 5.884 5.873 5.836 5.746 5.685 5.653 5.604 5.384 5.044 5.676 6.236 6.291 6.226 6.249 6.294 6.664 5.134 6.076 6.419 6.462 6.497 6.498 6.515 6.548 6.594 6.661 6.914 7.91 7.964 6.652 6.292 6.299 6.445 5.769 6.173 6.209 6.176 6.183 6.217 6.241 6.28 6.244 6.261 6.256 6.281 6.316 6.349 6.349 6.376 6.406 6.399 6.404 6.409 6.451 6.491 6.459 6.466 6.529 6.566 6.566 6.581 6.554 6.571 6.596 6.639 6.629 6.641 6.639 6.651 6.666 6.679 6.696 6.714 6.724 6.736 6.734 6.779 6.819 6.829 6.834 6.829 6.869 6.901 6.886 6.904 6.936 6.931 6.936 6.919 6.974 6.984 6.999 7.009 7.026 7.051 7.091 7.084 7.094 7.104 7.121 7.139 7.124 7.166 7.161 7.189 7.216 7.246 7.249 7.239 7.276 7.286 7.281 7.309 7.354 7.434 7.669 8.021 9.081 8.974 9.684 9.914 9.966 9.944 9.579 9.006 8.911 8.709 7.661 7.331 7.259 7.329 7.356 7.326 7.296 7.354 7.336 7.286 7.286 7.306 7.306 7.369 7.391 7.361 7.374 7.389 7.434 7.446 7.431 7.451 7.504 7.501 7.481 7.514 7.499 7.511 7.506 7.531 7.534 7.506 7.531 7.544 7.559 7.601 7.584 7.614 7.639 7.659 7.626 7.641 7.639 7.684 7.636 7.689 7.726 7.726 7.761 7.784 7.849 7.841 7.889 7.916 7.911 7.924 7.924 7.919 7.926 7.936 7.924 7.994 7.961 7.976 7.991 8.031 8.044 8.039 8.081 8.099 8.111 8.114 8.129 8.159 8.184 8.146 8.191 8.231 8.239 8.324 8.324 8.324 8.364 8.399 8.406 8.431 8.476 8.489 8.521 8.524 8.601 8.641 8.651 8.706 8.721 8.754 8.771 8.799 8.791 8.819 8.896 8.909 8.976 9.004 9.046 9.106 9.086 9.079 9.061 9.064 9.079 9.084 9.101 9.119 9.154 9.144 9.174 9.186 9.204 9.259 9.244 9.286 9.286 9.334 9.339 9.384 9.389 9.431 9.454 9.466 9.511 9.514 9.546 9.568 9.626 9.617 9.626 9.65 9.684 9.696 9.746 9.745 9.766 9.802 9.797 9.854 9.84 9.907 9.899 9.941 9.974 9.984 10.024 9.999 10.059 10.066 10.081 10.119 10.134 10.159 10.169 10.196 10.201 10.229 10.239 10.251 10.301 10.299 10.344 10.349 10.394 10.401 10.401 10.451 10.454 10.499 10.531 10.571 10.516 10.549 10.586 10.601 10.649 10.626 10.666 10.684 10.734 10.704 10.749 10.834 10.919 10.964 11.021 11.241 11.389 11.136 11.234 11.256 11.261 11.261 11.219 11.224 11.199 11.279 11.226 11.281 11.306 11.309 11.319 11.299 11.356 11.374 11.341 11.394 11.384 11.424 11.441 11.459 11.461 11.484 11.464 11.504 11.519 11.541 11.566 11.576 11.589 11.631 11.666 11.666 11.684 11.694 11.754 11.751 11.756 11.781 11.819 11.864 11.876 11.934 11.931 11.989 11.986 12.016 12.066 12.116 12.126 12.156 12.201 12.226 12.236 12.254 12.286 12.331 12.309 12.334 12.334
6.795 6.83 6.815 6.786 6.735 6.749 6.727 6.725 6.687 6.632 6.619 6.646 6.627 6.564 6.581 6.564 6.624 6.576 6.559 6.484 6.506 6.531 6.501 6.529 6.564 6.514 6.471 6.474 6.486 6.501 6.491 6.464 6.474 6.469 6.449 6.469 6.461 6.476 6.469 6.504 6.479 6.479 6.471 6.459 6.429 6.429 6.421 6.414 6.421 6.401 6.374 6.376 6.301 6.321 6.289 6.264 6.269 6.276 6.276 6.256 6.224 6.224 6.179 6.159 6.156 6.164 6.131 6.181 6.131 6.111 6.136 6.104 6.099 6.064 6.059 6.081 6.059 6.034 6.036 5.989 5.976 5.978 5.96 5.924 5.899 5.912 5.925 5.927 5.901 5.885 5.83 5.829 5.772 5.753 5.694 5.686 5.624 5.389 5.174 6.444 6.321 6.254 6.191 6.184 6.629 5.539 6.294 6.339 6.426 6.458 6.452 6.466 6.518 6.589 6.654 7.456 8.318 7.365 6.358 6.283 6.409 6.106 5.838 6.315 6.191 6.192 6.198 6.238 6.262 6.284 6.243 6.254 6.256 6.276 6.306 6.319 6.369 6.381 6.404 6.424 6.446 6.436 6.431 6.444 6.486 6.509 6.549 6.564 6.544 6.554 6.584 6.619 6.619 6.614 6.634 6.641 6.661 6.684 6.686 6.676 6.721 6.731 6.751 6.734 6.759 6.779 6.786 6.814 6.831 6.859 6.856 6.881 6.891 6.899 6.914 6.929 6.949 6.939 6.936 6.964 6.976 7.009 7.029 7.046 7.056 7.054 7.091 7.106 7.104 7.106 7.144 7.161 7.146 7.201 7.184 7.196 7.211 7.241 7.276 7.249 7.266 7.291 7.304 7.291 7.324 7.376 7.481 7.679 8.326 9.876 10.311 10.691 9.784 8.771 9.666 7.976 7.459 7.219 7.304 7.316 7.326 7.349 7.351 7.326 7.309 7.286 7.299 7.271 7.291 7.319 7.319 7.311 7.374 7.386 7.369 7.424 7.426 7.436 7.434 7.409 7.454 7.494 7.489 7.519 7.509 7.499 7.489 7.509 7.546 7.551 7.551 7.604 7.559 7.591 7.561 7.621 7.646 7.646 7.614 7.656 7.619 7.654 7.681 7.699 7.736 7.766 7.776 7.804 7.841 7.871 7.894 7.911 7.879 7.911 7.914 7.941 7.909 7.969 7.971 7.974 7.966 8.001 8.029 8.021 8.044 8.064 8.101 8.091 8.129 8.121 8.151 8.141 8.181 8.224 8.259 8.289 8.301 8.324 8.361 8.394 8.414 8.409 8.436 8.456 8.476 8.499 8.569 8.631 8.646 8.686 8.694 8.719 8.776 8.764 8.764 8.821 8.849 8.899 8.966 9.001 9.051 9.086 9.086 9.064 9.059 9.056 9.084 9.076 9.111 9.104 9.126 9.134 9.176 9.181 9.184 9.219 9.259 9.261 9.284 9.296 9.306 9.351 9.396 9.394 9.434 9.464 9.489 9.519 9.546 9.553 9.596 9.617 9.609 9.64 9.667 9.684 9.716 9.737 9.744 9.783 9.808 9.83 9.825 9.898 9.899 9.929 9.986 9.951 10.029 10.004 10.019 10.056 10.079 10.111 10.114 10.149 10.134 10.161 10.181 10.219 10.231 10.241 10.291 10.289 10.331 10.346 10.394 10.394 10.386 10.456 10.451 10.491 10.529 10.536 10.516 10.511 10.576 10.604 10.611 10.611 10.626 10.661 10.689 10.714 10.736 10.794 10.879 10.944 10.989 11.201 11.411 11.089 11.231 11.274 11.254 11.246 11.211 11.224 11.186 11.249 11.221 11.239 11.229 11.244 11.331 11.329 11.356 11.341 11.344 11.339 11.349 11.381 11.351 11.466 11.449 11.461 11.491 11.499 11.511 11.514 11.539 11.541 11.549 11.576 11.604 11.671 11.669 11.684 11.729 11.716 11.721 11.741 11.824 11.824 11.869 11.896 11.931 11.966 11.984 12.004 12.069 12.081 12.084 12.159 12.176 12.189 12.194 12.234 12.276 12.264 12.284 12.291 12.291
6.833 6.829 6.775 6.743 6.728 6.746 6.699 6.675 6.654 6.618 6.641 6.627 6.623 6.569 6.576 6.529 6.511 6.501 6.546 6.511 6.474 6.519 6.496 6.531 6.524 6.484 6.454 6.459 6.499 6.499 6.484 6.476 6.479 6.474 6.476 6.471 6.461 6.481 6.476 6.496 6.501 6.481 6.466 6.461 6.441 6.416 6.429 6.374 6.399 6.386 6.359 6.361 6.301 6.339 6.304 6.289 6.266 6.286 6.284 6.261 6.201 6.224 6.231 6.176 6.164 6.164 6.196 6.176 6.184 6.121 6.141 6.096 6.119 6.121 6.109 6.104 6.076 6.069 6.039 6.014 5.985 5.995 5.965 5.938 5.921 5.941 5.919 5.891 5.905 5.885 5.836 5.8 5.799 5.78 5.715 5.666 5.634 5.566 5.336 5.261 6.316 6.329 6.194 6.119 6.409 6.341 6.681 6.501 6.429 6.376 6.436 6.454 6.489 6.601 6.742 7.796 8.13 6.74 6.28 6.273 6.423 5.772 6.151 6.263 6.197 6.19 6.195 6.258 6.273 6.251 6.241 6.257 6.282 6.316 6.324 6.319 6.346 6.364 6.376 6.374 6.424 6.446 6.451 6.461 6.494 6.519 6.511 6.549 6.561 6.581 6.579 6.591 6.604 6.609 6.631 6.649 6.661 6.671 6.679 6.699 6.709 6.706 6.716 6.759 6.779 6.784 6.794 6.796 6.836 6.841 6.864 6.854 6.891 6.899 6.919 6.899 6.914 6.949 6.956 6.974 6.969 6.969 6.991 7.029 7.049 7.041 7.076 7.054 7.091 7.116 7.134 7.139 7.159 7.141 7.184 7.179 7.209 7.214 7.234 7.239 7.254 7.274 7.264 7.281 7.291 7.279 7.301 7.336 7.389 7.649 7.939 8.466 8.964 9.286 10.874 9.091 8.044 7.294 7.331 7.331 7.364 7.351 7.404 7.351 7.274 7.331 7.304 7.299 7.311 7.306 7.276 7.299 7.334 7.319 7.361 7.371 7.419 7.424 7.419 7.421 7.396 7.399 7.414 7.454 7.501 7.454 7.459 7.486 7.516 7.551 7.559 7.599 7.574 7.576 7.574 7.606 7.574 7.611 7.611 7.639 7.631 7.674 7.681 7.674 7.744 7.754 7.804 7.826 7.834 7.884 7.854 7.899 7.864 7.881 7.874 7.901 7.899 7.919 7.939 7.956 8.001 8.006 8.006 8.004 8.046 8.056 8.081 8.069 8.074 8.106 8.121 8.154 8.139 8.206 8.239 8.244 8.294 8.284 8.366 8.341 8.371 8.389 8.414 8.459 8.494 8.536 8.576 8.601 8.621 8.689 8.704 8.721 8.754 8.756 8.741 8.806 8.821 8.904 8.961 8.974 9.049 9.056 9.051 9.044 9.056 9.054 9.079 9.059 9.091 9.079 9.096 9.101 9.141 9.164 9.204 9.216 9.241 9.241 9.246 9.286 9.301 9.351 9.384 9.366 9.421 9.431 9.476 9.529 9.549 9.538 9.591 9.597 9.61 9.648 9.657 9.685 9.705 9.743 9.759 9.785 9.796 9.814 9.827 9.865 9.901 9.916 9.959 9.956 10.006 9.999 10.024 10.056 10.059 10.114 10.099 10.129 10.134 10.149 10.176 10.199 10.226 10.219 10.256 10.271 10.324 10.349 10.371 10.381 10.371 10.426 10.441 10.476 10.509 10.499 10.509 10.489 10.561 10.561 10.579 10.616 10.616 10.651 10.676 10.686 10.656 10.744 10.861 10.906 10.954 11.111 11.301 11.249 11.211 11.256 11.249 11.236 11.186 11.204 11.189 11.211 11.316 11.234 11.181 11.271 11.291 11.309 11.361 11.324 11.351 11.329 11.366 11.314 11.346 11.456 11.419 11.424 11.469 11.491 11.489 11.529 11.556 11.546 11.541 11.579 11.574 11.686 11.671 11.679 11.739 11.709 11.714 11.744 11.814 11.809 11.854 11.864 11.914 11.934 11.979 11.996 12.054 12.066 12.079 12.106 12.114 12.151 12.204 12.249 12.261 12.251 12.271 12.269 12.294
6.793 6.798 6.782 6.75 6.733 6.702 6.677 6.652 6.605 6.604 6.632 6.602 6.605 6.581 6.569 6.599 6.581 6.546 6.536 6.556 6.506 6.531 6.536 6.539 6.504 6.476 6.461 6.474 6.489 6.466 6.464 6.471 6.459 6.461 6.484 6.481 6.466 6.496 6.501 6.519 6.481 6.464 6.446 6.449 6.409 6.389 6.424 6.376 6.384 6.341 6.381 6.306 6.319 6.344 6.334 6.279 6.271 6.274 6.239 6.244 6.206 6.194 6.206 6.186 6.159 6.174 6.129 6.161 6.136 6.136 6.111 6.114 6.116 6.104 6.094 6.084 6.051 6.049 6.024 6.016 6.035 5.977 5.988 5.979 5.995 5.965 5.947 5.909 5.923 5.866 5.851 5.802 5.784 5.764 5.733 5.689 5.649 5.621 5.606 5.299 6.096 6.466 6.264 6.141 6.074 6.089 6.146 6.396 6.551 6.484 6.496 6.436 6.472 6.586 7.299 8.465 7.558 6.284 6.247 6.337 6.148 5.765 6.327 6.185 6.165 6.178 6.251 6.268 6.28 6.254 6.256 6.297 6.297 6.3 6.309 6.339 6.339 6.361 6.391 6.386 6.379 6.421 6.461 6.461 6.491 6.514 6.524 6.541 6.541 6.559 6.564 6.589 6.626 6.621 6.631 6.644 6.674 6.666 6.686 6.714 6.684 6.691 6.699 6.729 6.744 6.774 6.811 6.794 6.811 6.841 6.869 6.881 6.904 6.921 6.894 6.894 6.926 6.924 6.936 6.954 6.984 6.974 6.979 6.994 7.004 7.026 7.051 7.076 7.064 7.074 7.104 7.144 7.159 7.169 7.161 7.159 7.196 7.209 7.211 7.191 7.219 7.246 7.254 7.266 7.259 7.284 7.264 7.306 7.296 7.314 7.349 7.424 7.564 7.939 8.399 9.164 9.226 8.241 7.364 7.331 7.324 7.321 7.301 7.336 7.289 7.261 7.326 7.324 7.329 7.321 7.239 7.309 7.299 7.309 7.299 7.334 7.376 7.344 7.386 7.369 7.401 7.396 7.349 7.386 7.356 7.411 7.431 7.486 7.506 7.516 7.529 7.586 7.551 7.566 7.569 7.586 7.566 7.596 7.634 7.621 7.621 7.634 7.651 7.686 7.721 7.744 7.791 7.814 7.819 7.854 7.859 7.846 7.886 7.879 7.869 7.866 7.904 7.876 7.939 7.926 7.999 7.961 7.994 7.974 8.044 8.049 8.041 8.074 8.071 8.081 8.086 8.141 8.159 8.189 8.239 8.254 8.296 8.301 8.339 8.314 8.376 8.389 8.419 8.421 8.461 8.546 8.584 8.591 8.609 8.669 8.674 8.731 8.726 8.749 8.736 8.794 8.839 8.911 8.941 8.991 9.034 9.051 9.054 9.049 9.029 9.046 9.036 9.039 9.051 9.071 9.084 9.101 9.139 9.156 9.204 9.194 9.201 9.229 9.249 9.266 9.284 9.341 9.369 9.369 9.424 9.421 9.459 9.481 9.539 9.534 9.547 9.586 9.61 9.65 9.651 9.678 9.686 9.723 9.734 9.754 9.798 9.793 9.824 9.84 9.909 9.901 9.944 9.949 9.966 9.989 10.011 10.021 10.039 10.109 10.084 10.121 10.129 10.116 10.174 10.179 10.216 10.221 10.239 10.271 10.289 10.339 10.349 10.339 10.376 10.414 10.429 10.449 10.494 10.469 10.509 10.479 10.551 10.561 10.559 10.594 10.591 10.649 10.669 10.656 10.601 10.731 10.821 10.899 10.906 11.019 11.104 11.279 11.194 11.219 11.229 11.206 11.164 11.176 11.176 11.184 11.266 11.199 11.214 11.251 11.311 11.316 11.356 11.304 11.336 11.314 11.321 11.329 11.359 11.389 11.379 11.409 11.444 11.461 11.466 11.514 11.509 11.544 11.531 11.581 11.586 11.636 11.646 11.669 11.686 11.704 11.711 11.766 11.784 11.764 11.786 11.814 11.906 11.901 11.951 12.001 12.021 12.031 12.061 12.094 12.079 12.134 12.179 12.189 12.224 12.224 12.241 12.284 12.281
6.789 6.776 6.749 6.714 6.709 6.661 6.653 6.638 6.612 6.637 6.641 6.619 6.577 6.549 6.551 6.566 6.581 6.509 6.469 6.501 6.524 6.541 6.524 6.519 6.476 6.479 6.464 6.484 6.486 6.441 6.481 6.459 6.456 6.519 6.481 6.484 6.489 6.499 6.511 6.494 6.481 6.461 6.464 6.436 6.394 6.406 6.416 6.399 6.381 6.361 6.321 6.311 6.319 6.366 6.309 6.306 6.316 6.266 6.259 6.211 6.191 6.181 6.199 6.171 6.204 6.181 6.174 6.181 6.159 6.144 6.141 6.124 6.151 6.101 6.106 6.094 6.091 6.064 6.064 6.051 6.039 5.962 5.973 6.004 6.013 5.971 5.934 5.942 5.893 5.881 5.831 5.828 5.812 5.773 5.759 5.734 5.676 5.684 5.646 5.629 5.686 6.179 6.774 6.371 6.504 6.161 6.139 6.821 6.689 6.271 6.264 6.334 6.369 6.504 7.284 8.011 6.606 6.254 6.245 6.31 5.727 6.206 6.231 6.184 6.206 6.236 6.265 6.304 6.297 6.265 6.282 6.301 6.306 6.319 6.356 6.341 6.324 6.354 6.361 6.399 6.401 6.414 6.436 6.436 6.456 6.496 6.551 6.544 6.571 6.579 6.581 6.571 6.606 6.621 6.626 6.646 6.674 6.676 6.676 6.691 6.721 6.736 6.731 6.746 6.736 6.759 6.779 6.816 6.819 6.856 6.839 6.869 6.884 6.901 6.911 6.926 6.916 6.916 6.929 6.956 6.961 6.971 6.966 6.989 7.011 7.019 7.049 7.044 7.061 7.074 7.089 7.099 7.096 7.144 7.176 7.169 7.154 7.154 7.149 7.156 7.201 7.209 7.226 7.231 7.244 7.276 7.261 7.266 7.284 7.281 7.304 7.304 7.299 7.339 7.389 7.614 8.329 8.936 9.014 8.474 7.586 7.301 7.334 7.311 7.309 7.294 7.331 7.339 7.339 7.291 7.304 7.316 7.349 7.326 7.341 7.344 7.379 7.364 7.356 7.321 7.374 7.376 7.364 7.356 7.394 7.329 7.386 7.401 7.446 7.496 7.526 7.559 7.544 7.541 7.539 7.551 7.584 7.571 7.624 7.569 7.611 7.614 7.619 7.664 7.684 7.716 7.744 7.814 7.794 7.831 7.841 7.859 7.861 7.871 7.841 7.861 7.886 7.864 7.914 7.924 7.964 7.961 7.981 7.966 8.006 8.056 8.041 8.036 8.046 8.069 8.101 8.121 8.136 8.186 8.199 8.236 8.266 8.276 8.316 8.321 8.361 8.366 8.421 8.431 8.439 8.506 8.539 8.551 8.601 8.641 8.676 8.716 8.711 8.709 8.754 8.769 8.836 8.894 8.929 8.971 9.021 9.029 9.041 9.019 9.044 9.016 9.059 9.019 9.039 9.064 9.066 9.106 9.129 9.159 9.161 9.189 9.194 9.251 9.241 9.231 9.289 9.326 9.334 9.356 9.399 9.401 9.439 9.446 9.514 9.526 9.567 9.585 9.571 9.614 9.629 9.665 9.686 9.703 9.725 9.75 9.798 9.781 9.828 9.82 9.899 9.889 9.914 9.944 9.919 9.974 9.994 10.016 10.029 10.064 10.069 10.094 10.124 10.121 10.164 10.169 10.194 10.204 10.221 10.266 10.271 10.316 10.324 10.334 10.376 10.384 10.416 10.451 10.474 10.434 10.461 10.486 10.514 10.539 10.536 10.591 10.579 10.624 10.654 10.679 10.676 10.709 10.806 10.854 10.906 10.934 11.114 11.309 11.049 11.179 11.224 11.201 11.179 11.181 11.151 11.141 11.194 11.196 11.229 11.196 11.274 11.319 11.331 11.289 11.329 11.319 11.311 11.346 11.349 11.346 11.374 11.369 11.404 11.424 11.444 11.484 11.486 11.524 11.539 11.559 11.594 11.591 11.609 11.644 11.651 11.689 11.696 11.764 11.759 11.776 11.741 11.771 11.871 11.864 11.936 11.956 12.016 12.006 12.051 12.096 12.111 12.166 12.169 12.149 12.216 12.221 12.259 12.249 12.249
6.785 6.765 6.76 6.71 6.697 6.701 6.629 6.626 6.616 6.626 6.609 6.598 6.594 6.501 6.481 6.524 6.559 6.606 6.499 6.469 6.456 6.519 6.509 6.461 6.436 6.481 6.489 6.501 6.476 6.469 6.461 6.474 6.484 6.476 6.506 6.499 6.521 6.499 6.539 6.469 6.484 6.479 6.464 6.464 6.416 6.441 6.406 6.386 6.376 6.381 6.344 6.354 6.321 6.336 6.281 6.276 6.296 6.226 6.236 6.221 6.221 6.184 6.176 6.149 6.184 6.156 6.156 6.149 6.144 6.106 6.136 6.126 6.099 6.111 6.109 6.136 6.096 6.084 6.069 6.079 6.028 6.006 6 6.01 5.976 5.978 5.958 5.934 5.898 5.876 5.851 5.811 5.817 5.804 5.845 5.796 5.739 5.651 5.611 5.606 5.509 5.311 6.176 7.439 8.161 9.174 8.581 9.329 8.386 6.866 6.249 6.306 6.346 6.394 6.506 6.565 6.228 6.236 6.246 6.218 5.612 6.364 6.232 6.225 6.234 6.304 6.296 6.332 6.32 6.31 6.309 6.32 6.33 6.345 6.346 6.334 6.354 6.349 6.359 6.371 6.384 6.404 6.414 6.456 6.479 6.476 6.489 6.511 6.546 6.551 6.576 6.584 6.599 6.609 6.626 6.654 6.656 6.699 6.704 6.709 6.719 6.721 6.729 6.774 6.784 6.769 6.789 6.789 6.826 6.849 6.866 6.869 6.859 6.881 6.899 6.894 6.924 6.921 6.954 6.921 6.946 6.974 6.976 6.976 7.009 7.006 7.036 7.039 7.044 7.046 7.056 7.056 7.106 7.084 7.096 7.141 7.164 7.174 7.169 7.154 7.149 7.146 7.176 7.201 7.204 7.211 7.254 7.254 7.261 7.269 7.271 7.286 7.284 7.294 7.296 7.326 7.349 7.426 7.641 8.469 9.004 8.564 7.704 7.326 7.279 7.351 7.334 7.286 7.289 7.326 7.339 7.309 7.304 7.321 7.354 7.359 7.346 7.351 7.339 7.349 7.361 7.319 7.306 7.334 7.346 7.331 7.371 7.329 7.316 7.391 7.474 7.494 7.506 7.504 7.521 7.486 7.544 7.554 7.629 7.566 7.591 7.604 7.606 7.641 7.674 7.706 7.716 7.786 7.779 7.794 7.824 7.831 7.861 7.849 7.831 7.866 7.861 7.871 7.901 7.906 7.926 7.974 7.939 7.961 7.986 8.046 8.024 8.044 8.051 8.049 8.071 8.109 8.129 8.151 8.196 8.199 8.244 8.289 8.299 8.291 8.334 8.344 8.386 8.416 8.441 8.519 8.526 8.556 8.611 8.639 8.639 8.659 8.684 8.681 8.736 8.786 8.844 8.874 8.901 8.986 9.014 8.999 9.024 9.031 9.041 9.009 9.011 9.034 9.011 9.061 9.056 9.109 9.106 9.134 9.171 9.169 9.194 9.189 9.214 9.224 9.261 9.321 9.326 9.336 9.379 9.394 9.431 9.429 9.496 9.514 9.537 9.576 9.575 9.614 9.601 9.654 9.669 9.698 9.719 9.714 9.769 9.761 9.815 9.811 9.859 9.879 9.891 9.921 9.919 9.966 9.976 9.984 10.014 10.041 10.066 10.066 10.104 10.106 10.139 10.141 10.176 10.201 10.211 10.264 10.259 10.289 10.309 10.301 10.371 10.354 10.394 10.431 10.459 10.419 10.446 10.454 10.476 10.521 10.521 10.576 10.591 10.614 10.639 10.661 10.684 10.669 10.759 10.836 10.899 10.899 11.126 11.346 11.036 11.136 11.209 11.201 11.169 11.179 11.191 11.171 11.196 11.159 11.206 11.191 11.219 11.284 11.311 11.269 11.301 11.306 11.321 11.341 11.341 11.359 11.359 11.366 11.394 11.416 11.424 11.434 11.484 11.504 11.531 11.544 11.591 11.561 11.574 11.624 11.639 11.649 11.694 11.704 11.736 11.766 11.776 11.774 11.849 11.864 11.881 11.926 11.981 11.969 12.026 12.059 12.104 12.141 12.144 12.121 12.191 12.204 12.231 12.251 12.221
6.749 6.739 6.758 6.726 6.701 6.674 6.612 6.627 6.618 6.62 6.578 6.563 6.531 6.566 6.516 6.484 6.449 6.504 6.479 6.501 6.474 6.514 6.449 6.436 6.456 6.481 6.489 6.496 6.461 6.459 6.456 6.459 6.461 6.459 6.489 6.479 6.471 6.494 6.474 6.474 6.461 6.454 6.461 6.419 6.446 6.421 6.421 6.364 6.374 6.324 6.339 6.349 6.324 6.309 6.309 6.301 6.286 6.254 6.251 6.256 6.239 6.226 6.204 6.216 6.226 6.199 6.186 6.164 6.171 6.141 6.139 6.156 6.096 6.106 6.096 6.084 6.071 6.074 6.079 6.051 5.991 6.019 6.018 5.995 5.975 5.946 5.96 5.951 5.886 5.859 5.829 5.81 5.82 5.817 5.791 5.786 5.776 5.696 5.624 5.596 5.619 5.491 5.454 7.546 9.114 10.574 10.381 10.266 9.814 8.234 6.771 6.601 6.516 6.544 7.251 6.253 6.197 6.195 6.384 5.583 6.131 6.224 6.215 6.267 6.354 6.352 6.369 6.362 6.331 6.324 6.351 6.309 6.328 6.366 6.348 6.344 6.348 6.359 6.364 6.376 6.409 6.409 6.396 6.421 6.434 6.469 6.496 6.516 6.531 6.521 6.546 6.559 6.584 6.611 6.611 6.644 6.641 6.674 6.679 6.681 6.694 6.716 6.781 6.761 6.766 6.799 6.806 6.819 6.829 6.836 6.854 6.874 6.861 6.879 6.911 6.926 6.911 6.906 6.934 6.951 6.954 6.966 6.959 6.964 6.996 6.996 7.016 7.031 7.041 7.061 7.059 7.071 7.069 7.071 7.099 7.091 7.136 7.136 7.154 7.194 7.196 7.149 7.136 7.146 7.159 7.194 7.191 7.204 7.234 7.246 7.251 7.261 7.276 7.276 7.284 7.294 7.301 7.319 7.319 7.366 7.466 7.986 8.519 8.399 7.871 7.414 7.324 7.281 7.291 7.309 7.294 7.296 7.344 7.329 7.339 7.359 7.374 7.316 7.339 7.299 7.289 7.281 7.291 7.299 7.311 7.266 7.374 7.346 7.376 7.361 7.379 7.356 7.461 7.499 7.496 7.494 7.509 7.526 7.581 7.531 7.546 7.591 7.589 7.651 7.644 7.666 7.746 7.761 7.739 7.811 7.819 7.804 7.829 7.836 7.816 7.826 7.841 7.849 7.854 7.881 7.921 7.954 7.911 7.941 7.966 8.006 7.994 8.044 8.006 8.021 8.071 8.061 8.149 8.151 8.174 8.211 8.246 8.251 8.291 8.304 8.321 8.334 8.351 8.391 8.421 8.501 8.526 8.526 8.596 8.624 8.644 8.679 8.689 8.681 8.726 8.761 8.844 8.864 8.914 8.981 8.986 9.046 8.989 8.996 8.989 9.026 9.006 9.031 9.031 9.031 9.051 9.104 9.101 9.139 9.151 9.159 9.169 9.194 9.214 9.234 9.266 9.309 9.309 9.324 9.356 9.399 9.426 9.439 9.479 9.521 9.528 9.541 9.552 9.581 9.607 9.636 9.665 9.674 9.698 9.709 9.741 9.743 9.794 9.812 9.824 9.866 9.856 9.921 9.899 9.929 9.976 9.979 10.021 10.031 10.041 10.059 10.076 10.091 10.116 10.136 10.159 10.204 10.196 10.244 10.234 10.269 10.299 10.286 10.349 10.341 10.386 10.436 10.441 10.419 10.444 10.454 10.471 10.499 10.526 10.569 10.601 10.599 10.649 10.666 10.649 10.571 10.714 10.801 10.869 10.896 11.061 11.191 11.156 11.096 11.164 11.196 11.181 11.151 11.174 11.141 11.191 11.209 11.139 11.191 11.184 11.291 11.291 11.259 11.294 11.284 11.299 11.296 11.329 11.366 11.314 11.354 11.374 11.409 11.379 11.399 11.456 11.459 11.514 11.511 11.549 11.546 11.569 11.584 11.609 11.614 11.676 11.684 11.696 11.744 11.774 11.781 11.836 11.841 11.876 11.904 11.966 11.981 12.029 12.024 12.091 12.119 12.139 12.161 12.191 12.194 12.224 12.224 12.234
6.783 6.756 6.737 6.693 6.662 6.62 6.589 6.602 6.617 6.597 6.589 6.547 6.496 6.536 6.571 6.539 6.531 6.481 6.464 6.484 6.506 6.469 6.426 6.421 6.469 6.439 6.446 6.429 6.449 6.429 6.444 6.451 6.474 6.486 6.499 6.511 6.491 6.499 6.506 6.476 6.464 6.421 6.441 6.404 6.431 6.406 6.401 6.414 6.334 6.336 6.361 6.336 6.324 6.304 6.281 6.266 6.254 6.271 6.249 6.221 6.256 6.204 6.204 6.191 6.176 6.181 6.181 6.151 6.134 6.141 6.169 6.144 6.159 6.101 6.081 6.061 6.066 6.059 6.044 6.009 6.026 6.038 6.014 6.019 6 5.981 5.972 5.933 5.897 5.869 5.863 5.81 5.815 5.846 5.834 5.799 5.771 5.746 5.699 5.634 5.591 5.599 5.684 7.934 9.916 10.481 10.531 10.979 10.861 9.511 7.079 6.329 6.816 7.894 7.364 6.189 6.207 6.195 6.214 5.534 6.239 6.184 6.224 6.297 6.351 6.386 6.373 6.358 6.333 6.329 6.354 6.338 6.343 6.348 6.341 6.362 6.367 6.375 6.376 6.384 6.391 6.406 6.439 6.446 6.434 6.464 6.464 6.499 6.496 6.539 6.554 6.581 6.586 6.589 6.596 6.616 6.641 6.651 6.671 6.694 6.689 6.711 6.746 6.739 6.764 6.814 6.814 6.821 6.821 6.841 6.834 6.881 6.891 6.881 6.906 6.904 6.911 6.929 6.931 6.926 6.919 6.929 6.964 6.954 6.959 6.979 6.971 7.004 7.016 7.039 7.029 7.054 7.064 7.084 7.081 7.081 7.096 7.086 7.111 7.129 7.139 7.144 7.171 7.169 7.156 7.146 7.164 7.184 7.194 7.216 7.196 7.244 7.241 7.239 7.279 7.276 7.299 7.309 7.321 7.301 7.324 7.334 7.391 7.566 7.854 8.054 8.096 7.649 7.369 7.299 7.306 7.336 7.264 7.291 7.299 7.301 7.341 7.304 7.309 7.336 7.304 7.294 7.296 7.276 7.251 7.264 7.304 7.316 7.406 7.406 7.394 7.419 7.439 7.456 7.456 7.461 7.516 7.526 7.549 7.534 7.516 7.596 7.576 7.649 7.659 7.674 7.709 7.729 7.746 7.764 7.806 7.786 7.801 7.811 7.811 7.794 7.846 7.836 7.834 7.869 7.891 7.936 7.914 7.974 7.984 7.971 7.989 7.999 8.026 8.034 8.056 8.049 8.119 8.131 8.161 8.199 8.219 8.246 8.266 8.284 8.296 8.346 8.319 8.384 8.421 8.479 8.509 8.534 8.599 8.626 8.629 8.651 8.661 8.696 8.704 8.761 8.819 8.859 8.921 8.959 8.966 9.009 8.994 8.994 9.006 9.014 8.991 8.991 9.034 9.039 9.051 9.071 9.099 9.134 9.141 9.166 9.176 9.179 9.174 9.239 9.289 9.291 9.321 9.336 9.321 9.381 9.406 9.424 9.469 9.509 9.522 9.519 9.559 9.574 9.582 9.61 9.651 9.669 9.71 9.706 9.723 9.744 9.771 9.802 9.815 9.859 9.866 9.904 9.911 9.924 9.951 9.971 10.024 10.006 10.024 10.049 10.054 10.081 10.096 10.131 10.139 10.179 10.166 10.234 10.224 10.246 10.284 10.289 10.321 10.334 10.369 10.421 10.426 10.416 10.396 10.441 10.459 10.494 10.524 10.544 10.589 10.576 10.611 10.636 10.651 10.551 10.671 10.779 10.846 10.854 10.941 11.081 11.246 11.071 11.126 11.164 11.159 11.134 11.159 11.111 11.139 11.104 11.091 11.164 11.224 11.284 11.266 11.276 11.241 11.241 11.234 11.231 11.341 11.341 11.329 11.349 11.364 11.354 11.404 11.416 11.429 11.439 11.451 11.486 11.531 11.514 11.561 11.589 11.566 11.606 11.649 11.691 11.694 11.706 11.754 11.779 11.799 11.841 11.879 11.886 11.914 11.971 12.006 12.026 12.094 12.109 12.099 12.159 12.151 12.181 12.206 12.174 12.216
6.764 6.738 6.724 6.65 6.631 6.601 6.636 6.63 6.606 6.596 6.585 6.556 6.506 6.479 6.486 6.534 6.506 6.476 6.474 6.504 6.464 6.454 6.419 6.434 6.469 6.466 6.441 6.446 6.429 6.449 6.464 6.431 6.469 6.469 6.481 6.479 6.476 6.464 6.459 6.454 6.449 6.426 6.436 6.434 6.409 6.414 6.389 6.386 6.361 6.386 6.374 6.349 6.316 6.324 6.306 6.281 6.269 6.269 6.261 6.221 6.204 6.221 6.204 6.171 6.166 6.176 6.169 6.144 6.189 6.156 6.141 6.161 6.144 6.134 6.099 6.106 6.071 6.079 6.026 5.989 6.047 6.04 6.017 5.996 6.007 5.981 5.94 5.93 5.888 5.838 5.852 5.818 5.864 5.856 5.801 5.806 5.801 5.766 5.711 5.684 5.604 5.646 5.624 6.614 8.439 8.946 9.284 10.596 10.236 8.694 6.436 6.511 7.624 8.011 6.844 6.176 6.154 6.311 5.565 6.041 6.139 6.128 6.217 6.305 6.357 6.355 6.302 6.331 6.332 6.321 6.323 6.322 6.356 6.352 6.361 6.352 6.344 6.378 6.397 6.404 6.421 6.401 6.424 6.424 6.459 6.494 6.489 6.516 6.511 6.524 6.541 6.564 6.604 6.599 6.594 6.634 6.634 6.654 6.674 6.706 6.716 6.739 6.744 6.741 6.779 6.766 6.806 6.806 6.831 6.836 6.846 6.854 6.846 6.889 6.924 6.916 6.929 6.919 6.929 6.934 6.929 6.946 6.941 6.954 6.976 6.979 7.006 7.006 7.016 7.026 7.036 7.069 7.046 7.079 7.079 7.096 7.104 7.099 7.106 7.114 7.119 7.124 7.099 7.139 7.161 7.166 7.161 7.191 7.141 7.161 7.179 7.226 7.231 7.229 7.229 7.246 7.274 7.279 7.299 7.314 7.311 7.319 7.296 7.314 7.339 7.451 7.741 8.064 8.371 8.049 7.751 7.401 7.286 7.314 7.271 7.281 7.311 7.254 7.236 7.244 7.319 7.331 7.309 7.264 7.274 7.334 7.341 7.311 7.319 7.369 7.414 7.424 7.416 7.494 7.479 7.426 7.449 7.484 7.571 7.499 7.519 7.561 7.586 7.621 7.641 7.674 7.691 7.734 7.761 7.746 7.761 7.774 7.796 7.776 7.811 7.816 7.834 7.836 7.834 7.854 7.861 7.899 7.889 7.934 7.954 7.964 7.946 7.999 7.999 7.989 8.071 8.051 8.104 8.101 8.139 8.166 8.201 8.239 8.246 8.276 8.284 8.311 8.311 8.366 8.424 8.449 8.499 8.534 8.534 8.601 8.611 8.611 8.639 8.681 8.691 8.754 8.834 8.849 8.909 8.946 8.949 8.981 8.949 8.979 8.984 8.984 8.959 9.001 9.006 9.031 9.031 9.076 9.084 9.119 9.126 9.129 9.136 9.169 9.204 9.229 9.254 9.284 9.306 9.311 9.336 9.361 9.371 9.436 9.456 9.496 9.502 9.531 9.565 9.579 9.586 9.613 9.649 9.667 9.685 9.706 9.707 9.74 9.749 9.808 9.802 9.849 9.844 9.871 9.886 9.926 9.946 9.959 10.001 10.006 10.026 10.041 10.056 10.081 10.076 10.111 10.129 10.176 10.181 10.211 10.216 10.231 10.266 10.289 10.309 10.334 10.354 10.416 10.404 10.404 10.379 10.454 10.449 10.469 10.519 10.539 10.591 10.594 10.601 10.636 10.646 10.616 10.651 10.759 10.824 10.889 10.906 11.099 11.266 10.939 11.081 11.184 11.159 11.144 11.154 11.166 11.136 11.119 11.186 11.151 11.206 11.264 11.229 11.274 11.261 11.241 11.209 11.219 11.321 11.321 11.299 11.321 11.351 11.369 11.399 11.394 11.431 11.406 11.436 11.481 11.506 11.509 11.531 11.584 11.546 11.609 11.649 11.666 11.656 11.709 11.726 11.761 11.779 11.806 11.861 11.904 11.896 11.961 11.974 12.026 12.016 12.049 12.064 12.131 12.161 12.179 12.194 12.209 12.224
6.748 6.731 6.685 6.659 6.633 6.604 6.622 6.617 6.602 6.596 6.546 6.518 6.509 6.501 6.474 6.444 6.426 6.504 6.506 6.421 6.459 6.376 6.399 6.401 6.461 6.456 6.429 6.441 6.431 6.436 6.431 6.439 6.474 6.464 6.486 6.486 6.464 6.449 6.429 6.429 6.411 6.399 6.406 6.394 6.401 6.369 6.376 6.351 6.349 6.344 6.324 6.344 6.304 6.316 6.286 6.261 6.274 6.256 6.226 6.236 6.191 6.191 6.184 6.191 6.164 6.169 6.154 6.196 6.171 6.179 6.154 6.181 6.149 6.144 6.146 6.119 6.081 6.066 6.056 6.064 6.071 6.085 6.072 6.026 6.028 5.991 5.938 5.92 5.897 5.855 5.848 5.852 5.828 5.831 5.836 5.856 5.809 5.784 5.791 5.744 5.634 5.584 5.604 5.674 5.779 6.211 6.799 7.424 8.069 7.221 6.429 7.276 8.241 7.744 6.619 6.184 6.194 6.784 6.108 6.104 6.098 6.121 6.214 6.317 6.346 6.316 6.285 6.315 6.321 6.336 6.348 6.347 6.366 6.371 6.379 6.369 6.371 6.396 6.365 6.401 6.397 6.419 6.434 6.466 6.454 6.466 6.491 6.504 6.519 6.496 6.531 6.561 6.581 6.569 6.604 6.631 6.646 6.634 6.664 6.671 6.694 6.729 6.764 6.774 6.781 6.764 6.771 6.791 6.809 6.826 6.854 6.861 6.871 6.881 6.874 6.896 6.914 6.931 6.914 6.921 6.926 6.941 6.939 6.964 6.981 6.941 6.941 6.989 7.009 7.024 7.019 7.001 7.034 7.089 7.076 7.049 7.071 7.099 7.106 7.109 7.111 7.106 7.129 7.109 7.106 7.119 7.134 7.174 7.209 7.181 7.159 7.169 7.201 7.211 7.239 7.216 7.209 7.271 7.301 7.284 7.291 7.291 7.304 7.271 7.289 7.294 7.331 7.341 7.456 7.829 8.369 8.356 8.289 7.669 7.296 7.349 7.286 7.239 7.236 7.234 7.231 7.249 7.296 7.249 7.306 7.296 7.294 7.274 7.389 7.369 7.351 7.374 7.426 7.429 7.449 7.446 7.436 7.461 7.449 7.439 7.471 7.531 7.536 7.584 7.614 7.656 7.701 7.699 7.734 7.744 7.764 7.766 7.774 7.754 7.761 7.804 7.796 7.799 7.826 7.841 7.864 7.909 7.909 7.891 7.954 7.961 7.961 7.974 8.009 7.979 8.034 8.029 8.076 8.109 8.126 8.136 8.169 8.194 8.216 8.256 8.304 8.286 8.341 8.374 8.416 8.424 8.484 8.544 8.554 8.566 8.606 8.594 8.641 8.664 8.704 8.766 8.811 8.839 8.896 8.936 8.946 8.989 8.964 8.976 8.994 8.989 8.989 8.999 9.029 9.019 9.064 9.066 9.084 9.116 9.109 9.151 9.159 9.144 9.201 9.216 9.244 9.296 9.256 9.336 9.311 9.366 9.351 9.421 9.424 9.459 9.498 9.493 9.568 9.55 9.587 9.59 9.622 9.657 9.663 9.701 9.685 9.722 9.728 9.793 9.797 9.844 9.859 9.826 9.879 9.916 9.936 9.959 9.991 9.999 10.019 10.039 10.044 10.064 10.064 10.119 10.096 10.154 10.174 10.184 10.196 10.204 10.249 10.269 10.294 10.324 10.356 10.399 10.374 10.389 10.386 10.419 10.459 10.434 10.489 10.524 10.559 10.589 10.596 10.636 10.651 10.621 10.611 10.729 10.774 10.844 10.884 11.031 11.191 11.101 11.044 11.164 11.149 11.139 11.119 11.159 11.136 11.131 11.246 11.146 11.194 11.231 11.239 11.246 11.254 11.239 11.241 11.266 11.296 11.281 11.261 11.279 11.339 11.346 11.396 11.384 11.421 11.419 11.434 11.459 11.464 11.494 11.554 11.559 11.571 11.594 11.636 11.649 11.631 11.656 11.654 11.761 11.749 11.816 11.849 11.851 11.879 11.934 11.959 11.954 11.966 12.069 12.051 12.104 12.119 12.144 12.194 12.221 12.206
6.744 6.724 6.673 6.657 6.62 6.621 6.613 6.585 6.592 6.544 6.49 6.506 6.521 6.514 6.479 6.474 6.429 6.474 6.461 6.354 6.466 6.451 6.381 6.424 6.419 6.391 6.401 6.424 6.409 6.431 6.449 6.469 6.474 6.449 6.466 6.454 6.464 6.426 6.439 6.419 6.414 6.396 6.409 6.384 6.371 6.386 6.379 6.369 6.359 6.331 6.326 6.321 6.314 6.299 6.281 6.279 6.284 6.241 6.234 6.219 6.234 6.206 6.206 6.194 6.224 6.181 6.196 6.199 6.201 6.201 6.231 6.169 6.179 6.161 6.139 6.109 6.101 6.054 6.084 6.089 6.096 6.095 6.03 6.008 6.027 6.01 5.953 5.9 5.893 5.887 5.877 5.86 5.863 5.83 5.831 5.834 5.799 5.759 5.754 5.726 5.684 5.619 5.611 5.641 5.639 4.949 6.269 7.344 7.446 6.679 6.136 8.034 8.449 7.226 6.269 6.176 6.231 8.141 6.884 6.421 6.298 6.197 6.231 6.294 6.306 6.274 6.275 6.292 6.328 6.321 6.342 6.354 6.364 6.372 6.401 6.4 6.395 6.406 6.417 6.392 6.445 6.434 6.429 6.429 6.469 6.486 6.489 6.504 6.504 6.544 6.544 6.541 6.579 6.569 6.596 6.611 6.619 6.646 6.664 6.681 6.669 6.689 6.716 6.741 6.746 6.796 6.781 6.794 6.794 6.824 6.839 6.849 6.851 6.886 6.906 6.916 6.904 6.891 6.916 6.901 6.946 6.949 6.941 6.946 6.961 6.981 6.991 6.981 6.981 7.001 7.001 7.031 7.039 7.041 7.059 7.069 7.081 7.061 7.071 7.099 7.116 7.121 7.111 7.111 7.119 7.124 7.126 7.154 7.136 7.174 7.204 7.206 7.169 7.186 7.189 7.196 7.199 7.234 7.244 7.244 7.279 7.281 7.264 7.276 7.274 7.254 7.244 7.286 7.294 7.284 7.309 7.429 7.926 8.264 8.764 7.884 7.324 7.276 7.271 7.229 7.214 7.226 7.216 7.291 7.259 7.289 7.334 7.371 7.406 7.426 7.396 7.376 7.394 7.386 7.411 7.394 7.449 7.464 7.464 7.469 7.481 7.456 7.479 7.561 7.621 7.644 7.701 7.689 7.706 7.699 7.736 7.751 7.754 7.764 7.769 7.781 7.779 7.791 7.811 7.849 7.889 7.886 7.904 7.909 7.934 7.966 7.954 7.964 7.976 7.986 8.019 8.029 8.039 8.091 8.091 8.146 8.179 8.201 8.219 8.261 8.279 8.304 8.336 8.334 8.411 8.426 8.481 8.506 8.556 8.566 8.571 8.606 8.619 8.661 8.696 8.766 8.819 8.834 8.909 8.886 8.921 8.939 8.939 8.984 8.974 8.984 8.966 8.981 9.001 9.006 9.056 9.061 9.074 9.094 9.081 9.141 9.144 9.159 9.191 9.219 9.241 9.261 9.276 9.294 9.321 9.374 9.331 9.429 9.431 9.431 9.485 9.502 9.527 9.548 9.585 9.58 9.605 9.644 9.634 9.681 9.673 9.747 9.715 9.763 9.789 9.804 9.841 9.821 9.881 9.889 9.929 9.949 9.966 9.999 10.004 10.006 10.014 10.046 10.056 10.096 10.109 10.116 10.154 10.181 10.199 10.211 10.226 10.271 10.256 10.329 10.344 10.381 10.334 10.371 10.394 10.396 10.434 10.446 10.491 10.504 10.549 10.584 10.581 10.606 10.614 10.619 10.554 10.706 10.784 10.834 10.871 10.921 11.046 11.189 11.081 11.129 11.156 11.144 11.124 11.124 11.099 11.074 11.209 11.129 11.176 11.231 11.221 11.244 11.229 11.249 11.241 11.259 11.276 11.269 11.249 11.266 11.301 11.314 11.354 11.369 11.391 11.414 11.421 11.441 11.486 11.461 11.536 11.529 11.544 11.571 11.631 11.601 11.654 11.636 11.614 11.749 11.759 11.789 11.819 11.851 11.874 11.921 11.946 11.926 11.994 12.066 12.039 12.094 12.129 12.134 12.174 12.181 12.184
6.718 6.709 6.669 6.604 6.596 6.603 6.595 6.58 6.558 6.562 6.584 6.541 6.514 6.469 6.431 6.454 6.484 6.464 6.406 6.361 6.419 6.379 6.404 6.401 6.404 6.386 6.369 6.391 6.426 6.409 6.441 6.456 6.486 6.466 6.446 6.439 6.409 6.429 6.434 6.429 6.409 6.381 6.379 6.399 6.389 6.379 6.329 6.376 6.334 6.321 6.296 6.329 6.304 6.294 6.296 6.271 6.241 6.234 6.226 6.209 6.234 6.189 6.201 6.206 6.211 6.201 6.194 6.226 6.204 6.226 6.161 6.174 6.179 6.159 6.141 6.111 6.066 6.091 6.091 6.051 6.07 6.048 6.012 6.051 6.028 5.979 5.96 5.925 5.883 5.875 5.888 5.859 5.874 5.867 5.849 5.809 5.769 5.739 5.699 5.696 5.664 5.656 5.589 5.569 5.601 5.101 5.869 6.989 7.171 6.664 7.156 8.859 9.364 7.299 6.159 6.201 7.031 9.831 10.284 8.411 5.784 6.189 6.328 6.306 6.243 6.223 6.256 6.293 6.314 6.344 6.346 6.358 6.372 6.381 6.407 6.413 6.421 6.413 6.432 6.431 6.431 6.459 6.468 6.461 6.479 6.491 6.499 6.506 6.504 6.526 6.544 6.559 6.571 6.571 6.599 6.586 6.614 6.631 6.639 6.674 6.699 6.699 6.714 6.716 6.721 6.761 6.744 6.794 6.804 6.799 6.824 6.821 6.849 6.871 6.894 6.891 6.934 6.931 6.916 6.911 6.931 6.921 6.941 6.959 6.956 6.964 6.959 6.959 6.996 7.009 6.989 6.996 7.041 7.071 7.056 7.049 7.044 7.061 7.104 7.104 7.106 7.084 7.094 7.111 7.106 7.104 7.084 7.134 7.151 7.146 7.154 7.161 7.181 7.201 7.196 7.201 7.179 7.194 7.186 7.199 7.241 7.241 7.246 7.264 7.241 7.259 7.244 7.251 7.264 7.241 7.224 7.231 7.209 7.249 7.494 7.901 8.071 7.869 7.459 7.219 7.249 7.186 7.209 7.261 7.279 7.294 7.346 7.324 7.359 7.399 7.434 7.391 7.409 7.359 7.424 7.381 7.426 7.459 7.459 7.501 7.486 7.531 7.506 7.554 7.576 7.574 7.631 7.641 7.671 7.696 7.699 7.724 7.761 7.784 7.739 7.766 7.746 7.774 7.816 7.836 7.829 7.859 7.886 7.906 7.936 7.959 7.964 7.961 7.961 7.954 8.021 8.039 8.039 8.114 8.106 8.121 8.161 8.204 8.186 8.239 8.266 8.286 8.324 8.329 8.421 8.454 8.474 8.511 8.509 8.536 8.561 8.596 8.616 8.656 8.689 8.786 8.791 8.804 8.894 8.871 8.931 8.901 8.931 8.974 8.959 8.941 8.951 8.974 8.994 9.024 9.041 9.036 9.071 9.101 9.086 9.109 9.149 9.151 9.184 9.191 9.261 9.249 9.294 9.294 9.304 9.366 9.361 9.401 9.399 9.456 9.484 9.494 9.501 9.546 9.566 9.561 9.59 9.629 9.613 9.673 9.661 9.721 9.729 9.744 9.795 9.784 9.829 9.819 9.851 9.869 9.919 9.941 9.946 9.971 9.979 10.014 10.011 10.031 10.051 10.061 10.101 10.106 10.146 10.159 10.184 10.211 10.201 10.256 10.261 10.316 10.336 10.366 10.334 10.359 10.386 10.406 10.424 10.429 10.469 10.514 10.526 10.571 10.591 10.619 10.616 10.646 10.621 10.664 10.781 10.811 10.861 10.859 11.059 11.234 10.936 11.096 11.169 11.131 11.131 11.134 11.144 11.089 11.136 11.111 11.169 11.189 11.201 11.234 11.204 11.241 11.249 11.246 11.289 11.256 11.276 11.306 11.284 11.281 11.311 11.359 11.376 11.424 11.409 11.409 11.454 11.466 11.526 11.516 11.544 11.591 11.606 11.579 11.636 11.659 11.656 11.721 11.746 11.774 11.784 11.844 11.874 11.911 11.959 11.966 12.024 12.051 12.046 12.086 12.101 12.121 12.174 12.184 12.176
6.702 6.722 6.65 6.612 6.613 6.617 6.567 6.56 6.591 6.578 6.514 6.469 6.459 6.426 6.404 6.414 6.469 6.421 6.369 6.391 6.451 6.416 6.414 6.431 6.376 6.376 6.376 6.359 6.319 6.394 6.451 6.449 6.434 6.481 6.429 6.416 6.414 6.421 6.409 6.384 6.416 6.401 6.396 6.366 6.389 6.334 6.324 6.359 6.344 6.321 6.301 6.316 6.291 6.279 6.274 6.239 6.236 6.236 6.201 6.186 6.206 6.201 6.189 6.216 6.201 6.199 6.186 6.191 6.199 6.204 6.166 6.164 6.144 6.144 6.129 6.086 6.079 6.041 6.066 6.064 6.056 6.058 6.01 6.022 6.009 5.978 5.947 5.911 5.9 5.914 5.896 5.927 5.92 5.91 5.836 5.824 5.754 5.734 5.709 5.709 5.684 5.641 5.551 5.576 5.591 5.194 5.606 6.876 7.201 7.569 7.616 8.874 8.159 6.229 6.161 6.164 7.334 9.904 10.069 9.296 7.754 6.419 5.835 6.048 6.19 6.275 6.223 6.239 6.277 6.3 6.334 6.347 6.363 6.375 6.383 6.413 6.407 6.417 6.435 6.455 6.454 6.459 6.438 6.449 6.503 6.524 6.506 6.516 6.501 6.541 6.539 6.554 6.571 6.579 6.604 6.604 6.619 6.604 6.654 6.669 6.701 6.696 6.709 6.729 6.739 6.746 6.766 6.786 6.779 6.796 6.814 6.854 6.846 6.856 6.856 6.889 6.899 6.911 6.906 6.924 6.944 6.949 6.956 6.936 6.959 6.969 6.981 6.979 6.994 6.989 7.016 6.999 7.019 7.021 7.014 7.046 7.071 7.084 7.056 7.069 7.071 7.091 7.081 7.086 7.084 7.106 7.096 7.124 7.131 7.131 7.169 7.159 7.149 7.126 7.171 7.194 7.201 7.186 7.179 7.171 7.209 7.194 7.186 7.219 7.239 7.236 7.224 7.239 7.246 7.236 7.219 7.186 7.184 7.186 7.196 7.219 7.289 7.439 7.866 7.901 7.474 7.206 7.216 7.244 7.274 7.259 7.306 7.364 7.394 7.409 7.394 7.454 7.406 7.429 7.399 7.416 7.371 7.409 7.446 7.476 7.489 7.511 7.546 7.604 7.611 7.616 7.661 7.639 7.624 7.656 7.646 7.669 7.716 7.706 7.729 7.746 7.749 7.736 7.784 7.799 7.846 7.856 7.891 7.874 7.879 7.919 7.934 7.901 7.926 7.984 7.996 7.999 8.014 8.079 8.101 8.126 8.151 8.174 8.191 8.234 8.261 8.274 8.299 8.341 8.379 8.456 8.486 8.521 8.499 8.551 8.564 8.581 8.621 8.634 8.684 8.746 8.761 8.829 8.861 8.876 8.909 8.906 8.934 8.916 8.936 8.946 8.924 8.966 8.981 8.989 9.044 9.041 9.079 9.104 9.081 9.091 9.119 9.139 9.159 9.196 9.221 9.236 9.309 9.294 9.294 9.321 9.369 9.394 9.396 9.439 9.491 9.458 9.513 9.538 9.558 9.55 9.586 9.623 9.611 9.658 9.671 9.72 9.739 9.738 9.78 9.791 9.814 9.816 9.841 9.869 9.881 9.926 9.929 9.969 9.956 9.989 10.014 10.021 10.061 10.061 10.081 10.096 10.139 10.154 10.174 10.204 10.204 10.254 10.266 10.304 10.361 10.346 10.344 10.341 10.384 10.389 10.386 10.421 10.444 10.519 10.526 10.546 10.604 10.606 10.644 10.636 10.644 10.639 10.731 10.766 10.824 10.864 11.009 11.209 11.046 10.974 11.161 11.126 11.111 11.111 11.126 11.084 11.086 11.176 11.131 11.181 11.229 11.199 11.194 11.179 11.181 11.236 11.236 11.259 11.264 11.286 11.264 11.299 11.311 11.339 11.339 11.411 11.401 11.411 11.434 11.449 11.519 11.499 11.514 11.576 11.601 11.614 11.639 11.679 11.646 11.711 11.764 11.736 11.814 11.821 11.884 11.906 11.931 11.994 12.006 12.031 12.104 12.074 12.109 12.124 12.109 12.169 12.234
6.707 6.649 6.601 6.62 6.62 6.606 6.584 6.549 6.518 6.504 6.494 6.469 6.426 6.431 6.451 6.424 6.461 6.394 6.361 6.436 6.364 6.414 6.404 6.379 6.364 6.381 6.381 6.364 6.396 6.429 6.434 6.421 6.446 6.454 6.424 6.406 6.419 6.399 6.379 6.391 6.406 6.386 6.349 6.394 6.324 6.359 6.369 6.339 6.299 6.291 6.311 6.309 6.276 6.274 6.256 6.231 6.244 6.204 6.261 6.226 6.204 6.176 6.209 6.174 6.186 6.156 6.181 6.164 6.201 6.221 6.179 6.169 6.201 6.146 6.119 6.074 6.081 6.104 6.109 6.074 6.034 6 6.028 6.017 6.005 5.982 5.951 5.92 5.921 5.918 5.916 5.928 5.935 5.921 5.884 5.849 5.759 5.751 5.744 5.689 5.674 5.656 5.609 5.546 5.519 5.209 5.364 6.886 7.061 7.306 8.076 8.519 6.809 6.191 6.136 6.269 7.079 8.236 6.079 7.026 7.716 8.001 8.124 7.426 6.356 5.922 5.995 6.272 6.281 6.255 6.289 6.324 6.34 6.356 6.37 6.389 6.403 6.411 6.418 6.442 6.449 6.441 6.467 6.492 6.485 6.506 6.506 6.529 6.544 6.554 6.549 6.559 6.589 6.589 6.614 6.594 6.619 6.631 6.639 6.674 6.659 6.701 6.681 6.706 6.719 6.724 6.754 6.771 6.771 6.789 6.809 6.814 6.826 6.864 6.879 6.864 6.879 6.871 6.891 6.911 6.909 6.929 6.939 6.976 6.979 6.959 6.951 6.954 6.964 6.974 7.006 6.996 7.024 7.031 7.046 7.016 7.016 7.026 7.059 7.059 7.056 7.056 7.056 7.086 7.071 7.091 7.096 7.104 7.111 7.131 7.124 7.124 7.149 7.171 7.166 7.146 7.151 7.176 7.214 7.189 7.201 7.189 7.196 7.199 7.194 7.194 7.219 7.231 7.226 7.219 7.204 7.181 7.171 7.169 7.179 7.161 7.116 7.189 7.179 7.276 7.516 7.211 7.164 7.134 7.194 7.249 7.261 7.304 7.341 7.329 7.369 7.421 7.409 7.426 7.401 7.456 7.434 7.436 7.424 7.461 7.486 7.509 7.541 7.594 7.589 7.649 7.616 7.674 7.671 7.701 7.679 7.706 7.689 7.704 7.681 7.664 7.694 7.714 7.756 7.781 7.831 7.811 7.841 7.884 7.894 7.914 7.901 7.894 7.896 7.966 7.961 8.029 8.021 8.056 8.076 8.144 8.154 8.179 8.161 8.211 8.224 8.286 8.316 8.329 8.399 8.424 8.451 8.499 8.524 8.549 8.569 8.576 8.614 8.639 8.666 8.741 8.789 8.826 8.879 8.884 8.904 8.891 8.906 8.899 8.926 8.876 8.919 8.936 8.964 9.004 9.011 8.996 9.041 9.076 9.096 9.066 9.104 9.141 9.154 9.194 9.214 9.224 9.254 9.264 9.296 9.311 9.344 9.409 9.376 9.411 9.454 9.46 9.509 9.508 9.55 9.575 9.601 9.607 9.62 9.655 9.663 9.697 9.734 9.736 9.774 9.774 9.779 9.814 9.849 9.856 9.886 9.929 9.896 9.946 9.941 9.966 9.999 10.024 10.046 10.041 10.094 10.091 10.121 10.156 10.141 10.204 10.209 10.254 10.271 10.294 10.356 10.331 10.321 10.351 10.354 10.391 10.386 10.454 10.439 10.494 10.521 10.526 10.584 10.576 10.621 10.621 10.606 10.566 10.666 10.774 10.816 10.856 10.944 11.041 11.199 10.991 11.089 11.121 11.121 11.099 11.081 11.034 11.044 11.166 11.116 11.184 11.191 11.164 11.161 11.104 11.146 11.236 11.229 11.249 11.224 11.269 11.271 11.269 11.331 11.354 11.341 11.314 11.369 11.419 11.411 11.469 11.489 11.459 11.534 11.554 11.579 11.594 11.631 11.619 11.676 11.721 11.754 11.774 11.834 11.809 11.876 11.911 11.904 11.969 12.001 12.029 12.049 12.056 12.099 12.119 12.196 12.144 12.151
6.663 6.613 6.616 6.632 6.607 6.584 6.549 6.534 6.55 6.454 6.489 6.461 6.424 6.424 6.431 6.451 6.389 6.314 6.369 6.411 6.374 6.394 6.414 6.396 6.376 6.341 6.346 6.379 6.401 6.401 6.439 6.401 6.416 6.404 6.386 6.389 6.354 6.401 6.366 6.401 6.374 6.384 6.354 6.306 6.321 6.339 6.369 6.309 6.296 6.309 6.301 6.301 6.284 6.269 6.276 6.256 6.251 6.199 6.216 6.221 6.206 6.196 6.226 6.174 6.191 6.181 6.149 6.201 6.169 6.184 6.189 6.171 6.154 6.121 6.129 6.139 6.136 6.116 6.106 6.074 6.072 6.04 6.015 6.004 6.008 5.953 5.958 5.922 5.929 5.923 5.926 5.959 5.949 5.892 5.876 5.841 5.781 5.789 5.734 5.691 5.651 5.631 5.591 5.549 5.524 5.196 5.141 6.719 7.286 7.799 8.654 8.609 6.386 6.151 6.181 6.501 9.271 8.294 6.114 6.154 6.201 6.334 7.074 8.184 8.321 8.059 7.084 6.156 5.858 6.178 6.293 6.295 6.31 6.328 6.362 6.377 6.405 6.402 6.429 6.42 6.432 6.457 6.443 6.476 6.495 6.523 6.528 6.529 6.531 6.549 6.574 6.581 6.589 6.576 6.604 6.621 6.621 6.636 6.666 6.664 6.681 6.704 6.694 6.706 6.714 6.746 6.724 6.746 6.766 6.796 6.814 6.831 6.839 6.841 6.851 6.851 6.879 6.896 6.891 6.866 6.894 6.904 6.911 6.944 6.951 6.941 6.976 6.976 6.976 6.959 6.979 6.989 7.014 6.986 7.024 7.036 7.029 7.041 7.036 7.016 7.044 7.066 7.076 7.046 7.061 7.064 7.114 7.096 7.106 7.089 7.119 7.124 7.111 7.126 7.129 7.146 7.149 7.144 7.139 7.164 7.171 7.201 7.174 7.159 7.174 7.166 7.176 7.194 7.196 7.201 7.194 7.179 7.171 7.196 7.216 7.196 7.144 7.091 7.156 7.161 7.209 7.164 7.119 7.064 7.111 7.156 7.224 7.299 7.329 7.311 7.336 7.384 7.406 7.416 7.431 7.456 7.466 7.486 7.484 7.499 7.484 7.539 7.546 7.561 7.621 7.666 7.636 7.666 7.676 7.716 7.674 7.714 7.721 7.739 7.686 7.736 7.731 7.739 7.774 7.779 7.811 7.816 7.776 7.826 7.839 7.831 7.876 7.851 7.889 7.951 7.971 8.009 8.019 8.046 8.091 8.124 8.131 8.166 8.169 8.231 8.236 8.279 8.284 8.356 8.381 8.436 8.434 8.449 8.539 8.554 8.569 8.584 8.624 8.649 8.716 8.739 8.796 8.811 8.846 8.886 8.906 8.911 8.911 8.881 8.894 8.874 8.904 8.931 8.926 8.971 8.974 8.981 9.004 9.054 9.039 9.039 9.074 9.111 9.131 9.174 9.179 9.191 9.234 9.209 9.246 9.281 9.346 9.351 9.379 9.399 9.446 9.459 9.475 9.513 9.511 9.55 9.571 9.59 9.622 9.638 9.656 9.68 9.705 9.733 9.766 9.768 9.749 9.804 9.834 9.849 9.881 9.886 9.909 9.941 9.916 9.956 9.994 10.021 10.051 10.036 10.066 10.106 10.104 10.156 10.144 10.179 10.214 10.249 10.294 10.291 10.341 10.304 10.301 10.336 10.361 10.396 10.396 10.441 10.429 10.494 10.494 10.514 10.579 10.564 10.619 10.609 10.636 10.596 10.644 10.746 10.786 10.864 10.876 11.036 11.241 10.901 11.059 11.136 11.144 11.061 11.079 11.119 11.106 11.111 11.169 11.161 11.149 11.189 11.174 11.134 11.141 11.219 11.194 11.234 11.211 11.259 11.261 11.281 11.309 11.351 11.324 11.296 11.366 11.404 11.431 11.486 11.491 11.471 11.521 11.551 11.561 11.596 11.634 11.644 11.669 11.714 11.704 11.786 11.811 11.804 11.869 11.879 11.919 11.976 11.989 12.004 12.019 12.054 12.139 12.071 12.114 12.099 12.126
