ncols 404
nrows 30
xllcorner    247040
yllcorner    138608
cellsize     2
NODATA_value -9999
110.705 110.698 110.675 110.65 110.592 110.57 110.515 110.475 110.458 110.494 111.515 111.474 111.052 110.74 110.785 110.834 110.867 110.898 110.941 110.955 110.978 111.032 111.069 111.118 111.173 111.2 111.245 111.265 111.325 111.383 111.438 111.508 111.558 111.645 111.693 111.77 111.838 111.923 112 112.048 112.15 112.23 112.295 112.4 112.47 112.55 112.62 112.665 112.755 112.82 112.895 112.945 113.02 113.088 113.17 113.263 113.345 113.445 113.523 113.588 113.648 113.753 113.813 113.903 113.973 114.065 114.168 114.258 114.373 114.45 114.555 114.638 114.745 114.833 114.948 115.06 115.173 115.283 115.4 115.523 115.618 115.745 115.853 115.973 116.085 116.188 116.288 116.385 116.488 116.57 116.71 116.81 117.72 118.215 116.79 117.805 117.995 117.9 118.005 118.075 118.198 118.35 118.493 118.61 118.785 118.92 119.05 119.175 119.308 119.438 119.595 119.755 119.918 120.083 120.298 120.465 120.6 120.773 120.95 121.155 121.333 121.475 121.62 121.73 121.928 122.405 123.118 123.02 122.493 122.33 122.493 123.2 124.14 123.82 123.703 123.78 123.895 124.103 124.273 124.395 124.568 124.7 124.87 124.993 125.158 125.328 125.488 125.62 125.74 125.855 125.97 126.075 126.195 126.295 126.473 126.78 127.13 127.64 127.99 128.118 127.888 127.53 127.363 127.473 127.608 127.76 127.87 128.018 128.128 128.248 128.353 128.443 128.568 128.693 128.788 128.888 128.958 129.048 129.163 129.288 129.39 129.492 129.612 129.707 129.772 129.822 129.892 129.96 130.017 130.085 130.157 130.262 130.337 130.407 130.457 130.532 130.62 130.707 130.76 130.815 130.865 130.892 130.925 130.943 130.969 130.994 130.964 130.932 131.215 132.157 131.64 131.094 131.067 131.12 131.191 131.227 131.236 131.26 131.291 131.304 131.327 131.352 131.392 131.408 131.441 131.472 131.479 131.512 131.495 131.502 131.541 131.56 131.597 131.615 131.668 131.664 131.685 131.749 131.775 131.768 131.81 131.843 131.862 131.897 131.891 131.914 131.932 131.954 131.909 131.917 131.909 131.918 131.928 131.92 131.926 131.91 131.931 131.947 131.939 131.949 131.996 131.981 131.992 131.967 131.966 131.972 131.976 131.978 131.991 131.947 131.932 131.926 131.893 131.867 131.852 131.83 131.818 131.821 131.78 131.752 131.728 131.685 131.648 131.867 132.851 132.582 131.595 131.66 131.696 131.669 131.595 131.522 131.509 131.472 131.432 131.383 131.365 131.339 131.329 131.288 131.238 131.203 131.146 131.124 131.092 131.057 130.998 130.943 130.878 130.83 130.773 130.75 130.69 130.619 130.567 130.494 130.439 130.335 130.265 130.185 130.13 130.025 129.959 129.858 129.757 129.633 129.551 129.45 129.328 129.211 129.143 129.016 128.91 128.818 128.702 128.605 128.495 128.385 128.313 128.196 128.075 128.09 127.818 127.666 127.556 127.387 127.266 127.16 127.012 126.848 126.733 126.588 126.413 126.31 126.133 126.008 125.852 125.659 125.508 125.38 125.225 125.121 124.968 124.865 124.788 124.67 124.529 124.357 124.263 125.306 124.331 123.825 123.758 124.148 124.921 123.483 123.385 123.269 123.188 123.16 123.08 122.995 122.915 122.839 122.754 122.623 122.565 122.5 122.425 122.29 122.202 122.105 122.04 121.983 121.862 121.81 121.67 121.595 121.56 121.483 121.373 121.308 121.214 121.115
110.573 110.557 110.56 110.522 110.452 110.433 110.385 110.342 110.343 110.362 111.492 111.401 110.805 110.609 110.642 110.699 110.74 110.779 110.811 110.829 110.867 110.896 110.939 110.978 111.023 111.058 111.09 111.128 111.17 111.218 111.27 111.323 111.375 111.448 111.508 111.588 111.658 111.73 111.805 111.883 111.963 112.025 112.128 112.195 112.28 112.363 112.428 112.483 112.568 112.625 112.713 112.755 112.828 112.903 112.975 113.085 113.163 113.238 113.323 113.408 113.49 113.553 113.643 113.73 113.82 113.908 113.998 114.105 114.178 114.3 114.365 114.483 114.58 114.685 114.795 114.913 115.02 115.15 115.265 115.355 115.485 115.605 115.728 115.84 115.968 116.063 116.168 116.278 116.395 116.495 116.618 116.715 117.75 117.953 116.73 117.765 117.935 117.813 117.905 118.005 118.11 118.245 118.398 118.533 118.68 118.84 118.97 119.103 119.22 119.368 119.535 119.683 119.858 120.023 120.205 120.363 120.535 120.705 120.883 121.05 121.225 121.43 121.583 121.7 121.845 121.983 122.228 122.83 123.375 123.078 122.605 122.558 122.74 123.84 124.163 123.903 123.875 123.968 124.165 124.323 124.445 124.613 124.765 124.935 125.093 125.205 125.368 125.513 125.668 125.77 125.908 126.018 126.11 126.22 126.353 126.463 126.57 126.675 126.933 127.363 128.033 128.403 128.373 128.053 127.693 127.61 127.748 127.895 128.04 128.14 128.25 128.385 128.513 128.615 128.72 128.843 128.91 128.99 129.07 129.185 129.297 129.415 129.505 129.6 129.692 129.757 129.827 129.885 129.945 130.025 130.11 130.172 130.272 130.33 130.39 130.47 130.537 130.645 130.697 130.752 130.787 130.835 130.857 130.9 130.935 130.946 130.902 130.876 131.337 132.261 131.294 131.034 131.036 131.111 131.144 131.17 131.187 131.203 131.224 131.256 131.285 131.303 131.328 131.354 131.384 131.415 131.431 131.456 131.455 131.462 131.461 131.498 131.525 131.512 131.558 131.593 131.605 131.653 131.675 131.678 131.681 131.72 131.77 131.808 131.818 131.817 131.853 131.826 131.786 131.813 131.812 131.822 131.827 131.82 131.821 131.834 131.834 131.856 131.853 131.869 131.875 131.881 131.85 131.898 131.881 131.891 131.874 131.857 131.866 131.838 131.827 131.789 131.773 131.745 131.755 131.733 131.729 131.718 131.67 131.643 131.628 131.611 131.576 131.92 133.09 131.493 131.538 131.585 131.611 131.587 131.534 131.451 131.431 131.394 131.333 131.298 131.288 131.258 131.214 131.183 131.148 131.129 131.055 131.046 131.039 130.989 130.95 130.898 130.841 130.8 130.735 130.678 130.613 130.546 130.456 130.401 130.307 130.221 130.151 130.09 130.009 129.905 129.838 129.723 129.616 129.54 129.426 129.291 129.199 129.075 128.96 128.88 128.763 128.715 128.602 128.461 128.373 128.261 128.168 128.01 127.936 127.779 127.66 127.493 127.378 127.253 127.075 126.991 126.852 126.718 126.595 126.449 126.356 126.182 126.011 125.863 125.713 125.538 125.402 125.277 125.088 124.955 124.851 124.734 124.64 124.513 124.365 124.23 124.642 124.823 123.723 123.743 123.722 124.738 124.18 123.337 123.179 123.075 123.01 122.965 122.903 122.785 122.721 122.614 122.478 122.412 122.33 122.25 122.153 122.1 121.97 121.955 121.826 121.733 121.663 121.538 121.494 121.419 121.305 121.208 121.163 121.085 121.01 120.928
110.433 110.435 110.44 110.41 110.34 110.31 110.26 110.215 110.207 110.212 111.033 111.454 110.958 110.484 110.496 110.54 110.587 110.617 110.644 110.671 110.691 110.722 110.753 110.803 110.845 110.885 110.923 110.943 110.975 111.03 111.093 111.143 111.193 111.273 111.34 111.403 111.483 111.55 111.638 111.718 111.783 111.865 111.955 112.035 112.108 112.18 112.273 112.303 112.385 112.463 112.523 112.603 112.685 112.74 112.83 112.925 113.005 113.103 113.163 113.258 113.34 113.425 113.513 113.568 113.653 113.753 113.84 113.928 114.033 114.13 114.213 114.32 114.415 114.535 114.633 114.758 114.88 115.018 115.13 115.25 115.358 115.49 115.603 115.723 115.85 115.955 116.06 116.163 116.29 116.415 116.525 116.628 117.803 118.03 116.635 117.743 117.798 117.753 117.823 117.938 118.04 118.148 118.3 118.435 118.61 118.743 118.868 119.02 119.168 119.31 119.5 119.64 119.785 119.978 120.143 120.293 120.438 120.65 120.825 120.988 121.163 121.35 121.523 121.683 121.815 121.955 122.088 122.208 122.635 123.3 123.545 123.078 122.65 122.758 123.328 124.265 124.163 124.02 124.075 124.233 124.4 124.558 124.693 124.865 125.01 125.165 125.26 125.408 125.548 125.66 125.808 125.93 126.065 126.178 126.29 126.415 126.513 126.618 126.738 126.865 127.008 127.415 127.95 128.495 128.64 128.298 127.968 127.738 127.858 128.023 128.163 128.288 128.413 128.53 128.653 128.745 128.858 128.92 129.015 129.128 129.222 129.31 129.407 129.49 129.585 129.645 129.747 129.817 129.887 129.947 130.047 130.13 130.202 130.257 130.317 130.4 130.49 130.57 130.632 130.67 130.712 130.755 130.787 130.847 130.887 130.862 130.857 130.839 131.876 131.983 131.074 130.976 130.998 131.065 131.107 131.141 131.157 131.171 131.191 131.202 131.25 131.261 131.28 131.313 131.346 131.342 131.376 131.384 131.382 131.389 131.396 131.431 131.432 131.446 131.485 131.519 131.527 131.536 131.574 131.594 131.673 131.801 131.691 131.703 131.706 131.744 131.756 131.704 131.662 131.674 131.68 131.678 131.695 131.703 131.7 131.71 131.724 131.76 131.767 131.758 131.773 131.791 131.783 131.787 131.783 131.775 131.756 131.755 131.767 131.737 131.709 131.682 131.646 131.638 131.642 131.632 131.6 131.613 131.563 131.542 131.533 131.509 131.48 132.423 133.036 131.784 131.465 131.534 131.547 131.512 131.45 131.369 131.335 131.32 131.275 131.228 131.184 131.149 131.141 131.106 131.074 131.023 130.97 130.95 130.938 130.885 130.864 130.809 130.752 130.726 130.669 130.595 130.53 130.465 130.388 130.31 130.245 130.158 130.053 129.99 129.9 129.783 129.748 129.615 129.478 129.403 129.275 129.153 129.063 128.94 128.833 128.743 128.62 128.543 128.455 128.32 128.232 128.135 128.014 127.89 127.778 127.652 127.498 127.355 127.228 127.088 126.974 126.836 126.715 126.573 126.44 126.315 126.178 126.037 125.896 125.754 125.563 125.4 125.285 125.125 124.99 124.851 124.708 124.606 124.485 124.343 124.213 124.195 124.783 124.165 123.655 123.578 124.258 124.865 123.605 123.088 123.017 122.944 122.838 122.743 122.71 122.548 122.465 122.399 122.289 122.245 122.117 122.054 121.95 121.88 121.784 121.692 121.633 121.525 121.436 121.375 121.248 121.215 121.153 121.018 120.93 120.863 120.775 120.695
110.305 110.312 110.29 110.285 110.22 110.177 110.137 110.095 110.077 110.067 110.765 111.246 110.98 110.432 110.36 110.392 110.436 110.463 110.485 110.521 110.53 110.569 110.602 110.645 110.688 110.718 110.74 110.778 110.825 110.875 110.933 110.99 111.05 111.115 111.17 111.24 111.33 111.403 111.46 111.543 111.625 111.705 111.778 111.878 111.948 112.05 112.098 112.16 112.25 112.325 112.403 112.448 112.525 112.598 112.668 112.765 112.855 112.948 113.038 113.115 113.195 113.278 113.36 113.425 113.523 113.595 113.708 113.783 113.9 113.99 114.083 114.17 114.298 114.413 114.513 114.633 114.765 114.88 115.003 115.13 115.255 115.375 115.495 115.628 115.75 115.863 115.98 116.075 116.19 116.305 116.42 116.535 117.51 118.038 116.605 117.608 117.775 117.655 117.73 117.828 117.95 118.073 118.223 118.348 118.533 118.663 118.773 118.923 119.055 119.223 119.388 119.558 119.708 119.905 120.055 120.223 120.37 120.545 120.715 120.895 121.048 121.208 121.42 121.608 121.798 121.938 122.065 122.205 122.323 122.503 123 123.68 123.603 122.97 122.863 123.133 124.043 124.528 124.268 124.2 124.293 124.473 124.653 124.78 124.94 125.1 125.228 125.325 125.438 125.558 125.688 125.818 125.943 126.083 126.195 126.325 126.43 126.565 126.685 126.805 126.91 127.008 127.148 127.438 127.918 128.633 128.748 128.465 127.978 127.885 128.013 128.16 128.303 128.45 128.548 128.673 128.788 128.873 128.968 129.07 129.162 129.245 129.315 129.412 129.507 129.57 129.65 129.727 129.795 129.88 129.965 130.045 130.122 130.187 130.275 130.332 130.427 130.48 130.555 130.602 130.62 130.675 130.717 130.777 130.827 130.79 130.772 130.89 132.096 131.563 130.964 130.923 130.95 131.023 131.073 131.102 131.105 131.131 131.15 131.165 131.186 131.22 131.239 131.277 131.302 131.305 131.332 131.34 131.334 131.319 131.33 131.354 131.369 131.387 131.416 131.42 131.443 131.435 131.498 131.521 131.531 131.551 131.574 131.612 131.605 131.617 131.606 131.568 131.576 131.575 131.584 131.583 131.594 131.585 131.593 131.606 131.639 131.626 131.643 131.668 131.669 131.673 131.686 131.686 131.677 131.681 131.656 131.67 131.656 131.639 131.601 131.577 131.553 131.539 131.531 131.521 131.523 131.506 131.488 131.419 131.42 131.378 131.4 132.428 132.24 131.432 131.383 131.465 131.461 131.39 131.308 131.298 131.233 131.215 131.182 131.139 131.126 131.082 131.039 131.024 130.993 130.95 130.909 130.866 130.844 130.819 130.753 130.71 130.645 130.592 130.553 130.492 130.433 130.374 130.273 130.198 130.15 130.083 130.008 129.895 129.816 129.703 129.616 129.515 129.417 129.302 129.186 129.065 128.935 128.804 128.705 128.635 128.505 128.415 128.325 128.194 128.12 128.003 127.875 127.76 127.618 127.458 127.365 127.19 127.072 126.94 126.796 126.684 126.543 126.435 126.292 126.169 126.047 125.874 125.73 125.563 125.442 125.278 125.134 124.945 124.828 124.695 124.575 124.485 124.335 124.19 124.075 124.196 124.64 123.64 123.539 123.445 124.448 124.67 123.039 122.923 122.81 122.775 122.693 122.594 122.493 122.379 122.314 122.228 122.13 122.018 121.945 121.823 121.761 121.67 121.565 121.525 121.406 121.355 121.255 121.141 121.092 120.968 120.93 120.86 120.762 120.663 120.558 120.489
110.183 110.17 110.165 110.155 110.107 110.048 110.028 109.97 109.938 109.915 110.208 111.02 110.923 110.506 110.223 110.256 110.296 110.322 110.353 110.373 110.397 110.426 110.461 110.503 110.53 110.568 110.59 110.638 110.68 110.728 110.768 110.835 110.89 110.953 111.023 111.103 111.18 111.248 111.308 111.385 111.473 111.55 111.645 111.718 111.798 111.868 111.94 111.988 112.088 112.165 112.24 112.295 112.358 112.445 112.51 112.598 112.71 112.79 112.88 112.975 113.063 113.158 113.203 113.308 113.378 113.468 113.55 113.645 113.738 113.838 113.943 114.033 114.168 114.268 114.383 114.493 114.615 114.75 114.88 115.025 115.15 115.268 115.398 115.533 115.64 115.745 115.87 115.983 116.098 116.205 116.335 116.428 117.058 117.69 116.408 117.563 117.763 117.583 117.64 117.763 117.84 117.973 118.145 118.265 118.453 118.59 118.725 118.84 118.993 119.16 119.335 119.503 119.665 119.82 119.975 120.145 120.313 120.485 120.62 120.808 121.015 121.178 121.318 121.485 121.695 121.91 122.06 122.17 122.315 122.465 122.575 122.855 123.553 124.045 123.56 123.053 123.1 123.503 124.478 124.685 124.378 124.378 124.52 124.693 124.855 124.985 125.145 125.303 125.39 125.51 125.625 125.755 125.888 126.008 126.105 126.21 126.333 126.495 126.615 126.723 126.84 126.968 127.07 127.175 127.308 127.47 128.093 128.605 128.963 128.678 128.18 128.065 128.175 128.33 128.465 128.58 128.7 128.798 128.91 128.988 129.09 129.182 129.27 129.33 129.44 129.485 129.555 129.62 129.682 129.805 129.905 129.965 130.045 130.115 130.197 130.245 130.357 130.395 130.45 130.502 130.547 130.6 130.64 130.71 130.715 130.715 130.68 131.02 132.042 131.08 130.864 130.885 130.928 130.984 131.025 131.062 131.071 131.095 131.122 131.128 131.147 131.192 131.205 131.245 131.252 131.272 131.278 131.26 131.262 131.251 131.279 131.303 131.308 131.333 131.353 131.364 131.385 131.393 131.428 131.43 131.433 131.446 131.472 131.49 131.515 131.523 131.528 131.481 131.472 131.488 131.488 131.474 131.5 131.493 131.506 131.513 131.517 131.522 131.562 131.555 131.543 131.592 131.591 131.581 131.587 131.561 131.545 131.531 131.533 131.516 131.488 131.438 131.44 131.436 131.427 131.422 131.387 131.404 131.367 131.346 131.334 131.312 131.571 132.851 132.211 131.226 131.32 131.359 131.33 131.26 131.22 131.177 131.137 131.101 131.095 131.055 131.041 131 130.967 130.935 130.9 130.884 130.838 130.776 130.741 130.685 130.662 130.598 130.539 130.489 130.427 130.366 130.286 130.208 130.14 130.065 130.015 129.929 129.831 129.764 129.685 129.555 129.498 129.408 129.295 129.18 129.075 128.928 128.807 128.706 128.6 128.49 128.39 128.284 128.206 128.1 128.002 127.891 127.762 127.635 127.489 127.363 127.195 127.083 126.928 126.788 126.63 126.508 126.393 126.24 126.136 125.992 125.903 125.745 125.597 125.458 125.293 125.14 124.982 124.823 124.699 124.563 124.455 124.337 124.22 124.056 123.893 124.708 124.304 123.462 123.428 123.823 124.485 123.48 122.922 122.753 122.697 122.617 122.508 122.426 122.305 122.23 122.164 122.046 121.943 121.85 121.777 121.676 121.583 121.469 121.421 121.325 121.23 121.143 121.093 120.963 120.885 120.874 120.74 120.62 120.572 120.496 120.375 120.295
110.037 110.03 110.025 110.02 109.963 109.897 109.878 109.827 109.796 109.784 109.837 110.859 110.837 110.454 110.092 110.118 110.148 110.17 110.204 110.234 110.259 110.286 110.307 110.33 110.405 110.438 110.468 110.495 110.535 110.575 110.613 110.675 110.738 110.808 110.875 110.94 111.003 111.085 111.16 111.26 111.343 111.408 111.49 111.583 111.673 111.725 111.793 111.87 111.948 112.005 112.065 112.135 112.21 112.283 112.355 112.463 112.543 112.625 112.728 112.813 112.905 112.985 113.07 113.145 113.228 113.325 113.41 113.495 113.595 113.69 113.788 113.903 114.02 114.138 114.225 114.368 114.483 114.618 114.748 114.883 115.015 115.148 115.285 115.41 115.543 115.66 115.768 115.883 115.99 116.11 116.225 116.328 116.935 117.695 116.38 117.385 117.655 117.49 117.558 117.668 117.773 117.875 118.043 118.163 118.35 118.503 118.635 118.793 118.925 119.098 119.265 119.43 119.608 119.77 119.928 120.065 120.255 120.408 120.573 120.743 120.898 121.065 121.263 121.43 121.543 121.755 121.955 122.163 122.3 122.448 122.558 122.7 122.833 123.31 124.035 124.12 123.573 123.195 123.325 123.985 124.835 124.748 124.53 124.563 124.758 124.883 125.025 125.175 125.338 125.465 125.588 125.685 125.783 125.925 126.03 126.133 126.238 126.345 126.503 126.655 126.79 126.905 127.028 127.143 127.243 127.348 127.463 127.678 128.028 128.85 129.113 128.983 128.498 128.228 128.35 128.498 128.618 128.725 128.843 128.933 129.022 129.112 129.215 129.31 129.39 129.457 129.48 129.557 129.617 129.705 129.805 129.872 129.95 130.022 130.1 130.185 130.262 130.292 130.35 130.405 130.442 130.512 130.565 130.605 130.607 130.63 130.585 131.282 131.907 130.967 130.817 130.826 130.905 130.938 130.991 131.003 131.013 131.057 131.056 131.091 131.116 131.143 131.176 131.183 131.199 131.222 131.22 131.226 131.232 131.216 131.231 131.249 131.241 131.27 131.284 131.295 131.315 131.343 131.346 131.366 131.371 131.37 131.386 131.421 131.438 131.456 131.413 131.387 131.398 131.396 131.408 131.398 131.418 131.418 131.428 131.447 131.435 131.443 131.458 131.467 131.475 131.46 131.474 131.463 131.478 131.458 131.458 131.427 131.416 131.423 131.377 131.356 131.338 131.339 131.32 131.31 131.301 131.276 131.238 131.235 131.222 131.186 131.86 132.464 131.408 131.133 131.229 131.263 131.213 131.148 131.114 131.037 131.038 131.031 130.984 130.941 130.925 130.913 130.883 130.858 130.822 130.794 130.703 130.677 130.658 130.598 130.538 130.496 130.406 130.381 130.303 130.228 130.175 130.098 130.022 129.964 129.873 129.791 129.684 129.612 129.534 129.433 129.343 129.261 129.138 129.033 128.9 128.811 128.678 128.58 128.509 128.391 128.28 128.165 128.098 128.008 127.868 127.8 127.66 127.505 127.37 127.215 127.072 126.92 126.802 126.654 126.547 126.394 126.251 126.103 125.998 125.84 125.705 125.6 125.42 125.318 125.158 124.988 124.849 124.683 124.565 124.462 124.339 124.218 124.06 123.915 124.077 124.657 123.373 123.365 123.435 124.249 123.59 122.963 122.757 122.608 122.54 122.455 122.352 122.25 122.16 122.045 121.955 121.853 121.776 121.698 121.62 121.545 121.432 121.336 121.233 121.184 121.08 120.995 120.903 120.844 120.75 120.645 120.598 120.458 120.35 120.273 120.163 120.09
109.89 109.887 109.882 109.878 109.84 109.783 109.755 109.71 109.663 109.648 109.663 110.297 110.679 110.176 109.94 109.949 109.994 110.03 110.065 110.068 110.088 110.141 110.163 110.198 110.238 110.29 110.318 110.333 110.38 110.418 110.473 110.54 110.61 110.65 110.723 110.805 110.873 110.943 111.015 111.103 111.178 111.243 111.35 111.44 111.498 111.565 111.628 111.72 111.77 111.835 111.898 111.973 112.043 112.113 112.183 112.295 112.373 112.458 112.548 112.658 112.753 112.835 112.9 112.988 113.08 113.158 113.243 113.335 113.435 113.538 113.635 113.738 113.855 113.96 114.073 114.208 114.34 114.465 114.61 114.758 114.885 115.015 115.165 115.3 115.445 115.54 115.653 115.768 115.878 116.025 116.113 116.223 116.798 117.408 116.115 117.21 117.55 117.413 117.468 117.56 117.668 117.82 117.983 118.113 118.29 118.438 118.578 118.723 118.848 119.01 119.168 119.368 119.525 119.683 119.858 120.018 120.16 120.318 120.488 120.663 120.818 120.958 121.115 121.31 121.468 121.635 121.823 122.035 122.223 122.383 122.508 122.623 122.795 122.883 123.16 123.82 124.385 124.343 123.56 123.378 123.575 124.565 125.11 124.818 124.705 124.82 124.955 125.068 125.213 125.378 125.53 125.635 125.748 125.835 125.928 126.065 126.195 126.288 126.403 126.533 126.67 126.793 126.948 127.1 127.195 127.28 127.383 127.503 127.618 127.743 128.228 128.993 129.4 129.263 128.695 128.48 128.52 128.618 128.748 128.873 128.947 129.032 129.13 129.23 129.33 129.392 129.462 129.522 129.587 129.672 129.742 129.795 129.87 129.937 130 130.075 130.16 130.222 130.28 130.3 130.355 130.42 130.465 130.495 130.507 130.51 130.505 131.54 131.3 130.735 130.735 130.762 130.86 130.912 130.927 130.951 130.977 130.997 131.036 131.053 131.069 131.11 131.132 131.162 131.173 131.183 131.189 131.163 131.18 131.169 131.179 131.184 131.199 131.207 131.213 131.231 131.253 131.275 131.283 131.278 131.296 131.288 131.311 131.321 131.373 131.366 131.303 131.303 131.278 131.275 131.293 131.299 131.308 131.32 131.338 131.33 131.347 131.35 131.369 131.399 131.372 131.373 131.396 131.368 131.363 131.376 131.363 131.329 131.324 131.305 131.273 131.26 131.217 131.193 131.208 131.201 131.207 131.139 131.122 131.103 131.099 131.12 131.722 132.213 130.963 131.053 131.104 131.102 131.059 130.985 130.993 130.933 130.9 130.87 130.891 130.828 130.815 130.795 130.742 130.732 130.66 130.66 130.61 130.567 130.533 130.464 130.433 130.393 130.313 130.229 130.181 130.123 130.059 129.977 129.907 129.788 129.716 129.644 129.569 129.485 129.374 129.276 129.191 129.069 129.005 128.878 128.741 128.659 128.541 128.443 128.352 128.256 128.152 128.076 127.993 127.902 127.785 127.672 127.566 127.412 127.248 127.119 126.973 126.81 126.685 126.545 126.385 126.285 126.132 125.989 125.898 125.739 125.639 125.454 125.31 125.174 125.005 124.828 124.735 124.586 124.433 124.338 124.237 124.075 123.941 123.805 124.495 124.115 123.347 123.233 123.87 124.408 123.435 122.68 122.538 122.503 122.402 122.297 122.213 122.107 122 121.893 121.815 121.759 121.625 121.56 121.469 121.365 121.31 121.208 121.088 121.025 120.931 120.83 120.778 120.658 120.624 120.518 120.388 120.313 120.24 120.115 120.005 119.893
109.768 109.757 109.735 109.725 109.708 109.655 109.632 109.58 109.535 109.52 109.516 110.116 110.576 109.922 109.788 109.796 109.835 109.887 109.913 109.928 109.978 110.011 110.038 110.053 110.095 110.14 110.168 110.19 110.24 110.273 110.338 110.39 110.438 110.5 110.58 110.638 110.715 110.77 110.858 110.935 111.023 111.11 111.19 111.27 111.343 111.393 111.463 111.54 111.6 111.665 111.725 111.785 111.858 111.92 112.008 112.095 112.185 112.295 112.385 112.483 112.568 112.658 112.733 112.828 112.905 112.968 113.06 113.145 113.253 113.345 113.458 113.575 113.658 113.808 113.913 114.038 114.173 114.308 114.445 114.598 114.755 114.88 115.025 115.168 115.313 115.413 115.54 115.645 115.775 115.875 115.983 116.105 116.58 117.563 116.115 117.193 117.433 117.315 117.383 117.493 117.598 117.705 117.863 118.005 118.195 118.348 118.49 118.643 118.775 118.968 119.143 119.293 119.458 119.623 119.78 119.948 120.088 120.26 120.435 120.545 120.743 120.895 121.03 121.2 121.378 121.568 121.725 121.915 122.098 122.265 122.473 122.598 122.7 122.86 122.988 123.13 123.57 124.303 124.69 123.9 123.46 123.583 123.908 124.88 125.263 124.998 124.875 124.998 125.123 125.273 125.415 125.563 125.675 125.805 125.888 126.003 126.113 126.223 126.345 126.478 126.585 126.683 126.828 126.968 127.085 127.228 127.353 127.438 127.533 127.655 127.765 127.938 128.505 129.235 129.498 129.483 128.993 128.595 128.65 128.74 128.83 128.925 129.027 129.132 129.237 129.317 129.392 129.48 129.552 129.635 129.687 129.752 129.822 129.87 129.937 129.997 130.062 130.127 130.167 130.2 130.267 130.322 130.357 130.395 130.412 130.407 130.607 131.765 130.942 130.622 130.64 130.73 130.797 130.862 130.894 130.897 130.923 130.95 130.965 130.993 131.038 131.053 131.099 131.107 131.117 131.13 131.133 131.119 131.118 131.113 131.134 131.128 131.131 131.158 131.167 131.187 131.194 131.188 131.206 131.213 131.236 131.239 131.258 131.248 131.278 131.244 131.203 131.202 131.203 131.211 131.224 131.218 131.24 131.235 131.232 131.248 131.261 131.258 131.259 131.281 131.253 131.263 131.293 131.294 131.28 131.288 131.258 131.243 131.236 131.203 131.18 131.133 131.138 131.124 131.078 131.078 131.049 130.991 130.998 130.988 130.932 131.109 132.158 131.285 130.858 130.905 130.96 130.952 130.926 130.836 130.829 130.778 130.748 130.77 130.734 130.744 130.708 130.676 130.64 130.615 130.561 130.526 130.493 130.435 130.343 130.344 130.287 130.21 130.17 130.07 130.011 129.943 129.906 129.818 129.725 129.653 129.578 129.505 129.415 129.304 129.228 129.115 129.06 128.92 128.822 128.715 128.59 128.498 128.415 128.29 128.213 128.123 128.02 127.938 127.838 127.755 127.635 127.522 127.411 127.283 127.152 126.991 126.819 126.709 126.566 126.404 126.259 126.133 126.013 125.875 125.773 125.598 125.475 125.338 125.188 125.042 124.886 124.723 124.558 124.415 124.333 124.233 124.108 123.933 123.758 123.767 124.601 123.585 123.138 123.256 124.228 124.316 122.668 122.588 122.441 122.333 122.273 122.183 122.067 121.96 121.876 121.759 121.678 121.603 121.51 121.437 121.348 121.284 121.17 121.053 120.983 120.898 120.8 120.72 120.615 120.54 120.418 120.355 120.263 120.167 120.058 119.971 119.875 119.735
109.63 109.62 109.615 109.592 109.567 109.515 109.48 109.425 109.385 109.37 109.363 109.931 110.277 109.817 109.633 109.653 109.698 109.739 109.778 109.788 109.833 109.852 109.883 109.918 109.975 110.015 110.045 110.045 110.103 110.133 110.173 110.225 110.3 110.348 110.41 110.475 110.553 110.63 110.703 110.785 110.868 110.953 111.03 111.09 111.16 111.233 111.29 111.358 111.413 111.485 111.543 111.61 111.67 111.763 111.828 111.908 112.003 112.105 112.225 112.3 112.395 112.483 112.57 112.653 112.723 112.798 112.883 112.968 113.065 113.178 113.28 113.363 113.503 113.62 113.735 113.868 114.003 114.155 114.318 114.465 114.608 114.745 114.875 115.035 115.15 115.283 115.403 115.52 115.645 115.755 115.865 115.978 116.88 117.355 115.965 116.98 117.39 117.223 117.305 117.4 117.51 117.613 117.8 117.935 118.13 118.265 118.405 118.57 118.73 118.86 119.07 119.218 119.38 119.535 119.71 119.878 120.028 120.18 120.33 120.485 120.645 120.805 120.97 121.123 121.268 121.45 121.63 121.793 121.938 122.153 122.353 122.545 122.698 122.805 122.96 123.098 123.188 123.495 124.023 125.01 123.938 123.548 123.69 123.813 124.48 125.44 125.348 125.035 125.038 125.168 125.32 125.463 125.578 125.7 125.85 125.95 126.028 126.143 126.27 126.408 126.49 126.62 126.735 126.84 126.985 127.103 127.263 127.38 127.508 127.598 127.725 127.823 127.915 128.12 128.595 129.155 129.55 129.585 129.073 128.823 128.735 128.785 128.887 128.997 129.117 129.237 129.322 129.4 129.482 129.547 129.642 129.707 129.77 129.825 129.897 129.935 129.982 130.012 130.042 130.107 130.195 130.23 130.272 130.295 130.302 130.295 130.855 131.722 130.725 130.54 130.562 130.655 130.745 130.777 130.81 130.837 130.88 130.89 130.921 130.939 130.985 131.004 131.024 131.066 131.064 131.064 131.075 131.065 131.063 131.079 131.075 131.08 131.093 131.116 131.121 131.121 131.131 131.138 131.137 131.149 131.164 131.172 131.172 131.183 131.216 131.172 131.139 131.14 131.148 131.141 131.147 131.157 131.134 131.135 131.163 131.176 131.179 131.186 131.188 131.191 131.175 131.164 131.18 131.201 131.187 131.217 131.172 131.141 131.098 131.098 131.088 131.035 130.998 130.994 130.968 130.956 130.912 130.89 130.875 130.837 130.813 131.368 132.289 131.166 130.744 130.8 130.824 130.788 130.757 130.697 130.655 130.65 130.591 130.604 130.575 130.546 130.558 130.551 130.546 130.495 130.459 130.395 130.368 130.298 130.232 130.189 130.095 130.047 129.974 129.908 129.861 129.791 129.734 129.656 129.571 129.496 129.444 129.369 129.234 129.141 129.077 128.976 128.889 128.764 128.693 128.566 128.443 128.377 128.253 128.145 128.085 128.003 127.899 127.814 127.725 127.612 127.512 127.393 127.293 127.14 127 126.843 126.668 126.538 126.41 126.247 126.135 125.999 125.855 125.753 125.612 125.453 125.329 125.185 125.05 124.898 124.764 124.62 124.498 124.331 124.225 124.11 123.96 123.81 123.672 124.085 124.42 123.087 123.041 123.509 124.345 123.472 122.567 122.397 122.323 122.238 122.125 122.048 121.958 121.841 121.73 121.623 121.555 121.49 121.39 121.288 121.23 121.115 121.048 120.96 120.863 120.773 120.686 120.596 120.48 120.375 120.323 120.21 120.103 120.035 119.931 119.778 119.675 119.558
109.467 109.452 109.45 109.447 109.423 109.378 109.335 109.308 109.258 109.228 109.22 109.331 110.164 109.937 109.507 109.518 109.547 109.597 109.644 109.663 109.704 109.72 109.758 109.788 109.815 109.865 109.91 109.928 109.953 109.993 110.038 110.07 110.148 110.205 110.265 110.328 110.39 110.47 110.55 110.618 110.72 110.79 110.878 110.93 110.99 111.068 111.135 111.193 111.245 111.308 111.363 111.435 111.503 111.573 111.645 111.73 111.828 111.935 112.023 112.128 112.235 112.308 112.403 112.455 112.555 112.628 112.71 112.79 112.883 113.008 113.1 113.208 113.328 113.463 113.575 113.705 113.838 114.003 114.153 114.305 114.458 114.593 114.75 114.875 115.015 115.128 115.26 115.393 115.495 115.618 115.743 115.85 116.263 117.385 115.868 116.643 117.35 117.135 117.203 117.298 117.408 117.503 117.68 117.84 118.063 118.218 118.368 118.51 118.645 118.84 118.98 119.158 119.34 119.493 119.625 119.82 119.953 120.12 120.278 120.415 120.563 120.703 120.853 121.045 121.17 121.358 121.51 121.683 121.905 122.053 122.238 122.415 122.613 122.795 122.91 123.043 123.173 123.29 123.538 124.21 125.13 123.943 123.635 123.768 123.903 124.073 124.983 125.595 125.338 125.115 125.188 125.335 125.478 125.608 125.76 125.833 125.958 126.07 126.18 126.29 126.418 126.568 126.668 126.77 126.895 127.01 127.15 127.258 127.403 127.528 127.643 127.76 127.893 127.988 128.068 128.215 128.473 129.033 129.615 129.883 129.66 129.277 129.052 128.912 128.995 129.085 129.197 129.297 129.397 129.472 129.567 129.615 129.685 129.747 129.82 129.885 129.927 129.952 129.98 130.047 130.077 130.15 130.17 130.197 130.217 130.205 131.022 131.29 130.492 130.45 130.5 130.567 130.632 130.702 130.725 130.787 130.79 130.832 130.854 130.887 130.922 130.94 130.973 131.014 131.022 131.007 131.013 131.01 131.007 131.025 131.015 131.025 131.038 131.051 131.052 131.054 131.056 131.066 131.072 131.073 131.094 131.1 131.096 131.124 131.143 131.092 131.083 131.084 131.077 131.078 131.081 131.083 131.062 131.066 131.102 131.111 131.121 131.113 131.121 131.126 131.098 131.087 131.093 131.101 131.109 131.1 131.066 131.048 130.998 130.989 130.957 130.93 130.905 130.884 130.86 130.849 130.786 130.767 130.723 130.727 130.648 131.552 131.524 130.632 130.613 130.671 130.711 130.67 130.591 130.575 130.524 130.532 130.479 130.453 130.428 130.425 130.402 130.36 130.324 130.275 130.27 130.236 130.184 130.115 130.077 130.018 129.963 129.909 129.868 129.76 129.666 129.647 129.57 129.47 129.387 129.314 129.239 129.162 129.05 129 128.913 128.788 128.718 128.593 128.484 128.41 128.28 128.192 128.118 128.005 127.909 127.855 127.76 127.665 127.59 127.502 127.402 127.259 127.144 127.035 126.864 126.741 126.55 126.413 126.283 126.12 125.98 125.88 125.73 125.55 125.467 125.3 125.17 125.049 124.91 124.792 124.603 124.455 124.308 124.21 124.103 123.97 123.81 123.645 123.534 124.274 123.485 122.99 122.947 123.829 123.444 122.533 122.42 122.276 122.177 122.078 122.022 121.905 121.8 121.735 121.63 121.551 121.438 121.377 121.298 121.193 121.138 121.037 120.935 120.868 120.757 120.663 120.583 120.505 120.412 120.276 120.185 120.099 119.982 119.888 119.783 119.678 119.577 119.418
109.335 109.315 109.315 109.305 109.283 109.22 109.183 109.168 109.113 109.082 109.072 109.124 110.027 109.95 109.382 109.37 109.395 109.447 109.497 109.525 109.552 109.582 109.604 109.655 109.693 109.713 109.735 109.788 109.805 109.85 109.873 109.933 109.993 110.048 110.105 110.173 110.24 110.32 110.388 110.46 110.548 110.618 110.685 110.748 110.83 110.895 110.973 111.008 111.058 111.133 111.2 111.255 111.32 111.383 111.455 111.545 111.638 111.74 111.835 111.955 112.045 112.118 112.213 112.3 112.37 112.468 112.543 112.613 112.713 112.828 112.935 113.063 113.168 113.29 113.425 113.558 113.695 113.85 114.01 114.165 114.3 114.473 114.603 114.733 114.903 115.033 115.143 115.27 115.388 115.513 115.633 115.733 116.235 117.523 115.825 116.425 117.313 117.063 117.128 117.23 117.33 117.43 117.62 117.768 117.963 118.12 118.27 118.423 118.58 118.728 118.91 119.065 119.235 119.405 119.588 119.73 119.893 120.033 120.213 120.358 120.49 120.648 120.798 120.94 121.123 121.258 121.42 121.58 121.765 121.958 122.153 122.293 122.49 122.685 122.885 123.038 123.158 123.27 123.325 123.515 124.193 125.073 124.64 123.828 123.83 123.98 124.075 124.43 125.615 125.693 125.385 125.283 125.38 125.52 125.655 125.76 125.888 126 126.12 126.21 126.32 126.443 126.575 126.71 126.835 126.953 127.068 127.155 127.255 127.395 127.53 127.673 127.803 127.913 128.03 128.103 128.195 128.298 128.475 128.95 129.43 129.9 130.07 129.912 129.81 129.59 129.332 129.22 129.265 129.34 129.412 129.505 129.602 129.667 129.755 129.827 129.872 129.9 129.942 129.99 130.022 130.045 130.085 130.095 130.125 130.255 131.372 130.75 130.352 130.365 130.4 130.517 130.57 130.615 130.647 130.71 130.73 130.75 130.79 130.83 130.857 130.891 130.929 130.932 130.949 130.952 130.932 130.943 130.952 130.954 130.964 130.982 130.966 130.987 131.002 130.994 130.987 130.995 131.008 131.012 131.034 131.03 131.045 131.075 131.068 131.037 131.023 131.012 130.999 130.983 130.981 130.981 130.972 130.987 130.997 131.018 131.02 131.047 131.028 131.042 131.049 131.023 131.019 131.031 131.018 130.998 130.972 130.946 130.911 130.894 130.861 130.836 130.788 130.782 130.748 130.74 130.666 130.641 130.611 130.6 130.635 131.872 131.223 130.444 130.512 130.542 130.555 130.518 130.455 130.431 130.402 130.353 130.36 130.365 130.318 130.299 130.289 130.233 130.188 130.132 130.085 130.022 129.987 129.943 129.908 129.842 129.788 129.725 129.643 129.613 129.505 129.438 129.388 129.303 129.218 129.148 129.057 128.975 128.898 128.82 128.734 128.622 128.516 128.449 128.344 128.228 128.139 128.052 127.935 127.873 127.788 127.689 127.625 127.54 127.44 127.378 127.23 127.115 127.013 126.858 126.749 126.582 126.453 126.281 126.175 126.027 125.922 125.749 125.602 125.482 125.328 125.163 125.01 124.913 124.753 124.62 124.47 124.336 124.182 124.06 123.945 123.837 123.632 123.48 123.695 124.258 123.184 122.916 123.255 124.005 122.92 122.457 122.25 122.158 122.085 122.001 121.896 121.793 121.703 121.615 121.523 121.423 121.362 121.278 121.203 121.111 121.027 120.94 120.813 120.744 120.66 120.58 120.471 120.395 120.28 120.185 120.082 119.967 119.888 119.77 119.634 119.52 119.423 119.318
109.175 109.162 109.16 109.152 109.14 109.105 109.048 109.022 108.991 108.947 108.926 108.932 109.667 109.815 109.308 109.226 109.224 109.272 109.328 109.354 109.391 109.433 109.45 109.485 109.51 109.538 109.585 109.608 109.645 109.67 109.713 109.748 109.795 109.865 109.933 110.005 110.08 110.135 110.213 110.293 110.383 110.438 110.513 110.578 110.663 110.72 110.773 110.833 110.868 110.948 111.013 111.073 111.128 111.208 111.28 111.375 111.478 111.565 111.688 111.8 111.883 111.953 112.033 112.15 112.205 112.318 112.368 112.46 112.568 112.68 112.78 112.89 113.045 113.135 113.25 113.408 113.555 113.708 113.84 114.013 114.183 114.318 114.46 114.615 114.77 114.898 115.033 115.155 115.28 115.385 115.533 115.65 116.2 117.525 115.888 116.158 117.148 116.963 117.045 117.145 117.255 117.358 117.55 117.708 117.895 118.038 118.21 118.368 118.523 118.668 118.81 118.993 119.188 119.338 119.5 119.673 119.83 119.968 120.1 120.273 120.408 120.563 120.708 120.853 121.015 121.165 121.325 121.52 121.663 121.85 122.035 122.218 122.373 122.558 122.75 122.96 123.125 123.258 123.338 123.418 123.563 123.935 124.753 125.3 124.468 123.958 124.038 124.155 124.263 124.825 125.875 125.653 125.388 125.398 125.528 125.648 125.793 125.915 126.043 126.16 126.28 126.39 126.47 126.565 126.715 126.858 126.983 127.123 127.208 127.313 127.405 127.518 127.673 127.8 127.918 128.033 128.14 128.238 128.34 128.42 128.555 128.775 129.165 129.61 129.942 130.165 130.25 130.11 129.977 129.687 129.415 129.38 129.412 129.512 129.645 129.735 129.775 129.817 129.877 129.94 129.945 129.977 130.022 130.01 130.02 130.437 131.427 130.587 130.252 130.272 130.34 130.405 130.442 130.537 130.575 130.595 130.617 130.66 130.717 130.767 130.795 130.812 130.857 130.864 130.877 130.88 130.879 130.88 130.882 130.901 130.895 130.908 130.91 130.908 130.934 130.929 130.935 130.922 130.921 130.936 130.955 130.978 130.983 131.013 130.984 130.953 130.943 130.933 130.924 130.905 130.916 130.908 130.921 130.938 130.942 130.939 130.942 130.953 130.96 130.943 130.968 130.935 130.93 130.943 130.939 130.913 130.863 130.838 130.836 130.809 130.794 130.751 130.708 130.671 130.652 130.61 130.575 130.508 130.499 130.451 130.931 131.755 131.069 130.337 130.394 130.45 130.435 130.352 130.316 130.257 130.283 130.217 130.206 130.189 130.174 130.138 130.148 130.121 130.075 130.022 129.969 129.903 129.862 129.797 129.729 129.625 129.585 129.48 129.453 129.406 129.343 129.279 129.202 129.117 129.019 128.952 128.889 128.833 128.706 128.62 128.516 128.422 128.341 128.223 128.155 128.055 127.944 127.881 127.792 127.691 127.637 127.553 127.463 127.404 127.279 127.213 127.125 126.995 126.885 126.749 126.605 126.443 126.33 126.158 126.025 125.9 125.77 125.635 125.47 125.338 125.208 125.063 124.936 124.781 124.623 124.492 124.335 124.165 124.075 123.943 123.826 123.645 123.488 123.355 123.802 123.718 122.833 122.835 123.647 124.014 122.55 122.26 122.172 122.083 121.973 121.893 121.798 121.691 121.623 121.505 121.417 121.32 121.275 121.205 121.106 121.01 120.935 120.855 120.755 120.67 120.56 120.479 120.388 120.291 120.165 120.058 119.995 119.872 119.757 119.658 119.538 119.422 119.263 119.135
109.03 109.012 109.005 109 108.98 108.958 108.897 108.87 108.833 108.789 108.794 108.785 109.433 109.975 109.265 109.099 109.081 109.106 109.157 109.179 109.218 109.227 109.255 109.275 109.303 109.345 109.385 109.42 109.455 109.483 109.525 109.593 109.635 109.683 109.748 109.82 109.873 109.965 110.038 110.128 110.188 110.253 110.335 110.408 110.483 110.538 110.59 110.65 110.718 110.765 110.83 110.883 110.94 111.01 111.075 111.193 111.28 111.383 111.503 111.608 111.703 111.775 111.87 111.968 112.03 112.12 112.225 112.285 112.395 112.5 112.613 112.72 112.843 112.955 113.108 113.258 113.39 113.545 113.708 113.865 114.035 114.193 114.338 114.478 114.62 114.765 114.89 115.003 115.153 115.273 115.423 115.56 115.815 117.375 115.853 116.163 117.145 116.888 116.96 117.058 117.178 117.28 117.468 117.593 117.803 117.97 118.133 118.268 118.438 118.583 118.755 118.923 119.108 119.275 119.435 119.6 119.763 119.908 120.03 120.198 120.343 120.5 120.635 120.79 120.955 121.093 121.268 121.43 121.603 121.763 121.913 122.11 122.32 122.475 122.65 122.813 122.998 123.198 123.325 123.44 123.543 123.643 123.828 124.383 125.205 125.318 124.588 124.19 124.215 124.318 124.593 125.278 125.928 125.658 125.5 125.555 125.7 125.798 125.915 126.053 126.178 126.295 126.45 126.553 126.65 126.79 126.9 126.993 127.15 127.25 127.38 127.473 127.543 127.635 127.798 127.95 128.058 128.163 128.245 128.368 128.457 128.532 128.627 128.78 128.792 129.152 129.477 129.78 130.265 130.405 130.422 130.25 129.82 129.517 129.462 129.537 129.637 129.73 129.782 129.83 129.907 129.925 129.922 129.907 129.962 130.415 131.3 130.26 130.165 130.235 130.267 130.32 130.387 130.46 130.48 130.49 130.545 130.572 130.615 130.675 130.692 130.73 130.785 130.805 130.807 130.812 130.809 130.823 130.83 130.832 130.839 130.846 130.842 130.854 130.849 130.858 130.863 130.873 130.871 130.885 130.901 130.908 130.919 130.921 130.892 130.878 130.869 130.859 130.855 130.853 130.832 130.829 130.865 130.878 130.866 130.863 130.873 130.899 130.878 130.885 130.883 130.849 130.848 130.846 130.841 130.828 130.782 130.791 130.744 130.703 130.672 130.643 130.617 130.573 130.559 130.493 130.466 130.418 130.389 130.356 130.792 131.66 130.182 130.265 130.311 130.329 130.29 130.219 130.203 130.135 130.128 130.08 130.055 130.05 130.03 130.01 129.973 129.911 129.89 129.863 129.803 129.756 129.682 129.602 129.565 129.505 129.445 129.373 129.337 129.225 129.151 129.069 129.008 128.92 128.848 128.773 128.688 128.615 128.545 128.448 128.348 128.23 128.208 128.065 127.968 127.905 127.775 127.678 127.625 127.51 127.46 127.398 127.29 127.195 127.123 127.032 126.954 126.805 126.68 126.601 126.459 126.325 126.169 126.055 125.924 125.77 125.635 125.493 125.345 125.2 125.058 124.92 124.764 124.638 124.492 124.347 124.199 124.033 123.935 123.84 123.68 123.502 123.379 123.223 124.193 123.061 122.752 123.019 124.015 123.203 122.375 122.187 122.035 122.002 121.892 121.798 121.698 121.603 121.528 121.415 121.363 121.285 121.188 121.123 121.04 120.984 120.88 120.788 120.675 120.573 120.49 120.415 120.315 120.215 120.115 120.005 119.893 119.763 119.658 119.54 119.411 119.313 119.193 119.039
108.87 108.857 108.845 108.842 108.83 108.8 108.762 108.725 108.68 108.64 108.63 108.609 109.024 109.657 109.533 108.955 108.918 108.938 108.965 109.017 109.043 109.067 109.108 109.138 109.17 109.21 109.255 109.283 109.33 109.343 109.408 109.47 109.5 109.548 109.628 109.698 109.77 109.838 109.913 109.998 110.055 110.133 110.213 110.273 110.355 110.41 110.465 110.525 110.6 110.643 110.685 110.743 110.818 110.878 110.973 111.06 111.15 111.288 111.39 111.468 111.573 111.66 111.743 111.833 111.908 111.983 112.073 112.163 112.27 112.365 112.493 112.605 112.728 112.86 113.013 113.163 113.295 113.455 113.618 113.785 113.938 114.113 114.238 114.393 114.563 114.69 114.83 114.95 115.085 115.195 115.35 115.458 115.635 117.01 116.033 115.89 116.893 116.78 116.865 116.97 117.088 117.19 117.348 117.518 117.738 117.908 118.048 118.205 118.353 118.515 118.678 118.863 119.018 119.215 119.365 119.51 119.653 119.815 119.963 120.118 120.24 120.4 120.565 120.703 120.875 121.013 121.188 121.338 121.503 121.675 121.855 122.028 122.193 122.36 122.543 122.668 122.87 123.028 123.225 123.398 123.543 123.658 123.768 123.908 124.188 124.778 125.495 125.73 125.428 124.98 124.543 124.463 124.733 126.015 126.035 125.615 125.573 125.668 125.805 125.948 126.078 126.183 126.345 126.45 126.573 126.673 126.798 126.91 127.038 127.145 127.278 127.383 127.485 127.568 127.67 127.803 127.9 128.015 128.158 128.26 128.36 128.457 128.542 128.635 128.74 128.812 128.915 129.025 129.192 129.587 129.995 130.312 130.42 130.457 130.11 129.61 129.505 129.575 129.652 129.73 129.797 129.82 129.847 129.857 129.92 130.895 130.922 130.082 130.062 130.152 130.205 130.247 130.292 130.355 130.39 130.402 130.437 130.497 130.527 130.542 130.607 130.655 130.685 130.745 130.727 130.72 130.742 130.727 130.761 130.757 130.774 130.771 130.771 130.789 130.792 130.782 130.784 130.8 130.8 130.831 130.84 130.849 130.852 130.839 130.806 130.818 130.803 130.777 130.791 130.795 130.776 130.778 130.767 130.783 130.784 130.78 130.786 130.806 130.781 130.804 130.784 130.791 130.772 130.782 130.754 130.736 130.708 130.688 130.633 130.608 130.587 130.573 130.524 130.473 130.445 130.392 130.354 130.298 130.27 130.275 131.473 130.753 130.131 130.183 130.211 130.213 130.16 130.094 130.062 130.007 129.983 129.943 129.925 129.91 129.865 129.84 129.84 129.792 129.75 129.706 129.618 129.56 129.508 129.443 129.416 129.358 129.281 129.23 129.155 129.08 129.013 128.923 128.853 128.756 128.689 128.601 128.5 128.417 128.366 128.279 128.173 128.08 128.001 127.882 127.811 127.71 127.608 127.55 127.458 127.369 127.315 127.222 127.13 127.113 126.968 126.868 126.785 126.648 126.525 126.418 126.303 126.18 126.02 125.9 125.78 125.646 125.522 125.369 125.237 125.11 124.953 124.81 124.655 124.505 124.34 124.21 124.068 123.924 123.85 123.708 123.485 123.37 123.225 123.432 123.917 122.8 122.673 123.365 123.583 122.334 122.163 122.053 121.951 121.88 121.793 121.723 121.617 121.518 121.443 121.348 121.288 121.188 121.115 121.063 120.968 120.895 120.81 120.727 120.618 120.523 120.428 120.328 120.223 120.155 120.026 119.92 119.814 119.685 119.578 119.433 119.295 119.186 119.051 118.928
108.732 108.713 108.69 108.685 108.667 108.643 108.598 108.557 108.531 108.504 108.481 108.445 108.709 109.395 109.199 108.785 108.746 108.769 108.786 108.826 108.88 108.917 108.953 108.975 109.023 109.068 109.118 109.14 109.16 109.218 109.27 109.3 109.365 109.42 109.49 109.55 109.633 109.675 109.775 109.828 109.92 109.985 110.068 110.133 110.198 110.275 110.335 110.395 110.443 110.508 110.548 110.6 110.645 110.728 110.81 110.918 111.015 111.12 111.233 111.325 111.425 111.518 111.6 111.698 111.768 111.845 111.943 112.035 112.135 112.243 112.353 112.473 112.613 112.735 112.893 113.043 113.17 113.325 113.518 113.658 113.825 113.985 114.143 114.288 114.448 114.605 114.738 114.863 114.978 115.09 115.228 115.368 115.53 116.92 115.88 115.763 116.92 116.743 116.798 116.875 117.015 117.123 117.27 117.438 117.618 117.808 117.955 118.105 118.27 118.425 118.61 118.783 118.963 119.11 119.28 119.443 119.588 119.748 119.898 120.033 120.198 120.315 120.503 120.63 120.775 120.943 121.09 121.243 121.425 121.58 121.755 121.935 122.085 122.233 122.418 122.618 122.76 122.885 123.108 123.273 123.46 123.643 123.785 123.938 124.053 124.16 124.385 124.74 125.05 125.455 125.62 124.993 124.593 124.66 125.375 126.098 125.95 125.653 125.71 125.823 125.955 126.09 126.21 126.333 126.475 126.598 126.725 126.855 126.953 127.093 127.205 127.29 127.383 127.525 127.628 127.72 127.79 127.88 127.998 128.133 128.265 128.39 128.47 128.555 128.665 128.742 128.805 128.9 128.957 129.042 129.097 129.177 129.56 130.062 130.445 130.432 130.03 129.742 129.545 129.64 129.7 129.747 129.772 129.8 129.897 130.06 130.062 130.045 130.007 130.082 130.15 130.182 130.21 130.237 130.28 130.33 130.355 130.385 130.415 130.467 130.537 130.587 130.597 130.637 130.645 130.657 130.667 130.676 130.694 130.683 130.701 130.693 130.717 130.739 130.724 130.738 130.739 130.732 130.742 130.738 130.767 130.762 130.784 130.756 130.735 130.734 130.711 130.705 130.694 130.698 130.682 130.688 130.704 130.714 130.7 130.715 130.722 130.722 130.717 130.724 130.687 130.708 130.694 130.696 130.668 130.656 130.628 130.598 130.544 130.539 130.493 130.463 130.43 130.377 130.353 130.286 130.227 130.192 130.138 130.132 131.219 130.392 130.039 130.117 130.143 130.104 130.03 129.972 129.91 129.858 129.833 129.805 129.775 129.744 129.718 129.699 129.67 129.595 129.58 129.554 129.478 129.426 129.38 129.331 129.256 129.168 129.125 129.098 128.996 128.925 128.852 128.762 128.686 128.593 128.504 128.436 128.343 128.259 128.204 128.041 127.933 127.84 127.773 127.678 127.59 127.518 127.415 127.341 127.279 127.18 127.104 127.045 126.966 126.866 126.798 126.675 126.611 126.487 126.363 126.273 126.126 125.991 125.858 125.761 125.625 125.495 125.343 125.255 125.088 124.92 124.817 124.648 124.526 124.36 124.228 124.089 123.919 123.81 123.703 123.569 123.382 123.212 123.243 123.775 123.185 122.661 122.639 123.838 123.108 122.192 122.054 121.953 121.86 121.81 121.735 121.623 121.543 121.477 121.367 121.29 121.21 121.157 121.073 120.998 120.928 120.83 120.743 120.665 120.57 120.478 120.35 120.265 120.174 120.065 119.965 119.85 119.73 119.603 119.483 119.365 119.208 119.075 118.943 118.817
108.562 108.54 108.53 108.515 108.505 108.49 108.455 108.393 108.391 108.355 108.329 108.295 108.42 109.158 109.186 108.594 108.597 108.592 108.64 108.673 108.719 108.756 108.803 108.823 108.89 108.94 108.96 109.025 109.063 109.085 109.113 109.203 109.24 109.31 109.375 109.43 109.495 109.573 109.628 109.718 109.793 109.848 109.945 110.008 110.053 110.128 110.203 110.255 110.295 110.35 110.388 110.448 110.503 110.578 110.658 110.77 110.865 110.993 111.078 111.178 111.27 111.37 111.465 111.555 111.618 111.705 111.793 111.89 112.005 112.103 112.228 112.333 112.463 112.6 112.773 112.918 113.058 113.215 113.37 113.523 113.7 113.855 114 114.17 114.325 114.475 114.63 114.763 114.87 114.99 115.123 115.268 115.373 116.955 116.173 115.42 116.853 116.653 116.69 116.798 116.933 117.038 117.183 117.355 117.518 117.718 117.888 118.033 118.183 118.348 118.533 118.69 118.87 119.04 119.215 119.365 119.503 119.668 119.803 119.955 120.103 120.26 120.398 120.545 120.71 120.858 121.008 121.158 121.338 121.525 121.683 121.825 121.998 122.158 122.318 122.478 122.645 122.838 122.973 123.148 123.313 123.518 123.7 123.89 124.03 124.155 124.293 124.378 124.495 124.778 125.218 125.703 125.615 125.003 124.773 124.943 125.56 126.138 125.985 125.755 125.84 125.975 126.108 126.213 126.368 126.485 126.618 126.745 126.86 126.968 127.093 127.21 127.325 127.403 127.483 127.605 127.725 127.855 127.94 128.013 128.12 128.225 128.357 128.457 128.562 128.645 128.737 128.8 128.862 128.935 129.02 129.092 129.16 129.2 129.425 129.895 130.367 130.515 130.177 129.795 129.602 129.655 129.692 129.732 129.815 129.882 129.905 129.99 129.98 129.982 130.05 130.062 130.13 130.152 130.177 130.195 130.25 130.295 130.347 130.415 130.442 130.49 130.48 130.54 130.567 130.55 130.592 130.595 130.632 130.62 130.635 130.642 130.645 130.649 130.657 130.66 130.655 130.668 130.677 130.674 130.71 130.71 130.697 130.663 130.633 130.622 130.62 130.625 130.611 130.617 130.621 130.627 130.644 130.66 130.643 130.644 130.646 130.652 130.627 130.616 130.617 130.625 130.596 130.585 130.584 130.572 130.536 130.512 130.468 130.442 130.41 130.375 130.353 130.295 130.251 130.206 130.136 130.135 130.058 130.542 130.661 129.915 129.998 130.035 130.056 129.982 129.915 129.868 129.798 129.744 129.723 129.657 129.643 129.634 129.588 129.564 129.527 129.475 129.41 129.387 129.325 129.273 129.217 129.168 129.076 129.037 129.015 128.936 128.846 128.791 128.69 128.63 128.558 128.465 128.373 128.283 128.233 128.128 128.023 127.946 127.845 127.746 127.626 127.53 127.448 127.33 127.261 127.17 127.078 127.019 126.931 126.873 126.765 126.705 126.593 126.513 126.405 126.315 126.201 126.065 125.969 125.822 125.717 125.573 125.483 125.339 125.231 125.097 124.937 124.814 124.652 124.513 124.333 124.233 124.053 123.926 123.787 123.675 123.582 123.405 123.225 123.083 123.228 123.672 122.71 122.543 122.929 123.484 122.294 122.058 121.915 121.869 121.773 121.72 121.653 121.538 121.465 121.393 121.293 121.218 121.165 121.088 121.018 120.956 120.883 120.75 120.695 120.6 120.495 120.418 120.326 120.21 120.105 120.003 119.895 119.79 119.65 119.517 119.395 119.235 119.13 118.998 118.86 118.71
108.405 108.37 108.365 108.355 108.34 108.33 108.305 108.24 108.24 108.196 108.169 108.147 108.201 108.828 108.881 108.467 108.435 108.435 108.474 108.518 108.574 108.619 108.645 108.683 108.753 108.803 108.835 108.898 108.94 108.973 109.008 109.035 109.088 109.155 109.218 109.298 109.375 109.438 109.505 109.563 109.643 109.733 109.798 109.863 109.918 109.988 110.053 110.098 110.165 110.21 110.248 110.288 110.358 110.41 110.51 110.623 110.73 110.838 110.935 111.025 111.138 111.21 111.323 111.39 111.475 111.545 111.638 111.733 111.83 111.948 112.08 112.193 112.325 112.46 112.615 112.765 112.918 113.065 113.245 113.395 113.57 113.745 113.9 114.058 114.198 114.358 114.518 114.643 114.76 114.88 115.01 115.123 115.25 116.37 116.053 115.283 116.728 116.56 116.613 116.713 116.848 116.935 117.083 117.258 117.44 117.638 117.795 117.958 118.108 118.298 118.473 118.648 118.813 118.983 119.128 119.28 119.428 119.59 119.738 119.873 120.01 120.178 120.323 120.468 120.608 120.753 120.923 121.088 121.248 121.41 121.58 121.735 121.898 122.055 122.233 122.403 122.543 122.703 122.893 123.043 123.225 123.37 123.543 123.755 123.918 124.108 124.26 124.365 124.445 124.56 124.663 124.923 125.448 125.885 125.58 124.993 124.945 125.163 125.963 126.405 126.028 125.883 125.998 126.133 126.248 126.378 126.5 126.633 126.74 126.855 126.998 127.083 127.215 127.358 127.44 127.538 127.623 127.753 127.86 127.945 128.065 128.135 128.235 128.315 128.402 128.517 128.597 128.677 128.802 128.85 128.932 128.992 129.062 129.135 129.195 129.245 129.415 129.825 130.315 130.545 130.517 130.22 129.78 129.767 130.247 130.537 129.9 129.94 129.922 129.902 129.97 130.02 130.067 130.085 130.125 130.137 130.16 130.195 130.24 130.272 130.342 130.375 130.432 130.47 130.457 130.467 130.495 130.52 130.562 130.552 130.555 130.569 130.597 130.59 130.59 130.596 130.58 130.603 130.605 130.616 130.628 130.638 130.623 130.562 130.549 130.539 130.537 130.545 130.534 130.533 130.538 130.55 130.574 130.584 130.554 130.567 130.577 130.572 130.566 130.556 130.542 130.548 130.535 130.505 130.484 130.474 130.466 130.42 130.38 130.354 130.329 130.287 130.238 130.213 130.126 130.087 130.041 130.002 129.938 130.678 130.749 129.819 129.92 129.96 129.938 129.87 129.805 129.761 129.708 129.656 129.633 129.574 129.543 129.496 129.449 129.388 129.373 129.341 129.278 129.227 129.169 129.09 129.057 129.005 128.966 128.913 128.841 128.753 128.728 128.628 128.559 128.478 128.401 128.342 128.271 128.195 128.056 127.971 127.868 127.787 127.69 127.593 127.508 127.396 127.307 127.208 127.116 127.032 126.918 126.816 126.741 126.663 126.564 126.504 126.402 126.328 126.228 126.109 126.114 125.892 125.769 125.655 125.533 125.418 125.308 125.185 125.023 124.945 124.774 124.632 124.529 124.381 124.237 124.084 123.9 123.755 123.665 123.545 123.461 123.263 123.069 122.95 123.85 123.215 122.495 122.556 123.42 122.95 122.103 121.97 121.848 121.8 121.703 121.64 121.553 121.468 121.408 121.331 121.24 121.185 121.122 121.039 120.965 120.905 120.823 120.715 120.628 120.539 120.455 120.353 120.265 120.158 120.036 119.905 119.853 119.723 119.578 119.435 119.325 119.173 119.015 118.888 118.747 118.61
108.245 108.21 108.198 108.19 108.168 108.143 108.122 108.068 108.064 108.023 107.99 107.984 108.021 108.809 108.764 108.332 108.279 108.292 108.326 108.374 108.424 108.474 108.523 108.558 108.6 108.655 108.71 108.753 108.803 108.835 108.883 108.913 108.98 109.023 109.09 109.16 109.225 109.295 109.353 109.415 109.518 109.59 109.665 109.73 109.785 109.853 109.93 109.95 109.993 110.035 110.093 110.138 110.205 110.258 110.355 110.46 110.573 110.663 110.76 110.87 110.975 111.053 111.135 111.225 111.313 111.413 111.478 111.573 111.693 111.803 111.91 112.04 112.18 112.32 112.475 112.615 112.765 112.93 113.098 113.248 113.435 113.608 113.765 113.903 114.06 114.223 114.383 114.503 114.618 114.78 114.89 115.003 115.12 116.005 116.155 115.025 116.413 116.495 116.538 116.633 116.733 116.843 116.978 117.173 117.355 117.555 117.703 117.858 118.015 118.188 118.355 118.55 118.733 118.888 119.053 119.218 119.355 119.51 119.65 119.803 119.968 120.098 120.233 120.375 120.565 120.693 120.838 121.02 121.188 121.35 121.488 121.653 121.808 121.978 122.143 122.268 122.443 122.598 122.76 122.903 123.085 123.26 123.443 123.618 123.775 123.943 124.12 124.278 124.405 124.513 124.6 124.658 124.728 125.028 125.82 126.31 125.69 125.145 125.143 125.438 126.188 126.458 126.113 126.035 126.135 126.28 126.383 126.528 126.668 126.785 126.903 127.01 127.145 127.243 127.368 127.49 127.573 127.675 127.755 127.858 127.97 128.065 128.152 128.245 128.332 128.407 128.502 128.58 128.642 128.722 128.842 128.907 128.982 129.032 129.105 129.17 129.197 129.235 129.365 129.555 130.027 130.335 130.472 130.627 130.882 131.045 130.277 129.892 129.855 129.84 129.885 129.892 129.957 129.985 130.022 130.05 130.087 130.137 130.172 130.225 130.25 130.292 130.33 130.34 130.362 130.387 130.407 130.437 130.445 130.455 130.48 130.487 130.522 130.513 130.534 130.528 130.519 130.53 130.547 130.535 130.538 130.545 130.521 130.483 130.466 130.47 130.473 130.456 130.44 130.435 130.454 130.459 130.466 130.484 130.478 130.488 130.493 130.467 130.478 130.466 130.467 130.467 130.451 130.432 130.417 130.418 130.367 130.333 130.296 130.278 130.263 130.218 130.18 130.118 130.044 129.98 129.961 129.918 129.956 131.036 130.562 129.771 129.848 129.89 129.842 129.766 129.681 129.604 129.58 129.529 129.54 129.465 129.443 129.393 129.35 129.295 129.264 129.21 129.138 129.105 129.058 128.995 128.94 128.86 128.831 128.8 128.68 128.643 128.582 128.519 128.422 128.337 128.274 128.183 128.09 128.033 127.89 127.823 127.735 127.63 127.558 127.46 127.37 127.278 127.16 127.07 126.963 126.87 126.805 126.673 126.613 126.528 126.425 126.328 126.245 126.13 126.032 125.92 125.814 125.707 125.574 125.488 125.366 125.26 125.145 125.04 124.882 124.75 124.618 124.453 124.335 124.205 124.064 123.92 123.757 123.645 123.529 123.405 123.253 123.093 122.933 123.065 123.577 122.557 122.465 122.729 123.672 122.52 121.975 121.853 121.783 121.698 121.658 121.563 121.498 121.403 121.348 121.273 121.21 121.148 121.068 121.005 120.929 120.853 120.773 120.67 120.596 120.498 120.405 120.332 120.208 120.093 119.985 119.881 119.767 119.643 119.515 119.335 119.213 119.063 118.945 118.816 118.625 118.495
108.057 108.043 108.022 108.003 107.985 107.973 107.948 107.902 107.894 107.857 107.823 107.81 107.814 108.664 109.124 108.627 108.132 108.116 108.169 108.209 108.272 108.312 108.358 108.398 108.453 108.495 108.563 108.608 108.668 108.685 108.71 108.77 108.828 108.888 108.94 109.028 109.078 109.125 109.203 109.28 109.355 109.44 109.52 109.578 109.638 109.7 109.743 109.783 109.828 109.865 109.925 109.973 110.008 110.093 110.203 110.293 110.395 110.505 110.598 110.71 110.803 110.89 110.985 111.073 111.168 111.225 111.305 111.418 111.528 111.648 111.765 111.883 112.015 112.165 112.305 112.473 112.605 112.785 112.93 113.11 113.28 113.463 113.6 113.77 113.93 114.09 114.25 114.385 114.5 114.645 114.753 114.875 115.055 115.978 116.255 114.85 116.313 116.428 116.46 116.513 116.653 116.75 116.888 117.085 117.255 117.465 117.633 117.788 117.953 118.113 118.305 118.483 118.655 118.84 118.993 119.13 119.283 119.43 119.57 119.7 119.853 120.018 120.153 120.31 120.46 120.618 120.77 120.925 121.098 121.248 121.403 121.55 121.71 121.88 122.023 122.18 122.335 122.488 122.648 122.81 122.988 123.145 123.328 123.478 123.653 123.818 123.97 124.12 124.28 124.425 124.53 124.625 124.638 124.74 124.895 125.305 125.915 126.093 125.76 125.258 125.295 125.778 126.478 126.483 126.178 126.165 126.288 126.43 126.528 126.655 126.813 126.93 127.053 127.15 127.25 127.35 127.478 127.59 127.675 127.798 127.887 127.967 128.06 128.152 128.242 128.34 128.412 128.485 128.54 128.602 128.67 128.772 128.847 128.952 129.012 129.075 129.13 129.187 129.232 129.282 129.315 129.375 129.502 129.677 129.955 130.197 130.495 130.757 130.73 130.062 129.835 129.802 129.812 129.82 129.877 129.925 129.947 129.99 130.067 130.135 130.172 130.225 130.237 130.255 130.28 130.267 130.305 130.325 130.342 130.387 130.402 130.422 130.412 130.43 130.426 130.444 130.458 130.441 130.475 130.488 130.467 130.466 130.425 130.408 130.388 130.374 130.367 130.367 130.354 130.351 130.366 130.371 130.385 130.387 130.404 130.396 130.394 130.406 130.41 130.4 130.392 130.446 130.364 130.334 130.321 130.308 130.278 130.248 130.22 130.179 130.156 130.12 130.1 130.008 129.933 129.899 129.864 129.783 130.126 131.171 129.65 129.718 129.776 129.792 129.741 129.64 129.558 129.522 129.452 129.396 129.382 129.333 129.271 129.276 129.226 129.207 129.169 129.117 129.039 128.99 128.945 128.867 128.825 128.765 128.7 128.654 128.593 128.535 128.455 128.398 128.308 128.225 128.184 128.096 128.001 127.913 127.812 127.732 127.635 127.511 127.427 127.351 127.255 127.169 127.076 126.931 126.854 126.764 126.655 126.549 126.494 126.381 126.291 126.199 126.105 125.975 125.899 125.768 125.658 125.553 125.415 125.31 125.178 125.071 124.968 124.836 124.706 124.596 124.468 124.352 124.213 124.054 123.922 123.765 123.615 123.508 123.403 123.298 123.118 122.942 122.813 123.525 123.178 122.419 122.348 123.59 123.043 122.026 121.873 121.762 121.693 121.633 121.6 121.521 121.45 121.358 121.298 121.249 121.14 121.088 121.037 120.954 120.878 120.81 120.724 120.61 120.543 120.445 120.365 120.23 120.15 120.02 119.915 119.82 119.707 119.557 119.42 119.285 119.154 119.004 118.83 118.69 118.572 118.389
107.893 107.863 107.835 107.812 107.8 107.787 107.765 107.737 107.71 107.68 107.655 107.635 107.599 108.126 108.908 108.771 107.968 107.954 107.988 108.032 108.079 108.149 108.203 108.23 108.29 108.343 108.375 108.45 108.488 108.52 108.558 108.605 108.668 108.713 108.77 108.853 108.905 108.96 109.013 109.1 109.185 109.255 109.35 109.42 109.47 109.518 109.58 109.62 109.643 109.675 109.715 109.788 109.818 109.913 110 110.1 110.21 110.31 110.433 110.518 110.628 110.708 110.8 110.89 110.978 111.043 111.14 111.243 111.365 111.48 111.608 111.735 111.875 112.01 112.173 112.333 112.473 112.633 112.793 112.953 113.14 113.313 113.473 113.615 113.775 113.94 114.09 114.26 114.373 114.505 114.643 114.748 114.92 115.715 116.515 114.723 115.895 116.468 116.35 116.433 116.543 116.648 116.8 116.995 117.148 117.348 117.54 117.695 117.863 118.033 118.213 118.393 118.563 118.748 118.928 119.073 119.223 119.373 119.495 119.658 119.783 119.935 120.08 120.24 120.383 120.533 120.665 120.86 121.025 121.165 121.333 121.475 121.633 121.793 121.943 122.098 122.253 122.375 122.51 122.675 122.85 123.043 123.183 123.375 123.548 123.7 123.845 124.013 124.133 124.245 124.353 124.468 124.57 124.693 124.95 125.165 125.275 125.478 126.023 126.34 125.693 125.395 125.545 126.055 126.88 126.598 126.3 126.333 126.438 126.558 126.675 126.813 126.94 127.033 127.138 127.27 127.378 127.478 127.62 127.708 127.82 127.902 128 128.092 128.165 128.235 128.325 128.397 128.465 128.525 128.587 128.66 128.707 128.782 128.865 128.972 129.052 129.075 129.122 129.195 129.257 129.31 129.35 129.392 129.442 129.487 129.547 129.742 130.317 130.647 130.797 130.47 130.067 129.85 129.755 129.772 129.81 129.855 129.937 129.985 130.037 130.105 130.157 130.195 130.2 130.21 130.245 130.255 130.267 130.327 130.33 130.292 130.315 130.342 130.375 130.352 130.373 130.391 130.383 130.378 130.398 130.386 130.353 130.351 130.315 130.293 130.28 130.261 130.27 130.271 130.285 130.28 130.311 130.326 130.327 130.323 130.323 130.332 130.332 130.329 130.318 130.316 130.299 130.259 130.246 130.224 130.186 130.173 130.139 130.088 130.064 130.028 130.006 129.948 129.843 129.778 129.796 129.701 130.586 130.689 129.768 129.66 129.697 129.684 129.632 129.543 129.476 129.405 129.34 129.313 129.249 129.234 129.176 129.148 129.075 129.039 129.013 128.987 128.937 128.882 128.833 128.8 128.724 128.653 128.591 128.539 128.476 128.385 128.345 128.29 128.203 128.13 128.044 127.974 127.907 127.806 127.712 127.606 127.493 127.418 127.317 127.231 127.118 127.035 126.921 126.825 126.718 126.637 126.531 126.43 126.348 126.245 126.136 126.042 125.969 125.844 125.737 125.633 125.512 125.425 125.289 125.151 125.045 124.915 124.798 124.65 124.538 124.43 124.29 124.143 124.056 123.905 123.757 123.629 123.518 123.385 123.286 123.13 122.943 122.803 122.756 123.386 122.721 122.273 122.603 123.435 122.145 121.944 121.775 121.698 121.622 121.568 121.51 121.42 121.358 121.32 121.255 121.2 121.13 121.033 120.993 120.918 120.859 120.77 120.683 120.58 120.495 120.393 120.305 120.215 120.077 119.96 119.865 119.733 119.618 119.495 119.362 119.21 119.048 118.918 118.773 118.579 118.42 118.315
107.717 107.68 107.66 107.645 107.63 107.613 107.592 107.552 107.526 107.502 107.471 107.456 107.419 107.732 108.91 109.546 107.796 107.793 107.807 107.859 107.903 107.965 108.003 108.045 108.103 108.173 108.215 108.265 108.325 108.355 108.383 108.433 108.485 108.538 108.585 108.67 108.725 108.775 108.863 108.925 108.993 109.078 109.143 109.213 109.28 109.318 109.38 109.415 109.46 109.495 109.533 109.578 109.62 109.725 109.818 109.908 110.01 110.12 110.245 110.343 110.448 110.53 110.6 110.713 110.805 110.875 110.965 111.07 111.193 111.323 111.448 111.558 111.708 111.863 112.01 112.183 112.325 112.485 112.665 112.803 112.978 113.165 113.328 113.493 113.65 113.813 113.978 114.113 114.255 114.38 114.51 114.618 114.77 114.93 116.073 114.713 115.405 116.385 116.275 116.333 116.415 116.56 116.665 116.905 117.045 117.265 117.44 117.613 117.783 117.958 118.148 118.333 118.51 118.668 118.848 118.998 119.15 119.3 119.42 119.57 119.713 119.865 120.003 120.143 120.313 120.44 120.608 120.773 120.93 121.1 121.23 121.388 121.54 121.678 121.858 121.988 122.13 122.28 122.43 122.575 122.748 122.938 123.108 123.265 123.44 123.588 123.745 123.885 124.035 124.153 124.278 124.365 124.493 124.563 125.23 125.703 125.22 125.18 125.325 125.75 126.335 126.298 125.74 125.56 125.683 126.298 126.883 126.645 126.395 126.425 126.553 126.705 126.863 126.95 127.073 127.173 127.288 127.405 127.463 127.578 127.68 127.83 127.912 127.977 128.082 128.17 128.212 128.292 128.365 128.43 128.525 128.595 128.642 128.702 128.75 128.832 128.887 128.96 129.005 129.075 129.147 129.197 129.252 129.3 129.36 129.395 129.427 129.455 129.505 129.567 129.79 130.07 130.4 130.522 130.672 130.3 129.902 129.857 129.815 129.835 129.905 129.937 130.022 130.062 130.09 130.13 130.175 130.2 130.225 130.242 130.257 130.237 130.255 130.262 130.29 130.3 130.305 130.315 130.3 130.283 130.306 130.279 130.253 130.235 130.228 130.213 130.222 130.213 130.205 130.192 130.199 130.199 130.209 130.223 130.23 130.251 130.25 130.255 130.261 130.253 130.253 130.243 130.215 130.192 130.17 130.149 130.12 130.06 130.048 130.007 129.986 129.948 129.911 129.832 129.761 129.718 129.69 129.642 130.895 130.169 129.544 129.613 129.64 129.578 129.524 129.437 129.368 129.3 129.235 129.215 129.162 129.119 129.058 129.007 128.979 128.97 128.883 128.818 128.793 128.768 128.739 128.671 128.625 128.581 128.543 128.478 128.405 128.319 128.26 128.18 128.094 128.031 127.93 127.848 127.765 127.693 127.584 127.502 127.404 127.315 127.213 127.132 127.021 126.931 126.815 126.713 126.6 126.534 126.415 126.305 126.225 126.123 126.018 125.918 125.81 125.713 125.598 125.503 125.395 125.268 125.164 125.029 124.909 124.789 124.701 124.567 124.43 124.289 124.155 123.985 123.84 123.738 123.585 123.478 123.348 123.235 123.15 122.968 122.823 122.657 123.198 123.44 122.22 122.294 123.051 122.803 121.953 121.832 121.708 121.623 121.538 121.522 121.433 121.375 121.313 121.235 121.198 121.121 121.063 121.004 120.931 120.87 120.795 120.71 120.605 120.525 120.433 120.348 120.233 120.133 120.01 119.918 119.76 119.69 119.538 119.385 119.253 119.113 118.975 118.785 118.645 118.497 118.338 118.158
107.543 107.505 107.482 107.448 107.43 107.415 107.387 107.365 107.329 107.314 107.3 107.268 107.238 107.391 108.133 108.777 107.997 107.604 107.617 107.656 107.721 107.775 107.823 107.85 107.925 107.975 108.025 108.095 108.138 108.163 108.2 108.25 108.3 108.373 108.405 108.468 108.52 108.575 108.66 108.72 108.813 108.898 108.968 109.028 109.065 109.105 109.15 109.2 109.24 109.278 109.32 109.368 109.425 109.515 109.608 109.718 109.82 109.93 110.033 110.143 110.238 110.338 110.418 110.525 110.593 110.69 110.783 110.91 111.023 111.128 111.27 111.418 111.543 111.703 111.868 112.04 112.183 112.353 112.508 112.658 112.833 113.018 113.18 113.343 113.508 113.68 113.83 113.98 114.115 114.248 114.385 114.48 114.633 114.77 115.97 114.71 115.203 116.36 116.188 116.215 116.328 116.458 116.583 116.778 116.935 117.153 117.37 117.535 117.703 117.868 118.048 118.223 118.415 118.61 118.753 118.928 119.065 119.21 119.368 119.488 119.633 119.793 119.93 120.07 120.225 120.363 120.54 120.685 120.84 121 121.165 121.293 121.44 121.61 121.76 121.883 122.028 122.163 122.323 122.49 122.648 122.835 123.018 123.16 123.33 123.465 123.618 123.763 123.938 124.05 124.16 124.298 124.378 124.48 125.42 125.688 125.218 125.18 125.22 125.355 125.635 126.04 126.533 126.46 125.718 125.643 125.76 126.595 127.048 126.708 126.503 126.553 126.71 126.858 126.983 127.083 127.198 127.3 127.395 127.515 127.62 127.705 127.807 127.897 128.012 128.09 128.155 128.21 128.29 128.345 128.39 128.465 128.557 128.612 128.672 128.735 128.772 128.832 128.882 128.945 129.005 129.075 129.135 129.197 129.252 129.312 129.347 129.372 129.415 129.447 129.487 129.505 129.562 129.655 129.955 130.272 130.692 130.702 130.41 129.912 129.81 129.807 129.81 129.872 129.925 129.955 130.017 130.065 130.115 130.152 130.155 130.17 130.195 130.195 130.225 130.23 130.22 130.237 130.215 130.235 130.229 130.215 130.18 130.175 130.15 130.143 130.13 130.132 130.119 130.117 130.137 130.131 130.127 130.149 130.168 130.174 130.155 130.183 130.17 130.186 130.173 130.159 130.142 130.127 130.107 130.071 130.032 130.004 129.975 129.921 129.891 129.881 129.823 129.731 129.673 129.66 129.573 130.024 130.593 129.64 129.459 129.52 129.523 129.474 129.415 129.335 129.253 129.2 129.126 129.089 129.058 129.011 128.974 128.918 128.879 128.815 128.78 128.744 128.694 128.641 128.605 128.555 128.513 128.5 128.436 128.376 128.301 128.263 128.195 128.093 128.03 127.945 127.853 127.8 127.71 127.609 127.507 127.414 127.324 127.23 127.119 127.018 126.912 126.821 126.734 126.63 126.53 126.446 126.329 126.225 126.118 126.009 125.924 125.83 125.734 125.621 125.489 125.383 125.287 125.168 125.055 124.923 124.763 124.68 124.508 124.43 124.298 124.189 124.038 123.91 123.774 123.612 123.469 123.332 123.215 123.098 122.998 122.815 122.69 122.581 123.396 122.693 122.155 122.403 123.582 122.172 121.828 121.703 121.613 121.525 121.48 121.43 121.355 121.309 121.252 121.181 121.135 121.088 121.018 120.931 120.885 120.823 120.738 120.643 120.558 120.468 120.371 120.288 120.159 120.062 119.938 119.823 119.716 119.581 119.488 119.325 119.168 119.008 118.85 118.716 118.57 118.391 118.213 118.045
107.363 107.312 107.287 107.268 107.25 107.238 107.2 107.17 107.125 107.134 107.096 107.07 107.05 107.129 108.103 108.76 108.053 107.422 107.426 107.47 107.528 107.575 107.62 107.663 107.73 107.798 107.843 107.898 107.945 107.968 108.013 108.06 108.13 108.183 108.218 108.275 108.348 108.408 108.468 108.533 108.628 108.71 108.768 108.823 108.85 108.918 108.958 108.995 109.033 109.06 109.108 109.163 109.218 109.305 109.408 109.505 109.603 109.718 109.828 109.92 110.033 110.13 110.238 110.325 110.423 110.505 110.633 110.725 110.858 110.965 111.098 111.228 111.388 111.545 111.71 111.88 112.043 112.21 112.365 112.52 112.688 112.863 113.05 113.208 113.363 113.54 113.703 113.85 114.005 114.118 114.245 114.373 114.483 114.62 115.703 114.968 114.718 116.338 116.11 116.118 116.233 116.373 116.5 116.683 116.868 117.073 117.283 117.435 117.62 117.803 117.96 118.153 118.323 118.51 118.668 118.845 118.998 119.133 119.278 119.413 119.553 119.713 119.843 119.983 120.163 120.313 120.455 120.623 120.768 120.91 121.07 121.23 121.363 121.523 121.66 121.77 121.923 122.085 122.233 122.388 122.563 122.738 122.918 123.058 123.22 123.39 123.533 123.695 123.83 123.968 124.063 124.198 124.305 124.49 125.655 125.408 125.13 125.158 125.203 125.295 125.435 125.578 125.75 126.21 126.86 126.393 125.793 125.75 126.068 126.743 127.053 126.808 126.625 126.703 126.84 126.96 127.075 127.198 127.32 127.413 127.525 127.602 127.73 127.82 127.952 128.01 128.09 128.107 128.187 128.275 128.337 128.41 128.462 128.507 128.56 128.627 128.705 128.755 128.835 128.865 128.905 128.952 128.987 129.067 129.107 129.175 129.247 129.297 129.332 129.382 129.397 129.432 129.46 129.485 129.53 129.58 129.64 129.897 130.397 130.832 130.727 130.327 130.042 129.837 129.81 129.822 129.885 129.905 129.955 130.022 130.02 130.067 130.08 130.102 130.157 130.155 130.15 130.17 130.162 130.175 130.18 130.15 130.113 130.097 130.083 130.066 130.049 130.028 130.056 130.053 130.039 130.059 130.066 130.06 130.09 130.1 130.093 130.112 130.107 130.109 130.114 130.089 130.074 130.051 130.02 129.964 129.947 129.923 129.894 129.867 129.832 129.777 129.702 129.65 129.582 129.556 129.478 129.823 130.599 129.373 129.409 129.45 129.443 129.39 129.302 129.234 129.148 129.093 129.055 129.014 128.97 128.916 128.858 128.825 128.77 128.724 128.656 128.629 128.577 128.538 128.509 128.461 128.404 128.348 128.29 128.253 128.18 128.145 128.084 128.035 127.971 127.872 127.783 127.718 127.641 127.553 127.433 127.35 127.228 127.148 127.038 126.935 126.838 126.735 126.608 126.538 126.408 126.348 126.235 126.12 126.03 125.925 125.813 125.729 125.623 125.483 125.4 125.273 125.168 125.074 124.94 124.796 124.697 124.568 124.425 124.283 124.185 124.04 123.925 123.768 123.65 123.51 123.355 123.23 123.127 123.062 122.896 122.701 122.546 122.915 123.225 122.393 122.059 122.847 123.188 121.873 121.747 121.616 121.523 121.47 121.45 121.363 121.306 121.243 121.185 121.138 121.081 120.988 120.985 120.874 120.824 120.73 120.663 120.563 120.463 120.393 120.315 120.195 120.105 119.983 119.876 119.758 119.628 119.498 119.369 119.228 119.068 118.927 118.749 118.588 118.435 118.268 118.107 117.905
107.17 107.113 107.088 107.065 107.045 107.025 107.01 106.982 106.934 106.947 106.915 106.887 106.861 106.885 108.137 108.156 108.262 107.446 107.224 107.27 107.329 107.372 107.425 107.475 107.54 107.618 107.65 107.698 107.758 107.79 107.835 107.865 107.908 107.993 108.028 108.085 108.16 108.215 108.273 108.35 108.445 108.518 108.573 108.623 108.658 108.703 108.758 108.793 108.818 108.873 108.9 108.955 109.005 109.108 109.2 109.293 109.405 109.518 109.62 109.723 109.848 109.95 110.033 110.135 110.258 110.358 110.445 110.57 110.693 110.82 110.948 111.085 111.233 111.39 111.555 111.718 111.898 112.08 112.205 112.37 112.54 112.743 112.893 113.078 113.235 113.423 113.59 113.738 113.865 114.02 114.12 114.235 114.368 114.463 115.638 115.038 114.5 116.11 115.99 115.993 116.098 116.25 116.353 116.573 116.78 116.95 117.15 117.353 117.525 117.683 117.883 118.065 118.253 118.433 118.618 118.76 118.935 119.058 119.218 119.34 119.49 119.628 119.763 119.923 120.09 120.225 120.383 120.535 120.695 120.853 120.96 121.14 121.283 121.435 121.56 121.69 121.81 121.98 122.173 122.295 122.475 122.648 122.835 122.983 123.15 123.308 123.475 123.633 123.72 123.865 123.963 124.058 124.193 124.548 125.57 125.14 125.023 125.04 125.13 125.268 125.368 125.455 125.558 125.708 125.968 126.528 126.84 126.373 125.878 125.865 126.195 127.01 127.178 126.843 126.735 126.855 126.938 127.065 127.193 127.328 127.44 127.545 127.625 127.71 127.822 127.937 128.027 128.065 128.127 128.192 128.245 128.332 128.387 128.427 128.485 128.552 128.607 128.66 128.73 128.792 128.842 128.895 128.932 128.972 129.01 129.07 129.127 129.182 129.225 129.275 129.302 129.332 129.382 129.412 129.427 129.475 129.51 129.535 129.595 129.77 130.15 130.67 130.862 130.962 130.622 130.282 130.097 129.927 129.867 129.88 129.905 129.91 129.942 129.99 130.017 130.05 130.07 130.12 130.137 130.13 130.122 130.11 130.107 130.085 130.01 130.007 129.983 129.969 129.985 129.963 129.961 129.984 129.998 130.008 130.043 130.036 130.049 130.045 130.051 130.051 130.044 130.029 129.998 129.982 129.952 129.919 129.889 129.86 129.824 129.792 129.749 129.676 129.61 129.553 129.493 129.47 129.479 130.39 129.565 129.291 129.373 129.375 129.368 129.28 129.199 129.144 129.065 129.025 128.99 128.948 128.89 128.85 128.798 128.769 128.691 128.649 128.58 128.54 128.507 128.462 128.429 128.367 128.325 128.275 128.215 128.184 128.122 128.029 127.966 127.918 127.842 127.763 127.697 127.593 127.538 127.477 127.365 127.278 127.182 127.072 126.991 126.874 126.764 126.655 126.567 126.454 126.348 126.271 126.159 126.031 125.96 125.838 125.748 125.645 125.54 125.424 125.293 125.18 125.045 124.94 124.823 124.71 124.57 124.43 124.316 124.185 124.072 123.955 123.793 123.668 123.512 123.395 123.276 123.125 123.035 122.913 122.77 122.565 122.463 123.025 122.723 121.985 122.22 123.303 122.567 121.765 121.608 121.55 121.474 121.422 121.35 121.278 121.225 121.18 121.144 121.06 120.993 120.964 120.888 120.825 120.755 120.674 120.608 120.518 120.407 120.308 120.218 120.113 120.015 119.88 119.763 119.674 119.52 119.415 119.273 119.129 118.964 118.763 118.593 118.492 118.308 118.143 117.985 117.826
106.963 106.925 106.902 106.872 106.853 106.818 106.815 106.785 106.747 106.734 106.718 106.678 106.663 106.62 107.378 108.35 108.281 107.069 107.025 107.061 107.097 107.165 107.238 107.29 107.345 107.39 107.45 107.52 107.57 107.62 107.643 107.678 107.725 107.783 107.83 107.88 107.983 108.023 108.085 108.158 108.238 108.32 108.388 108.43 108.458 108.523 108.555 108.593 108.633 108.663 108.713 108.755 108.815 108.885 108.985 109.103 109.223 109.34 109.428 109.525 109.645 109.78 109.865 109.963 110.085 110.183 110.3 110.385 110.51 110.65 110.79 110.94 111.1 111.248 111.408 111.598 111.748 111.918 112.08 112.24 112.423 112.595 112.778 112.94 113.103 113.29 113.448 113.59 113.74 113.875 113.99 114.103 114.24 114.33 115.198 115.258 114.178 115.87 115.963 115.903 115.98 116.113 116.248 116.418 116.638 116.823 117.07 117.238 117.41 117.58 117.77 117.97 118.17 118.343 118.525 118.68 118.843 118.963 119.128 119.273 119.41 119.568 119.7 119.835 119.99 120.163 120.313 120.485 120.628 120.773 120.923 121.06 121.215 121.358 121.488 121.63 121.763 121.9 122.07 122.253 122.42 122.573 122.725 122.863 123.053 123.215 123.35 123.525 123.643 123.773 123.833 123.945 124.088 124.508 125.373 124.928 124.863 124.96 125.09 125.133 125.233 125.323 125.458 125.563 125.685 125.838 126.1 126.693 126.92 126.273 125.878 125.948 126.41 127.13 127.235 126.888 126.838 126.908 127.06 127.2 127.3 127.445 127.555 127.642 127.7 127.81 127.915 128 128.067 128.115 128.192 128.242 128.29 128.325 128.435 128.487 128.52 128.582 128.662 128.685 128.745 128.797 128.887 128.892 128.965 129.015 129.07 129.082 129.112 129.152 129.19 129.245 129.287 129.325 129.355 129.38 129.422 129.44 129.49 129.522 129.547 129.582 129.822 130.19 130.44 130.737 130.9 130.842 130.697 130.492 130.12 130.002 129.872 129.865 129.892 129.917 129.95 130.007 130.012 129.982 130.01 130.015 130.015 130.002 129.968 129.989 129.968 129.929 129.914 129.913 129.907 129.93 129.917 129.948 129.945 129.957 129.959 129.968 129.978 129.976 129.959 129.943 129.935 129.907 129.872 129.842 129.816 129.789 129.761 129.708 129.677 129.599 129.561 129.479 129.425 129.341 129.301 130.728 129.372 129.232 129.287 129.315 129.288 129.215 129.134 129.075 129.018 128.938 128.908 128.855 128.804 128.774 128.712 128.68 128.58 128.553 128.509 128.477 128.403 128.363 128.333 128.303 128.239 128.221 128.165 128.11 128.023 127.955 127.903 127.809 127.75 127.67 127.579 127.505 127.445 127.34 127.245 127.147 127.065 126.977 126.887 126.765 126.698 126.593 126.48 126.382 126.272 126.188 126.078 125.96 125.856 125.764 125.659 125.556 125.452 125.325 125.216 125.105 124.978 124.888 124.735 124.596 124.478 124.328 124.198 124.075 123.955 123.818 123.71 123.563 123.428 123.275 123.155 123.05 122.951 122.837 122.596 122.43 122.368 123.358 122.07 121.955 122.306 122.648 121.783 121.635 121.529 121.47 121.378 121.323 121.279 121.194 121.16 121.09 121.035 121.005 120.918 120.873 120.835 120.766 120.67 120.603 120.518 120.418 120.325 120.23 120.138 120.01 119.9 119.83 119.695 119.575 119.45 119.303 119.135 119 118.86 118.711 118.513 118.345 118.17 118.013 117.838 117.67
106.762 106.725 106.692 106.66 106.632 106.618 106.595 106.582 106.562 106.527 106.519 106.47 106.453 106.44 106.955 108.202 107.907 106.9 106.832 106.853 106.893 106.962 107.033 107.095 107.145 107.193 107.243 107.303 107.373 107.425 107.468 107.513 107.548 107.605 107.643 107.723 107.775 107.845 107.91 107.978 108.06 108.123 108.188 108.223 108.275 108.313 108.35 108.393 108.435 108.47 108.508 108.56 108.615 108.673 108.783 108.905 109.008 109.12 109.245 109.323 109.435 109.558 109.665 109.778 109.89 109.99 110.105 110.228 110.355 110.488 110.618 110.773 110.925 111.095 111.23 111.43 111.598 111.773 111.923 112.08 112.28 112.45 112.625 112.813 112.945 113.12 113.273 113.44 113.585 113.74 113.863 113.965 114.075 114.208 114.973 115.308 113.975 115.448 115.885 115.783 115.855 115.998 116.13 116.315 116.51 116.7 116.96 117.128 117.305 117.498 117.673 117.868 118.07 118.265 118.418 118.59 118.745 118.885 119.048 119.188 119.343 119.498 119.603 119.748 119.913 120.068 120.225 120.39 120.555 120.695 120.833 120.985 121.158 121.29 121.42 121.545 121.698 121.835 121.978 122.15 122.328 122.498 122.648 122.815 122.965 123.113 123.243 123.403 123.53 123.643 123.735 123.845 123.983 124.485 125.383 124.73 124.768 124.843 124.98 125.048 125.173 125.263 125.363 125.473 125.613 125.693 125.825 125.988 126.415 126.908 126.938 126.325 125.995 126.063 126.613 127.32 127.303 126.92 126.93 127.05 127.167 127.29 127.4 127.535 127.642 127.725 127.815 127.9 127.987 128.042 128.127 128.172 128.217 128.302 128.345 128.425 128.472 128.53 128.57 128.635 128.677 128.72 128.77 128.82 128.877 128.955 128.957 129.025 129.067 129.08 129.09 129.13 129.162 129.222 129.255 129.307 129.332 129.352 129.395 129.455 129.482 129.507 129.51 129.532 129.585 129.692 129.845 130.077 130.547 130.772 131.077 130.985 130.722 130.49 130.162 129.89 129.827 129.86 129.857 129.845 129.86 129.89 129.905 129.912 129.915 129.91 129.9 129.904 129.882 129.876 129.874 129.872 129.849 129.877 129.895 129.889 129.884 129.903 129.924 129.911 129.9 129.888 129.87 129.831 129.808 129.773 129.753 129.716 129.687 129.648 129.583 129.504 129.433 129.376 129.358 129.263 129.486 131.01 129.435 129.193 129.24 129.242 129.197 129.122 129.05 128.986 128.928 128.88 128.856 128.799 128.736 128.708 128.635 128.603 128.531 128.488 128.428 128.373 128.335 128.298 128.248 128.204 128.144 128.134 128.06 128.003 127.933 127.889 127.828 127.741 127.649 127.588 127.495 127.393 127.34 127.233 127.135 127.055 126.94 126.863 126.758 126.661 126.593 126.475 126.419 126.31 126.21 126.115 125.995 125.885 125.79 125.678 125.568 125.473 125.36 125.25 125.13 125.03 124.915 124.788 124.652 124.525 124.377 124.263 124.155 124 123.862 123.73 123.578 123.415 123.268 123.165 123.043 122.923 122.81 122.648 122.503 122.34 122.817 123.01 121.863 121.878 122.905 122.696 121.626 121.51 121.425 121.358 121.318 121.262 121.2 121.145 121.077 121.015 120.943 120.918 120.865 120.805 120.737 120.683 120.595 120.49 120.41 120.328 120.27 120.148 120.033 119.948 119.808 119.683 119.57 119.448 119.335 119.16 119.034 118.869 118.71 118.543 118.385 118.233 118.027 117.88 117.72 117.537
106.555 106.52 106.49 106.458 106.442 106.408 106.39 106.372 106.342 106.305 106.287 106.25 106.228 106.206 106.407 108.3 109.002 107.088 106.633 106.641 106.698 106.76 106.82 106.873 106.935 106.99 107.053 107.108 107.168 107.23 107.26 107.303 107.358 107.413 107.465 107.523 107.575 107.66 107.735 107.785 107.86 107.908 107.97 108.025 108.06 108.1 108.135 108.168 108.205 108.25 108.295 108.34 108.395 108.458 108.568 108.67 108.773 108.895 108.993 109.108 109.218 109.345 109.455 109.585 109.69 109.815 109.92 110.035 110.125 110.29 110.44 110.608 110.763 110.883 111.08 111.24 111.425 111.585 111.738 111.92 112.085 112.263 112.455 112.625 112.788 112.948 113.1 113.278 113.423 113.593 113.68 113.81 113.91 114.063 114.538 115.365 113.9 115.083 115.838 115.688 115.743 115.868 116.013 116.158 116.39 116.575 116.803 117.008 117.203 117.373 117.548 117.733 117.94 118.14 118.32 118.478 118.645 118.813 118.96 119.11 119.263 119.4 119.563 119.705 119.855 120.018 120.18 120.338 120.49 120.628 120.778 120.928 121.06 121.218 121.348 121.473 121.608 121.73 121.893 122.075 122.228 122.4 122.548 122.715 122.85 123.005 123.173 123.318 123.433 123.555 123.625 123.738 123.86 124.558 125.095 124.6 124.68 124.703 124.835 124.923 125.078 125.195 125.295 125.395 125.495 125.595 125.7 125.8 125.935 126.145 126.623 127.055 126.858 126.245 126.113 126.21 126.755 127.413 127.28 127.055 127.077 127.182 127.305 127.395 127.52 127.622 127.73 127.815 127.882 127.947 128.01 128.077 128.16 128.23 128.297 128.35 128.392 128.445 128.475 128.55 128.59 128.617 128.71 128.77 128.817 128.835 128.897 128.925 128.985 129.025 129.05 129.07 129.085 129.127 129.165 129.182 129.232 129.26 129.315 129.352 129.39 129.425 129.45 129.487 129.515 129.55 129.59 129.64 129.64 129.692 129.852 130.317 130.425 130.76 130.992 131.092 130.72 130.447 130.08 129.835 129.832 129.742 129.762 129.77 129.812 129.81 129.837 129.835 129.862 129.837 129.844 129.853 129.822 129.813 129.814 129.819 129.84 129.859 129.855 129.86 129.835 129.839 129.83 129.789 129.751 129.726 129.692 129.641 129.599 129.549 129.506 129.403 129.34 129.308 129.252 129.229 129.897 130.005 129.064 129.149 129.182 129.178 129.084 129.02 128.963 128.911 128.859 128.833 128.792 128.731 128.678 128.64 128.586 128.543 128.49 128.398 128.363 128.31 128.269 128.231 128.164 128.125 128.085 128.039 127.985 127.93 127.863 127.798 127.717 127.635 127.563 127.474 127.406 127.317 127.237 127.138 127.053 126.932 126.838 126.728 126.64 126.544 126.445 126.355 126.275 126.188 126.114 126.017 125.919 125.826 125.748 125.644 125.544 125.44 125.317 125.169 125.075 124.934 124.84 124.702 124.55 124.418 124.278 124.153 124.025 123.923 123.76 123.632 123.477 123.311 123.204 123.034 122.929 122.824 122.678 122.485 122.32 122.258 122.928 122.465 121.863 121.987 122.985 121.653 121.513 121.4 121.319 121.28 121.248 121.183 121.129 121.078 120.995 120.91 120.866 120.835 120.753 120.71 120.648 120.58 120.493 120.423 120.295 120.225 120.128 120.053 119.961 119.81 119.71 119.605 119.478 119.36 119.233 119.081 118.915 118.733 118.593 118.423 118.233 118.093 117.921 117.726 117.568 117.41
106.35 106.315 106.277 106.25 106.225 106.2 106.18 106.167 106.14 106.085 106.088 106.058 106.007 105.991 105.996 106.568 107.58 107.006 106.44 106.445 106.49 106.54 106.623 106.663 106.72 106.788 106.843 106.898 106.96 107.018 107.06 107.083 107.135 107.193 107.273 107.325 107.388 107.445 107.518 107.56 107.648 107.698 107.755 107.793 107.845 107.875 107.908 107.93 107.97 108.02 108.055 108.115 108.148 108.213 108.31 108.44 108.523 108.638 108.74 108.853 108.978 109.108 109.225 109.36 109.46 109.595 109.728 109.84 109.963 110.11 110.255 110.405 110.553 110.703 110.898 111.06 111.235 111.395 111.578 111.743 111.903 112.08 112.263 112.433 112.625 112.765 112.93 113.078 113.27 113.403 113.533 113.665 113.768 113.903 114.255 115.483 113.973 114.49 115.708 115.59 115.603 115.735 115.87 116.02 116.26 116.455 116.668 116.87 117.058 117.25 117.428 117.633 117.853 118.033 118.25 118.38 118.518 118.68 118.84 119.01 119.145 119.298 119.435 119.623 119.773 119.935 120.075 120.263 120.405 120.54 120.713 120.86 120.973 121.128 121.263 121.395 121.523 121.68 121.838 121.993 122.15 122.29 122.455 122.61 122.75 122.908 123.068 123.19 123.323 123.468 123.538 123.618 123.745 124.528 124.818 124.463 124.533 124.578 124.718 124.83 124.913 125.03 125.165 125.32 125.415 125.518 125.605 125.673 125.773 125.875 126.035 126.288 126.843 127.16 126.803 126.258 126.19 126.355 127.018 127.493 127.325 127.117 127.167 127.282 127.405 127.522 127.622 127.69 127.797 127.88 127.957 128.002 128.062 128.13 128.227 128.277 128.342 128.385 128.452 128.48 128.515 128.577 128.625 128.69 128.72 128.775 128.83 128.86 128.892 128.94 128.96 128.987 129.017 129.03 129.095 129.122 129.152 129.157 129.2 129.235 129.28 129.325 129.342 129.41 129.445 129.45 129.477 129.515 129.547 129.577 129.58 129.64 129.652 129.67 129.877 130.147 130.342 130.812 130.965 131.012 130.657 130.265 129.882 129.675 129.625 129.65 129.647 129.7 129.72 129.762 129.755 129.777 129.804 129.811 129.795 129.798 129.799 129.805 129.795 129.794 129.786 129.778 129.754 129.714 129.694 129.661 129.615 129.579 129.523 129.473 129.412 129.333 129.271 129.23 129.178 129.275 130.101 129.869 129.031 129.142 129.138 129.113 129.028 128.95 128.908 128.852 128.799 128.735 128.684 128.661 128.592 128.541 128.509 128.455 128.388 128.33 128.283 128.231 128.185 128.145 128.083 128.053 128.022 127.968 127.905 127.848 127.778 127.695 127.607 127.556 127.475 127.394 127.286 127.212 127.128 127.013 126.905 126.795 126.703 126.61 126.533 126.43 126.34 126.235 126.155 126.078 125.973 125.918 125.805 125.678 125.633 125.528 125.415 125.349 125.23 125.108 125 124.89 124.769 124.632 124.495 124.359 124.233 124.086 123.941 123.795 123.645 123.463 123.355 123.205 123.05 122.948 122.793 122.68 122.56 122.372 122.229 122.538 122.986 121.938 121.79 121.958 122.878 121.729 121.407 121.273 121.23 121.19 121.176 121.095 121.053 120.998 120.929 120.837 120.785 120.75 120.688 120.605 120.53 120.465 120.377 120.306 120.21 120.135 120.015 119.913 119.833 119.733 119.61 119.468 119.36 119.246 119.068 118.973 118.805 118.658 118.483 118.308 118.171 117.962 117.78 117.61 117.45 117.265
106.12 106.088 106.057 106.048 106.007 105.995 105.98 105.955 105.925 105.869 105.858 105.827 105.791 105.772 105.758 106.47 107.463 107.178 106.258 106.233 106.287 106.34 106.405 106.465 106.508 106.573 106.628 106.685 106.75 106.815 106.853 106.9 106.935 106.978 107.045 107.128 107.173 107.238 107.3 107.363 107.413 107.478 107.533 107.59 107.613 107.64 107.653 107.708 107.728 107.765 107.798 107.85 107.9 107.978 108.06 108.16 108.263 108.375 108.493 108.598 108.715 108.848 108.975 109.113 109.233 109.368 109.503 109.633 109.748 109.898 110.05 110.213 110.353 110.51 110.705 110.863 111.043 111.22 111.383 111.553 111.723 111.883 112.085 112.27 112.433 112.578 112.74 112.91 113.093 113.215 113.368 113.49 113.59 113.753 114.008 115.323 114.178 113.958 115.558 115.46 115.463 115.598 115.748 115.885 116.08 116.288 116.503 116.733 116.923 117.088 117.288 117.513 117.705 117.91 118.095 118.273 118.443 118.6 118.758 118.915 119.075 119.258 119.413 119.55 119.703 119.87 120.01 120.168 120.35 120.465 120.618 120.763 120.905 121.058 121.193 121.31 121.423 121.573 121.725 121.888 122.055 122.208 122.365 122.508 122.658 122.815 122.963 123.105 123.2 123.323 123.403 123.505 123.615 124.598 124.618 124.315 124.398 124.465 124.62 124.735 124.83 124.895 125.03 125.198 125.33 125.43 125.513 125.613 125.668 125.73 125.863 125.958 126.143 126.498 127.065 127.258 126.71 126.313 126.285 126.528 127.215 127.622 127.427 127.225 127.29 127.4 127.52 127.607 127.69 127.775 127.852 127.935 128.02 128.052 128.142 128.217 128.237 128.29 128.342 128.407 128.467 128.512 128.562 128.592 128.617 128.702 128.737 128.795 128.807 128.855 128.895 128.907 128.945 128.937 128.995 129.04 129.082 129.097 129.137 129.187 129.2 129.202 129.235 129.267 129.322 129.365 129.382 129.42 129.43 129.455 129.49 129.535 129.565 129.59 129.632 129.635 129.667 129.725 129.832 130.052 130.602 130.897 130.847 130.712 130.252 129.902 129.57 129.545 129.57 129.602 129.647 129.675 129.706 129.719 129.724 129.759 129.749 129.753 129.773 129.762 129.74 129.725 129.696 129.664 129.639 129.604 129.558 129.505 129.473 129.413 129.333 129.25 129.208 129.167 129.114 129.373 130.417 129.155 129.042 129.107 129.116 129.082 128.988 128.889 128.835 128.82 128.768 128.697 128.653 128.594 128.54 128.465 128.398 128.362 128.305 128.255 128.198 128.148 128.103 128.06 128.012 127.95 127.895 127.848 127.805 127.735 127.659 127.58 127.508 127.433 127.369 127.268 127.2 127.091 127.009 126.902 126.8 126.718 126.606 126.509 126.419 126.334 126.235 126.161 126.071 125.976 125.897 125.81 125.696 125.624 125.522 125.411 125.331 125.223 125.118 124.988 124.901 124.8 124.655 124.555 124.403 124.275 124.148 124.003 123.886 123.696 123.543 123.412 123.26 123.116 122.942 122.818 122.68 122.54 122.388 122.213 122.093 122.653 122.655 121.709 121.729 122.131 122.61 121.503 121.323 121.165 121.113 121.075 121.055 121.021 120.95 120.893 120.81 120.778 120.732 120.64 120.595 120.51 120.435 120.35 120.278 120.193 120.103 120.008 119.905 119.812 119.725 119.603 119.485 119.401 119.248 119.133 118.986 118.817 118.67 118.533 118.393 118.182 117.985 117.835 117.663 117.468 117.305 117.108
105.92 105.87 105.84 105.808 105.792 105.787 105.768 105.743 105.721 105.669 105.638 105.613 105.569 105.552 105.517 106.07 107.436 107.383 106.56 106.031 106.08 106.125 106.19 106.245 106.295 106.358 106.42 106.468 106.535 106.595 106.655 106.688 106.713 106.773 106.848 106.903 106.965 107.025 107.075 107.13 107.185 107.268 107.315 107.325 107.368 107.388 107.423 107.46 107.483 107.508 107.555 107.593 107.64 107.695 107.805 107.915 107.993 108.11 108.228 108.325 108.46 108.605 108.74 108.865 108.995 109.128 109.283 109.403 109.53 109.678 109.835 109.998 110.168 110.323 110.508 110.675 110.848 111.028 111.195 111.348 111.515 111.713 111.885 112.075 112.25 112.398 112.538 112.74 112.905 113.058 113.213 113.34 113.46 113.585 113.7 115.005 114.205 113.71 115.215 115.328 115.323 115.445 115.603 115.743 115.955 116.15 116.368 116.593 116.78 116.945 117.165 117.368 117.578 117.783 117.978 118.14 118.315 118.495 118.655 118.815 118.963 119.128 119.293 119.448 119.625 119.768 119.908 120.073 120.223 120.36 120.5 120.67 120.813 120.95 121.088 121.228 121.338 121.505 121.65 121.81 121.953 122.105 122.253 122.4 122.555 122.71 122.843 122.983 123.088 123.228 123.268 123.375 123.555 124.615 124.385 124.208 124.24 124.35 124.483 124.618 124.725 124.82 124.933 125.055 125.163 125.28 125.403 125.505 125.593 125.653 125.723 125.82 125.93 126.05 126.268 126.763 127.29 127.21 126.76 126.398 126.347 126.65 127.295 127.652 127.407 127.327 127.402 127.515 127.625 127.667 127.737 127.84 127.922 127.982 128.05 128.117 128.202 128.257 128.277 128.312 128.355 128.442 128.472 128.512 128.542 128.592 128.635 128.675 128.732 128.76 128.797 128.832 128.87 128.885 128.927 128.945 128.99 129.017 129.025 129.07 129.12 129.135 129.152 129.177 129.207 129.212 129.25 129.31 129.322 129.35 129.38 129.45 129.467 129.505 129.535 129.542 129.587 129.61 129.64 129.672 129.677 129.787 129.965 130.455 130.79 130.872 130.745 130.227 130.097 129.642 129.497 129.527 129.552 129.614 129.635 129.679 129.694 129.735 129.746 129.756 129.715 129.704 129.681 129.618 129.589 129.546 129.507 129.457 129.408 129.349 129.262 129.203 129.139 129.105 129.081 129.841 130.199 129.086 129.018 129.068 129.059 128.974 128.893 128.834 128.777 128.749 128.696 128.648 128.595 128.555 128.495 128.452 128.381 128.313 128.245 128.185 128.112 128.088 128.014 127.969 127.93 127.868 127.815 127.76 127.694 127.625 127.57 127.49 127.393 127.329 127.257 127.184 127.072 126.973 126.879 126.779 126.684 126.602 126.493 126.365 126.295 126.213 126.131 126.023 125.915 125.853 125.758 125.68 125.593 125.501 125.418 125.3 125.204 125.122 125.017 124.911 124.807 124.675 124.558 124.452 124.303 124.174 124.036 123.898 123.723 123.593 123.448 123.29 123.163 122.99 122.875 122.723 122.595 122.455 122.264 122.071 121.922 122.95 121.895 121.733 121.653 121.863 122.323 121.539 121.21 121.083 120.985 120.971 120.942 120.895 120.863 120.822 120.739 120.67 120.618 120.545 120.497 120.433 120.335 120.235 120.168 120.093 119.998 119.903 119.8 119.695 119.588 119.503 119.363 119.27 119.14 119.008 118.845 118.698 118.545 118.388 118.213 118.068 117.905 117.678 117.533 117.354 117.168 116.958
