ncols 500
nrows 33
xllcorner    247000
yllcorner    134140
cellsize     2
NODATA_value -9999
2.48 2.495 2.49 2.483 2.493 2.507 2.525 2.513 2.487 2.5 2.513 2.53 2.553 2.56 2.587 2.615 2.642 2.69 2.7 2.747 2.765 2.777 2.815 2.832 2.888 2.963 3.033 3.045 3.037 4.395 3.265 3.227 3.25 3.233 3.213 3.195 3.203 3.162 3.115 3.067 3.033 2.995 2.953 2.91 2.838 2.775 2.747 2.735 2.707 2.685 2.685 2.658 2.63 2.602 2.555 2.55 2.585 2.575 2.562 2.533 2.513 2.443 2.47 2.485 2.438 2.388 2.35 2.335 2.297 2.283 2.307 2.26 2.25 2.245 2.227 2.205 2.193 2.178 2.15 2.155 2.145 2.16 2.173 2.188 2.16 2.142 2.1 2.117 2.11 2.12 2.11 2.14 2.14 2.133 2.125 2.19 2.158 2.183 2.217 2.227 2.24 2.237 2.215 2.235 2.227 2.25 2.247 2.25 2.275 2.233 2.26 2.205 2.273 2.118 2.145 2.055 2.1 2.102 2.117 2.108 2.082 2.087 2.06 2.092 2.227 2.273 2.2 2.557 2.34 2.303 2.1 2.033 2.007 1.99 2.053 2.138 2.08 2.08 2.133 2.145 2.233 2.317 2.375 2.568 2.545 2.635 2.723 2.81 2.892 2.975 3.105 3.237 3.347 3.378 3.428 3.352 3.283 3.267 3.322 3.365 3.33 3.31 3.325 3.375 3.385 3.327 3.793 4.043 3.217 3.24 3.285 3.335 3.378 3.36 3.403 3.467 3.487 3.48 3.495 3.497 3.515 3.537 3.562 3.54 3.582 3.66 3.74 3.882 3.95 4.855 5.31 4.608 4.015 4.108 4.312 4.382 4.475 4.537 4.602 4.63 4.688 4.758 4.82 4.867 4.91 4.905 4.898 4.88 4.89 4.87 4.918 5.005 5.017 4.97 4.905 4.812 4.757 4.693 4.673 4.693 4.653 4.69 4.722 4.783 4.84 4.8 4.738 4.875 4.79 4.805 4.8 4.758 4.727 4.613 4.565 4.557 4.533 4.54 4.545 4.535 4.515 4.513 4.483 4.467 4.43 4.39 4.405 4.432 4.44 4.45 4.457 4.45 4.457 4.443 4.443 4.44 4.46 4.465 4.48 4.485 4.488 4.457 4.47 4.462 4.407 4.395 4.387 4.375 4.387 4.41 4.44 4.445 4.438 4.472 4.47 4.44 4.38 4.338 4.312 4.347 4.37 4.37 4.36 4.352 4.358 4.382 4.39 4.38 4.387 4.387 4.358 4.368 4.315 4.3 4.305 4.27 4.242 4.188 4.17 4.238 4.298 4.312 4.285 4.28 4.27 4.29 4.307 4.303 4.3 4.278 4.267 4.23 4.452 5.488 4.452 4.148 4.17 4.21 4.242 4.238 4.233 4.253 4.263 4.267 4.275 4.275 4.27 4.283 4.24 4.233 4.25 4.24 4.24 4.222 4.22 4.158 4.113 4.172 4.217 4.25 4.235 4.227 4.207 4.198 4.205 4.215 4.21 4.2 4.188 4.185 4.155 4.155 4.118 4.115 4.092 4.128 4.082 4.062 4.08 4.175 4.097 3.996 4.004 4.032 4.029 4.056 4.068 4.056 3.961 3.855 3.783 3.591 3.344 3.415 3.57 2.788 2.104 2.49 2.774 2.502 3.492 4.226 4.206 3.966 4.253 4.549 4.653 4.712 4.766 4.81 4.942 5.31 5.59 5.525 5.23 4.865 4.6 4.325 4.03 3.793 3.557 3.463 3.392 3.34 3.237 3.128 3.128 3.158 3.16 3.153 3.142 3.787 4.637 4.7 2.932 3.85 3.425 2.555 2.283 2.14 2.013 1.925 1.89 1.87 1.868 1.868 1.82 1.783 1.78 1.798 1.8 1.817 1.825 1.805 1.81 1.82 1.808 1.82 1.812 1.805 1.81 1.828 1.787 1.805 1.817 1.817 1.808 1.79 1.8 1.803 1.803 1.815 1.8 1.805 1.812 1.827 1.812 1.79 1.8 1.81 1.817 1.795 1.808 1.793 1.82 1.787 1.832 1.789 1.769 1.738 1.708 1.669 1.649 1.622 1.596 1.561 1.549 1.534 1.506 1.447 1.412 1.309 1.34 1.404 1.454 1.451 1.216 1.028 0.911 0.689 0.524 0.414 0.447 0.475 0.429 0.369 0.458 0.482 0.527 0.564
2.545 2.577 2.562 2.555 2.565 2.59 2.59 2.59 2.56 2.572 2.582 2.585 2.638 2.66 2.67 2.685 2.69 2.713 2.75 2.817 2.875 2.92 2.99 3.057 3.172 3.342 3.457 3.403 3.535 3.862 3.403 3.438 3.412 3.41 3.392 3.372 3.385 3.368 3.315 3.265 3.215 3.162 3.13 3.075 3.003 2.97 2.938 2.898 2.855 2.815 2.795 2.79 2.757 2.723 2.703 2.688 2.688 2.665 2.648 2.63 2.595 2.575 2.602 2.565 2.497 2.475 2.467 2.465 2.435 2.403 2.355 2.365 2.347 2.335 2.34 2.325 2.253 2.205 2.227 2.168 2.19 2.203 2.195 2.193 2.183 2.2 2.183 2.17 2.148 2.122 2.14 2.112 2.118 2.105 2.102 2.112 2.132 2.143 2.213 2.2 2.165 2.155 2.193 2.195 2.235 2.215 2.273 2.247 2.227 2.253 2.237 2.24 2.235 2.16 2.195 2.082 2.13 2.148 2.17 2.153 2.153 2.122 2.097 2.077 2.12 2.153 2.298 2.205 2.227 2.477 2.175 2.055 2.045 2.005 1.997 1.99 2.017 2.05 2.087 2.097 2.133 2.207 2.31 2.41 2.445 2.555 2.65 2.73 2.793 2.865 2.973 3.07 3.185 3.32 3.425 3.425 3.38 3.3 3.267 3.3 3.322 3.287 3.277 3.3 3.283 3.277 4.262 3.385 3.21 3.26 3.267 3.29 3.335 3.355 3.403 3.428 3.463 3.433 3.455 3.457 3.475 3.507 3.525 3.493 3.55 3.562 3.592 3.67 3.743 4.515 5.238 4.005 3.97 4.003 4.062 4.145 4.255 4.318 4.375 4.435 4.517 4.6 4.68 4.73 4.812 4.847 4.855 4.865 4.865 4.885 4.918 4.988 4.995 4.963 4.863 4.755 4.677 4.64 4.648 4.648 4.642 4.67 4.715 4.798 4.807 4.742 4.765 4.845 4.74 4.727 4.71 4.655 4.717 4.64 4.578 4.545 4.54 4.535 4.545 4.54 4.533 4.515 4.51 4.492 4.43 4.35 4.422 4.455 4.452 4.477 4.492 4.485 4.492 4.51 4.515 4.497 4.503 4.477 4.452 4.46 4.497 4.432 4.528 4.543 4.51 4.488 4.46 4.4 4.385 4.387 4.422 4.43 4.445 4.477 4.46 4.403 4.363 4.32 4.335 4.345 4.36 4.372 4.378 4.368 4.365 4.383 4.383 4.383 4.385 4.395 4.37 4.368 4.347 4.332 4.318 4.287 4.26 4.202 4.158 4.18 4.26 4.28 4.262 4.253 4.265 4.278 4.293 4.293 4.28 4.255 4.243 4.2 4.895 5.578 4.142 4.16 4.182 4.188 4.227 4.233 4.225 4.25 4.258 4.262 4.263 4.267 4.285 4.275 4.233 4.215 4.233 4.247 4.227 4.227 4.202 4.128 4.122 4.175 4.217 4.23 4.22 4.217 4.205 4.195 4.2 4.205 4.202 4.205 4.177 4.182 4.165 4.157 4.165 4.13 4.097 4.113 4.1 4.062 4.09 4.188 4.048 3.98 4.005 4.007 4.012 4.004 3.98 3.908 3.828 3.727 3.441 3.094 3.176 3.013 2.501 2.173 2.062 2.109 2.411 3.479 3.946 3.802 3.972 4.36 4.574 4.645 4.699 4.741 4.802 5.081 5.475 5.548 5.355 5.037 4.722 4.443 4.165 3.878 3.66 3.473 3.37 3.32 3.263 3.148 3.075 3.1 3.142 3.158 3.133 3.115 4.035 3.658 3.778 3.358 2.635 2.565 2.407 2.197 2.043 1.962 1.915 1.885 1.865 1.855 1.827 1.803 1.773 1.812 1.803 1.815 1.817 1.832 1.822 1.82 1.81 1.83 1.832 1.822 1.832 1.805 1.797 1.832 1.82 1.785 1.812 1.83 1.812 1.8 1.81 1.815 1.79 1.803 1.832 1.82 1.8 1.83 1.82 1.815 1.83 1.808 1.82 1.807 1.81 1.81 1.832 1.817 1.808 1.765 1.727 1.689 1.688 1.635 1.638 1.601 1.574 1.533 1.496 1.476 1.416 1.323 1.05 0.901 0.951 1.045 1.351 1.417 0.953 0.953 0.784 0.656 0.557 0.475 0.405 0.45 0.459 0.438 0.497 0.607 0.619 0.719
2.63 2.645 2.638 2.632 2.642 2.685 2.688 2.658 2.65 2.658 2.665 2.673 2.68 2.71 2.743 2.78 2.81 2.85 2.905 3.007 3.085 3.18 3.283 3.385 3.465 3.527 3.587 3.53 4.162 3.622 3.543 3.592 3.575 3.592 3.58 3.535 3.557 3.572 3.54 3.43 3.37 3.332 3.297 3.26 3.217 3.165 3.125 3.077 3.01 2.985 2.953 2.938 2.895 2.85 2.82 2.822 2.82 2.775 2.747 2.723 2.695 2.697 2.68 2.602 2.562 2.507 2.525 2.545 2.545 2.497 2.485 2.433 2.445 2.473 2.418 2.42 2.342 2.243 2.25 2.247 2.24 2.23 2.24 2.247 2.245 2.23 2.205 2.203 2.2 2.2 2.188 2.158 2.14 2.125 2.122 2.128 2.133 2.112 2.143 2.14 2.135 2.112 2.148 2.132 2.188 2.183 2.223 2.233 2.243 2.23 2.245 2.22 2.185 2.485 2.095 2.19 2.175 2.223 2.217 2.207 2.173 2.125 2.115 2.107 2.108 2.062 2.128 2.135 2.188 2.505 2.472 2.108 2.047 2.01 2.065 2.025 2.01 2.023 2.05 2.075 2.067 2.128 2.253 2.327 2.425 2.5 2.555 2.61 2.668 2.76 2.84 2.935 3.02 3.16 3.31 3.408 3.418 3.398 3.34 3.27 3.29 3.273 3.267 3.237 3.24 3.497 4.365 3.253 3.223 3.257 3.287 3.273 3.3 3.342 3.378 3.418 3.435 3.447 3.43 3.435 3.445 3.493 3.48 3.44 3.503 3.5 3.49 3.53 3.6 4.328 4.443 3.713 3.81 3.902 3.945 4 4.057 4.137 4.182 4.24 4.323 4.452 4.525 4.588 4.66 4.707 4.733 4.773 4.798 4.807 4.86 4.905 4.915 4.878 4.8 4.715 4.653 4.645 4.655 4.662 4.673 4.693 4.722 4.75 4.742 4.747 4.805 4.8 4.73 4.738 4.712 4.688 4.697 4.633 4.585 4.548 4.54 4.513 4.512 4.508 4.528 4.53 4.533 4.508 4.425 4.367 4.495 4.505 4.49 4.512 4.528 4.51 4.505 4.515 4.497 4.515 4.537 4.543 4.535 4.525 4.503 4.425 4.545 4.548 4.52 4.5 4.457 4.445 4.445 4.418 4.43 4.465 4.488 4.475 4.465 4.405 4.343 4.315 4.305 4.355 4.365 4.363 4.38 4.363 4.372 4.378 4.365 4.365 4.365 4.372 4.39 4.387 4.36 4.363 4.33 4.31 4.3 4.25 4.157 4.162 4.213 4.222 4.222 4.238 4.262 4.288 4.295 4.293 4.265 4.23 4.188 4.213 5.34 4.858 4.142 4.162 4.172 4.182 4.23 4.23 4.215 4.227 4.253 4.247 4.253 4.25 4.273 4.287 4.247 4.212 4.215 4.245 4.238 4.222 4.182 4.12 4.145 4.2 4.198 4.2 4.205 4.215 4.202 4.195 4.202 4.205 4.205 4.197 4.205 4.182 4.173 4.158 4.172 4.14 4.097 4.115 4.1 4.073 4.14 4.18 4.015 4.003 4.018 3.991 3.969 3.94 3.908 3.831 3.695 3.341 3.056 3.01 2.44 1.997 1.994 2.026 2.037 2.261 3.003 3.868 3.851 4.028 4.359 4.563 4.627 4.697 4.742 4.922 5.325 5.573 5.487 5.17 4.845 4.57 4.29 4.01 3.753 3.543 3.42 3.312 3.28 3.223 3.095 3.023 3.075 3.168 3.205 3.118 3.318 3.765 4.825 4.865 4.415 3.258 2.39 2.283 2.145 2.023 1.935 1.87 1.845 1.838 1.845 1.812 1.787 1.803 1.81 1.82 1.817 1.825 1.822 1.84 1.805 1.808 1.822 1.812 1.815 1.82 1.827 1.82 1.808 1.81 1.832 1.82 1.835 1.8 1.82 1.812 1.817 1.822 1.822 1.803 1.81 1.827 1.793 1.81 1.805 1.832 1.812 1.848 1.83 1.81 1.812 1.803 1.825 1.822 1.82 1.753 1.653 1.615 1.607 1.627 1.614 1.587 1.538 1.476 1.429 1.297 1.208 1.109 0.926 0.79 0.767 0.737 1.12 1.327 1.26 1.114 0.799 0.664 0.578 0.467 0.511 0.651 0.717 0.578 0.674 1.002 1.306 1.492
2.725 2.723 2.705 2.715 2.73 2.76 2.765 2.737 2.717 2.735 2.733 2.753 2.805 2.865 2.915 2.955 3.003 3.065 3.152 3.247 3.355 3.477 3.568 3.648 3.655 3.635 3.622 3.585 4.267 3.567 3.64 3.655 3.643 3.64 3.625 3.612 3.635 3.673 3.688 3.582 3.53 3.5 3.473 3.408 3.37 3.325 3.312 3.265 3.197 3.158 3.125 3.07 3.027 2.98 2.96 2.955 2.945 2.908 2.868 2.852 2.832 2.817 2.805 2.73 2.69 2.608 2.635 2.642 2.65 2.595 2.555 2.57 2.557 2.54 2.475 2.473 2.438 2.372 2.345 2.337 2.312 2.29 2.315 2.32 2.342 2.297 2.28 2.255 2.247 2.243 2.22 2.213 2.18 2.153 2.142 2.16 2.15 2.138 2.15 2.14 2.125 2.138 2.118 2.112 2.12 2.158 2.185 2.253 2.24 2.205 2.18 2.207 2.318 2.182 2.158 2.273 2.295 2.273 2.26 2.26 2.26 2.183 2.132 2.06 2.077 2.062 2.065 2.067 2.153 2.227 2.758 2.432 2.222 2.095 2.045 2.043 2.027 1.997 1.987 2.01 2.06 2.115 2.168 2.233 2.358 2.445 2.483 2.53 2.585 2.665 2.745 2.785 2.878 3.007 3.182 3.277 3.317 3.393 3.382 3.342 3.297 3.293 3.235 3.195 3.235 4.01 3.985 3.2 3.245 3.265 3.283 3.273 3.28 3.32 3.385 3.42 3.43 3.433 3.425 3.408 3.44 3.465 3.438 3.423 3.443 3.433 3.423 3.388 3.872 4.35 3.705 3.553 3.597 3.673 3.743 3.773 3.86 3.932 3.967 4.045 4.17 4.315 4.36 4.382 4.435 4.495 4.565 4.633 4.68 4.73 4.793 4.838 4.828 4.775 4.722 4.693 4.653 4.662 4.67 4.688 4.69 4.72 4.712 4.73 4.747 4.778 4.835 4.75 4.693 4.693 4.74 4.733 4.68 4.64 4.6 4.54 4.52 4.483 4.445 4.445 4.49 4.48 4.488 4.463 4.332 4.35 4.47 4.467 4.497 4.5 4.528 4.505 4.495 4.455 4.45 4.493 4.53 4.528 4.533 4.54 4.477 4.492 4.575 4.57 4.52 4.493 4.457 4.427 4.41 4.378 4.385 4.45 4.487 4.47 4.45 4.365 4.345 4.33 4.288 4.325 4.36 4.365 4.378 4.372 4.36 4.368 4.355 4.355 4.323 4.345 4.383 4.383 4.365 4.355 4.325 4.312 4.293 4.26 4.165 4.132 4.227 4.227 4.205 4.245 4.24 4.27 4.287 4.27 4.247 4.188 4.15 4.43 5.54 4.16 4.145 4.162 4.175 4.195 4.21 4.205 4.222 4.222 4.25 4.242 4.24 4.24 4.258 4.283 4.23 4.217 4.205 4.242 4.222 4.215 4.168 4.108 4.14 4.188 4.207 4.182 4.195 4.193 4.2 4.197 4.195 4.188 4.2 4.2 4.175 4.175 4.155 4.177 4.148 4.145 4.113 4.108 4.113 4.11 4.18 4.14 4.02 4.006 3.972 3.91 3.891 3.828 3.754 3.512 3.231 3.341 3.103 2.204 2.048 1.985 1.953 1.954 1.984 2.444 3.51 3.92 4.081 4.363 4.544 4.628 4.681 4.812 5.162 5.508 5.545 5.325 4.983 4.66 4.395 4.125 3.865 3.64 3.455 3.39 3.33 3.23 3.207 3.115 3.023 3.04 3.08 3.163 3.267 3.74 4.097 3.553 3.392 4.287 3.835 2.648 2.125 2.027 1.95 1.9 1.862 1.82 1.8 1.808 1.79 1.812 1.815 1.805 1.82 1.812 1.822 1.807 1.822 1.808 1.815 1.832 1.82 1.815 1.812 1.822 1.815 1.845 1.827 1.81 1.83 1.82 1.797 1.808 1.828 1.798 1.822 1.815 1.785 1.805 1.812 1.795 1.81 1.81 1.808 1.8 1.835 1.84 1.795 1.798 1.807 1.817 1.817 1.812 1.783 1.703 1.623 1.566 1.537 1.577 1.542 1.477 1.387 1.305 1.25 1.219 1.133 1.066 0.854 0.798 0.758 0.728 0.929 1.253 1.254 1.025 0.924 0.846 0.754 0.929 0.976 0.866 0.963 1.185 1.357 1.42 1.546 1.647
2.825 2.805 2.797 2.812 2.815 2.795 2.817 2.832 2.825 2.86 2.858 2.898 2.957 3.055 3.125 3.162 3.223 3.293 3.372 3.453 3.54 3.617 3.642 3.697 3.74 3.705 3.697 3.653 3.852 3.688 3.707 3.7 3.665 3.655 3.63 3.628 3.655 3.675 3.7 3.645 3.585 3.62 3.645 3.58 3.497 3.493 3.465 3.415 3.362 3.325 3.285 3.253 3.19 3.125 3.118 3.085 3.053 3.025 2.975 2.97 2.95 2.955 2.945 2.953 2.94 2.852 2.82 2.777 2.79 2.74 2.685 2.688 2.66 2.62 2.58 2.527 2.5 2.487 2.46 2.447 2.443 2.402 2.403 2.42 2.457 2.415 2.35 2.352 2.352 2.325 2.322 2.297 2.305 2.28 2.233 2.223 2.195 2.183 2.188 2.17 2.158 2.142 2.135 2.122 2.122 2.148 2.185 2.22 2.19 2.15 2.138 2.168 2.15 2.092 2.125 2.203 2.22 2.25 2.29 2.257 2.273 2.273 2.17 2.145 2.072 2.062 2.057 2.057 2.092 2.112 2.128 2.04 2.122 2.15 2.128 2.055 2.057 2.017 1.997 2 2.013 2.035 2.09 2.175 2.235 2.35 2.395 2.443 2.52 2.602 2.658 2.705 2.745 2.85 3.017 3.125 3.227 3.325 3.362 3.393 3.398 3.4 3.327 3.245 3.312 4.293 3.95 3.197 3.253 3.26 3.257 3.253 3.275 3.317 3.358 3.372 3.388 3.413 3.415 3.415 3.415 3.443 3.423 3.388 3.388 3.372 3.34 3.303 4.1 4.475 3.418 3.43 3.483 3.54 3.577 3.58 3.658 3.715 3.785 3.865 4.028 4.125 4.168 4.17 4.198 4.267 4.358 4.45 4.53 4.573 4.66 4.707 4.742 4.73 4.68 4.655 4.617 4.653 4.653 4.672 4.685 4.705 4.682 4.695 4.707 4.78 4.778 4.695 4.66 4.69 4.72 4.72 4.675 4.648 4.592 4.537 4.452 4.427 4.352 4.347 4.34 4.335 4.358 4.34 4.233 4.31 4.375 4.367 4.385 4.403 4.42 4.395 4.382 4.387 4.38 4.412 4.427 4.42 4.42 4.432 4.395 4.48 4.52 4.53 4.5 4.46 4.505 4.493 4.475 4.432 4.382 4.398 4.443 4.45 4.448 4.352 4.345 4.358 4.315 4.305 4.342 4.375 4.375 4.375 4.358 4.358 4.347 4.342 4.35 4.347 4.345 4.355 4.338 4.323 4.307 4.3 4.283 4.27 4.165 4.122 4.215 4.227 4.205 4.207 4.238 4.243 4.265 4.253 4.23 4.16 4.135 5.017 5.13 4.137 4.17 4.197 4.198 4.195 4.19 4.207 4.22 4.217 4.225 4.22 4.235 4.21 4.217 4.243 4.24 4.215 4.205 4.202 4.225 4.217 4.148 4.108 4.177 4.198 4.16 4.15 4.165 4.173 4.177 4.153 4.148 4.162 4.162 4.145 4.137 4.135 4.142 4.175 4.153 4.153 4.148 4.15 4.153 4.155 4.188 4.065 3.988 3.95 3.887 3.827 3.771 3.589 3.333 3.349 3.476 2.827 2.071 2.008 2.047 2.165 1.993 1.951 2.116 2.602 3.852 4.177 4.436 4.562 4.624 4.741 5.012 5.431 5.592 5.441 5.088 4.762 4.475 4.238 3.987 3.745 3.57 3.443 3.388 3.34 3.265 3.183 3.153 3.11 3.108 3.128 3.105 3.617 4.155 4.057 3.428 4.16 3.307 2.915 2.385 2.035 1.952 1.888 1.832 1.822 1.815 1.798 1.79 1.785 1.808 1.805 1.825 1.822 1.838 1.82 1.822 1.832 1.815 1.78 1.827 1.822 1.803 1.805 1.817 1.825 1.83 1.83 1.808 1.838 1.83 1.83 1.837 1.827 1.812 1.797 1.805 1.808 1.85 1.8 1.805 1.793 1.808 1.797 1.803 1.803 1.817 1.838 1.815 1.825 1.85 1.825 1.838 1.828 1.775 1.681 1.6 1.524 1.456 1.405 1.38 1.356 1.233 1.192 1.172 1.121 0.971 0.83 0.732 0.677 0.669 0.612 0.726 1.196 1.23 1.107 1.036 1.131 1.109 1.179 1.135 1.186 1.291 1.439 1.551 1.626 1.698 1.783
2.955 2.938 2.945 2.947 2.947 2.947 2.95 2.975 2.99 3.017 3.033 3.092 3.19 3.287 3.365 3.408 3.47 3.523 3.56 3.582 3.632 3.617 3.717 3.688 3.76 3.793 3.832 3.78 3.955 3.753 3.757 3.713 3.705 3.68 3.648 3.665 3.68 3.685 3.685 3.635 3.625 3.68 3.715 3.685 3.605 3.622 3.632 3.567 3.513 3.465 3.41 3.355 3.325 3.263 3.245 3.203 3.16 3.148 3.11 3.092 3.07 3.065 3.057 3.045 3.043 2.985 2.923 2.88 2.908 2.882 2.84 2.827 2.765 2.733 2.697 2.65 2.61 2.61 2.59 2.537 2.527 2.507 2.517 2.543 2.572 2.517 2.49 2.505 2.5 2.493 2.457 2.46 2.438 2.428 2.395 2.362 2.33 2.317 2.305 2.265 2.223 2.205 2.168 2.163 2.15 2.138 2.138 2.197 2.188 2.15 2.165 2.165 2.145 2.13 2.145 2.15 2.173 2.21 2.255 2.247 2.215 2.197 2.213 2.122 2.11 2.055 2.047 2.055 2.06 2.047 2.053 2.047 2.04 2.04 2.098 2.067 2.077 2.07 2.04 2.047 2.027 2.007 2.013 2.065 2.163 2.263 2.303 2.362 2.435 2.535 2.582 2.633 2.675 2.757 2.892 2.973 3.108 3.233 3.317 3.362 3.39 3.405 3.355 3.312 3.59 4.012 3.225 3.185 3.247 3.257 3.19 3.217 3.293 3.312 3.317 3.335 3.362 3.395 3.365 3.378 3.408 3.415 3.392 3.4 3.372 3.332 3.307 3.388 4.287 4.4 3.32 3.378 3.425 3.457 3.475 3.493 3.54 3.605 3.66 3.735 3.862 3.963 3.995 3.985 4.028 4.085 4.155 4.245 4.318 4.392 4.463 4.53 4.597 4.618 4.588 4.57 4.573 4.595 4.595 4.57 4.602 4.608 4.63 4.653 4.705 4.785 4.753 4.682 4.662 4.693 4.715 4.707 4.69 4.648 4.55 4.465 4.39 4.305 4.27 4.217 4.175 4.155 4.153 4.162 4.125 4.193 4.207 4.213 4.215 4.23 4.233 4.257 4.26 4.278 4.273 4.278 4.262 4.253 4.247 4.27 4.273 4.375 4.422 4.443 4.497 4.508 4.523 4.548 4.537 4.51 4.457 4.447 4.448 4.423 4.395 4.338 4.387 4.372 4.335 4.318 4.347 4.382 4.378 4.37 4.363 4.352 4.347 4.338 4.345 4.34 4.355 4.338 4.325 4.31 4.298 4.3 4.288 4.242 4.132 4.122 4.233 4.24 4.198 4.188 4.21 4.213 4.23 4.233 4.21 4.145 4.19 5.517 4.733 4.145 4.18 4.225 4.207 4.188 4.197 4.19 4.205 4.21 4.213 4.207 4.202 4.19 4.197 4.227 4.233 4.21 4.19 4.182 4.205 4.182 4.12 4.13 4.175 4.15 4.125 4.122 4.102 4.125 4.125 4.13 4.12 4.105 4.113 4.05 4.055 4.06 4.115 4.137 4.16 4.14 4.13 4.145 4.148 4.125 4.077 3.925 3.883 3.841 3.789 3.692 3.485 3.231 3.455 3.174 2.452 1.999 1.997 2.057 2.118 2.301 2.225 2.17 2.889 4.193 4.418 4.531 4.605 4.678 4.86 5.201 5.553 5.578 5.296 4.895 4.573 4.313 4.072 3.84 3.64 3.495 3.4 3.345 3.3 3.29 3.233 3.145 3.15 3.183 3.148 3.178 3.605 4.905 4.405 3.537 4.07 3.133 2.365 2.095 1.97 1.868 1.835 1.79 1.785 1.787 1.797 1.805 1.812 1.795 1.817 1.81 1.827 1.81 1.817 1.822 1.825 1.82 1.825 1.83 1.835 1.822 1.817 1.817 1.828 1.81 1.803 1.803 1.812 1.812 1.825 1.822 1.817 1.82 1.803 1.822 1.798 1.817 1.812 1.828 1.815 1.82 1.817 1.808 1.808 1.817 1.817 1.817 1.827 1.827 1.825 1.837 1.842 1.805 1.739 1.661 1.607 1.52 1.43 1.33 1.319 1.242 1.165 1.092 1.006 0.935 0.852 0.807 0.709 0.616 0.602 0.609 0.829 1.218 1.252 1.209 1.181 1.295 1.216 1.178 1.223 1.383 1.482 1.594 1.688 1.753 1.861 1.924
3.112 3.105 3.102 3.1 3.108 3.085 3.098 3.13 3.193 3.213 3.253 3.312 3.412 3.505 3.577 3.6 3.592 3.605 3.618 3.615 3.635 3.64 3.645 3.685 3.765 3.807 3.852 3.832 4.438 3.76 3.765 3.73 3.71 3.685 3.67 3.7 3.717 3.668 3.608 3.615 3.678 3.705 3.71 3.737 3.68 3.65 3.685 3.665 3.625 3.595 3.535 3.495 3.465 3.388 3.33 3.307 3.263 3.247 3.23 3.217 3.2 3.185 3.185 3.162 3.122 3.077 3 3.005 3.033 3.02 2.98 2.967 2.908 2.862 2.803 2.753 2.74 2.71 2.68 2.655 2.618 2.595 2.605 2.63 2.645 2.622 2.638 2.587 2.622 2.61 2.553 2.547 2.533 2.53 2.515 2.495 2.473 2.463 2.428 2.4 2.337 2.332 2.273 2.24 2.21 2.217 2.185 2.165 2.188 2.19 2.197 2.33 2.108 2.163 2.12 2.138 2.12 2.128 2.162 2.17 2.173 2.128 2.14 2.178 2.125 2.122 2.062 2.045 2.04 2.053 2.043 2.03 2.062 2.035 2.047 2.057 2.065 2.225 2.137 2.05 2.037 2.045 2.035 2.007 2.057 2.15 2.237 2.31 2.382 2.438 2.517 2.582 2.628 2.7 2.755 2.858 2.987 3.125 3.235 3.37 3.372 3.38 3.355 3.315 4.198 3.805 3.148 3.175 3.217 3.237 3.168 3.207 3.295 3.32 3.327 3.36 3.398 3.395 3.35 3.337 3.418 3.415 3.365 3.378 3.347 3.325 3.273 3.822 4.19 3.688 3.287 3.35 3.395 3.435 3.423 3.44 3.477 3.547 3.572 3.622 3.717 3.75 3.765 3.79 3.815 3.878 3.988 4.055 4.11 4.188 4.298 4.372 4.418 4.467 4.488 4.472 4.483 4.505 4.507 4.477 4.507 4.495 4.523 4.55 4.622 4.702 4.665 4.605 4.622 4.648 4.67 4.673 4.653 4.575 4.492 4.427 4.31 4.205 4.177 4.1 4.05 4.07 4.003 3.988 4 4.048 4.055 4.048 4.057 4.065 4.085 4.115 4.095 4.092 4.108 4.088 4.073 4.035 4.073 4.113 4.15 4.22 4.262 4.323 4.383 4.44 4.475 4.497 4.533 4.523 4.52 4.47 4.443 4.418 4.367 4.358 4.398 4.372 4.35 4.338 4.363 4.372 4.378 4.365 4.36 4.355 4.332 4.342 4.347 4.347 4.338 4.335 4.323 4.312 4.307 4.293 4.29 4.245 4.12 4.142 4.235 4.227 4.155 4.155 4.155 4.175 4.182 4.222 4.212 4.148 4.565 5.5 4.318 4.153 4.175 4.202 4.197 4.182 4.185 4.19 4.2 4.195 4.182 4.175 4.185 4.185 4.19 4.198 4.222 4.207 4.177 4.19 4.207 4.137 4.077 4.137 4.175 4.137 4.105 4.073 4.035 4.02 4.062 4.082 4.065 4.005 3.983 3.945 3.943 3.995 4.028 4.048 4.065 4.043 4.045 4.057 4.025 3.95 3.85 3.825 3.79 3.695 3.599 3.289 3.202 3.401 2.85 2.148 1.997 1.996 2.177 2.811 3.113 3.359 3.875 3.362 4.318 4.472 4.572 4.618 4.776 5.04 5.395 5.548 5.427 5.118 4.773 4.476 4.202 3.95 3.698 3.483 3.38 3.345 3.297 3.243 3.178 3.19 3.18 3.155 3.185 3.185 3.243 3.598 4.24 3.97 4.935 3.455 3.043 2.23 2.007 1.89 1.827 1.803 1.81 1.8 1.797 1.805 1.815 1.815 1.817 1.832 1.82 1.832 1.915 1.855 1.832 1.825 1.822 1.82 1.822 1.835 1.785 1.82 1.825 1.817 1.805 1.808 1.842 1.81 1.815 1.805 1.805 1.81 1.803 1.8 1.827 1.812 1.81 1.808 1.815 1.835 1.81 1.79 1.817 1.825 1.8 1.79 1.83 1.803 1.812 1.822 1.82 1.805 1.815 1.763 1.711 1.648 1.595 1.509 1.448 1.376 1.312 1.219 1.148 1.066 0.958 0.907 0.803 0.77 0.719 0.641 0.748 0.978 1.174 1.335 1.334 1.337 1.296 1.337 1.32 1.326 1.376 1.484 1.57 1.679 1.765 1.855 1.96 2.031
3.358 3.34 3.335 3.297 3.322 3.317 3.295 3.327 3.365 3.38 3.398 3.465 3.572 3.635 3.663 3.653 3.655 3.653 3.648 3.66 3.645 3.648 3.678 3.695 3.787 3.815 3.865 3.8 4.36 3.805 3.86 3.715 3.658 3.6 3.615 3.69 3.71 3.655 3.605 3.612 3.68 3.72 3.705 3.685 3.663 3.628 3.643 3.635 3.633 3.63 3.595 3.565 3.533 3.485 3.425 3.385 3.337 3.327 3.33 3.3 3.29 3.29 3.295 3.28 3.243 3.188 3.115 3.145 3.15 3.138 3.13 3.1 3.035 2.977 2.903 2.862 2.842 2.815 2.78 2.77 2.735 2.717 2.727 2.743 2.747 2.73 2.697 2.693 2.733 2.727 2.67 2.648 2.628 2.598 2.592 2.572 2.553 2.545 2.568 2.507 2.453 2.435 2.408 2.388 2.327 2.277 2.233 2.215 2.23 2.225 2.195 2.267 2.155 2.158 2.138 2.12 2.1 2.12 2.097 2.158 2.142 2.128 2.13 2.16 2.193 2.165 2.125 2.06 2.057 2.043 2.043 2.065 2.03 2.043 2.047 2.055 2.3 2.803 2.447 2.148 2.09 2.07 2.057 2.027 2.005 2.003 2.072 2.207 2.29 2.375 2.428 2.513 2.58 2.638 2.68 2.757 2.87 2.973 3.088 3.215 3.31 3.31 3.327 3.618 4.435 3.318 3.138 3.14 3.158 3.168 3.14 3.217 3.295 3.33 3.362 3.372 3.3 3.378 3.33 3.36 3.383 3.355 3.345 3.342 3.335 3.312 3.26 4.427 4.222 3.438 3.29 3.35 3.398 3.41 3.425 3.43 3.457 3.463 3.493 3.572 3.585 3.585 3.595 3.635 3.66 3.72 3.807 3.875 3.957 4.033 4.115 4.193 4.255 4.325 4.345 4.375 4.385 4.375 4.358 4.343 4.383 4.358 4.38 4.407 4.503 4.6 4.568 4.555 4.557 4.588 4.615 4.615 4.555 4.477 4.418 4.345 4.207 4.05 4 3.965 3.957 3.955 3.933 3.943 3.973 3.993 4.008 4.01 4.017 4.038 4.048 4.057 4.043 4.01 4.028 3.995 3.96 3.91 3.95 4.015 4.048 4.085 4.142 4.213 4.285 4.315 4.375 4.407 4.472 4.517 4.515 4.445 4.408 4.38 4.36 4.41 4.415 4.375 4.358 4.355 4.345 4.368 4.363 4.372 4.35 4.358 4.355 4.352 4.338 4.338 4.345 4.338 4.318 4.332 4.3 4.293 4.275 4.227 4.118 4.105 4.215 4.217 4.11 4.118 4.153 4.175 4.207 4.225 4.182 4.14 5.108 5.99 5.758 4.595 4.162 4.177 4.198 4.19 4.193 4.185 4.175 4.168 4.14 4.14 4.148 4.177 4.185 4.188 4.198 4.19 4.197 4.205 4.217 4.122 4.1 4.158 4.157 4.137 4.128 4.122 4.037 3.94 3.933 3.983 3.983 3.915 3.872 3.865 3.86 3.875 3.928 3.955 3.953 3.98 3.977 3.94 3.835 3.797 3.79 3.74 3.602 3.374 3.121 3.159 3.28 2.409 2.027 2.066 2.035 2.19 2.681 3.257 3.442 3.566 4.025 4.333 4.471 4.561 4.697 4.939 5.312 5.554 5.549 5.228 4.892 4.615 4.344 4.114 3.824 3.598 3.394 3.255 3.26 3.255 3.17 3.142 3.138 3.183 3.14 3.12 3.185 4.01 4.055 2.995 3.662 3.273 3.66 2.562 2.03 1.898 1.84 1.807 1.803 1.82 1.812 1.817 1.808 1.817 1.82 1.812 1.825 1.835 1.827 1.822 1.883 1.86 1.82 1.808 1.815 1.832 1.825 1.825 1.815 1.812 1.812 1.817 1.815 1.812 1.83 1.815 1.827 1.827 1.805 1.812 1.817 1.812 1.815 1.815 1.808 1.815 1.79 1.83 1.83 1.825 1.817 1.812 1.8 1.81 1.828 1.812 1.8 1.81 1.797 1.8 1.812 1.716 1.653 1.613 1.562 1.47 1.439 1.352 1.275 1.189 1.141 1.074 0.969 0.898 0.83 0.766 0.692 0.851 1.115 1.183 1.252 1.335 1.376 1.375 1.366 1.367 1.38 1.447 1.556 1.613 1.724 1.834 1.916 2.014 2.1 2.157
3.54 3.545 3.487 3.457 3.473 3.475 3.467 3.473 3.515 3.54 3.517 3.5 3.577 3.663 3.707 3.713 3.7 3.693 3.683 3.678 3.645 3.635 3.66 3.81 3.783 3.78 3.803 3.805 4.025 4.45 4.577 4.38 3.81 3.55 3.572 3.608 3.655 3.663 3.642 3.625 3.645 3.688 3.668 3.612 3.577 3.625 3.597 3.582 3.59 3.625 3.638 3.582 3.56 3.553 3.505 3.445 3.4 3.435 3.435 3.392 3.355 3.37 3.38 3.372 3.362 3.285 3.2 3.235 3.245 3.247 3.255 3.237 3.168 3.088 3.03 2.98 2.945 2.908 2.9 2.878 2.858 2.84 2.832 2.842 2.865 2.838 2.845 2.862 2.87 2.855 2.812 2.78 2.763 2.755 2.73 2.7 2.662 2.638 2.618 2.608 2.592 2.54 2.503 2.475 2.443 2.412 2.355 2.305 2.293 2.293 2.5 2.275 2.19 2.197 2.143 2.15 2.133 2.13 2.143 2.14 2.125 2.145 2.115 2.158 2.168 2.22 2.21 2.17 2.117 2.062 2.047 2.033 2.043 2.057 2.035 2.065 2.075 2.325 2.535 2.622 2.375 2.09 2.062 2.045 2.045 1.993 2.005 2.07 2.17 2.275 2.34 2.398 2.5 2.54 2.585 2.653 2.745 2.835 2.918 3.075 3.165 3.215 3.247 3.902 4.188 3.185 3.223 3.183 3.097 3.07 3.053 3.17 3.3 3.34 3.34 3.357 3.352 3.277 3.32 3.37 3.362 3.322 3.355 3.355 3.365 3.322 3.392 4.355 4.282 3.243 3.293 3.362 3.4 3.37 3.403 3.395 3.418 3.405 3.463 3.487 3.47 3.507 3.557 3.575 3.58 3.628 3.713 3.737 3.81 3.878 3.955 4.01 4.113 4.175 4.207 4.247 4.24 4.247 4.207 4.233 4.213 4.25 4.24 4.27 4.35 4.41 4.438 4.477 4.44 4.452 4.505 4.523 4.485 4.408 4.312 4.225 4.105 3.967 3.888 3.872 3.827 3.8 3.807 3.832 3.848 3.878 3.89 3.908 3.915 3.908 3.925 3.978 3.97 3.902 3.912 3.902 3.925 3.898 3.92 3.963 3.965 3.973 4.02 4.082 4.153 4.207 4.273 4.325 4.35 4.403 4.408 4.358 4.347 4.315 4.355 4.415 4.415 4.405 4.392 4.38 4.378 4.372 4.39 4.395 4.38 4.352 4.358 4.347 4.342 4.345 4.345 4.34 4.323 4.31 4.295 4.26 4.22 4.193 4.137 4.07 4.193 4.175 4.09 4.145 4.207 4.222 4.253 4.222 4.172 4.213 5.608 6.717 6.515 4.157 4.15 4.18 4.193 4.162 4.162 4.168 4.165 4.162 4.14 4.113 4.077 4.102 4.137 4.168 4.165 4.153 4.198 4.217 4.175 4.1 4.125 4.15 4.118 4.073 4.1 4.108 4.04 3.9 3.815 3.878 3.903 3.847 3.785 3.775 3.783 3.807 3.822 3.865 3.865 3.827 3.83 3.747 3.697 3.725 3.685 3.553 3.173 2.858 2.721 2.887 2.148 2.082 2.035 2.197 2.37 2.697 3.111 3.524 3.775 4.086 4.32 4.439 4.55 4.807 5.118 5.496 5.627 5.467 5.112 4.759 4.422 4.128 3.91 3.722 3.459 3.288 3.218 3.178 3.188 3.16 3.095 3.102 3.153 3.165 3.108 3.297 3.767 4.305 3.247 2.655 2.447 2.215 2.075 1.908 1.822 1.807 1.808 1.808 1.812 1.817 1.828 1.82 1.825 1.812 1.832 1.815 1.835 1.822 1.832 1.827 1.817 1.822 1.832 1.815 1.812 1.81 1.817 1.832 1.815 1.822 1.84 1.81 1.808 1.8 1.81 1.808 1.832 1.832 1.822 1.81 1.82 1.815 1.815 1.817 1.795 1.803 1.812 1.815 1.808 1.81 1.795 1.803 1.793 1.835 1.797 1.812 1.815 1.808 1.8 1.812 1.785 1.68 1.6 1.562 1.483 1.449 1.387 1.318 1.234 1.174 1.129 1.077 0.935 0.911 0.82 0.84 1.119 1.142 1.18 1.156 1.207 1.246 1.39 1.331 1.384 1.436 1.539 1.612 1.679 1.785 1.903 1.998 2.106 2.169 2.227 2.258
3.678 3.642 3.6 3.585 3.612 3.642 3.622 3.61 3.612 3.658 3.653 3.58 3.56 3.645 3.71 3.717 3.69 3.678 3.683 3.685 3.66 3.612 3.622 3.77 3.825 3.773 3.872 3.787 4.082 3.693 3.685 3.653 3.717 3.555 3.59 3.577 3.622 3.668 3.68 3.648 3.653 3.665 3.673 3.553 3.54 3.63 3.617 3.582 3.567 3.612 3.625 3.6 3.56 3.547 3.513 3.503 3.533 3.535 3.555 3.535 3.515 3.515 3.523 3.503 3.48 3.385 3.287 3.31 3.368 3.358 3.37 3.375 3.327 3.257 3.2 3.125 3.062 2.995 2.983 2.987 2.973 2.957 2.928 2.953 2.973 2.975 2.98 2.987 2.993 3.003 2.987 2.963 2.943 2.933 2.918 2.885 2.848 2.82 2.785 2.743 2.73 2.69 2.67 2.608 2.535 2.52 2.473 2.42 2.372 2.875 3.188 2.243 2.257 2.193 2.207 2.185 2.175 2.153 2.18 2.188 2.168 2.122 2.128 2.15 2.18 2.22 2.235 2.21 2.223 2.163 2.092 2.05 2.037 2.03 2.057 2.053 2.082 2.105 2.1 2.425 2.543 2.245 2.188 2.22 2.09 2.033 1.99 2.003 2.017 2.1 2.26 2.342 2.378 2.418 2.46 2.545 2.607 2.67 2.77 2.905 2.995 3.09 3.1 4.302 3.895 3.183 3.245 3.223 3.09 2.983 2.955 3.112 3.23 3.322 3.345 3.352 3.263 3.237 3.32 3.33 3.322 3.335 3.403 3.365 3.37 3.305 3.662 4.43 3.89 3.237 3.31 3.345 3.358 3.345 3.352 3.383 3.388 3.385 3.418 3.418 3.418 3.453 3.483 3.505 3.517 3.547 3.59 3.602 3.658 3.737 3.8 3.85 3.918 4.01 4.065 4.113 4.115 4.095 4.07 4.055 4.055 4.05 4.06 4.113 4.122 4.175 4.253 4.303 4.3 4.287 4.352 4.387 4.372 4.31 4.19 4.122 4.017 3.94 3.86 3.747 3.683 3.683 3.66 3.685 3.697 3.73 3.767 3.8 3.803 3.827 3.845 3.838 3.797 3.743 3.72 3.735 3.763 3.757 3.793 3.868 3.935 3.955 3.933 3.96 4.02 4.105 4.17 4.213 4.25 4.293 4.285 4.258 4.267 4.278 4.365 4.425 4.427 4.42 4.412 4.398 4.37 4.398 4.38 4.39 4.37 4.342 4.355 4.355 4.372 4.332 4.343 4.338 4.325 4.312 4.283 4.247 4.202 4.155 4.1 4.05 4.153 4.125 4.105 4.217 4.285 4.285 4.285 4.233 4.16 4.71 5.35 7.108 4.868 4.215 4.17 4.18 4.18 4.162 4.142 4.135 4.165 4.175 4.188 4.182 4.162 4.135 4.102 4.097 4.14 4.207 4.242 4.217 4.125 4.073 4.132 4.11 4.09 4.062 4.045 4.003 3.943 3.847 3.743 3.793 3.815 3.773 3.703 3.645 3.65 3.72 3.753 3.775 3.77 3.72 3.652 3.595 3.61 3.557 3.342 2.83 2.495 2.363 2.134 2.033 2.037 2.119 2.252 2.613 2.911 3.36 3.709 3.955 4.222 4.338 4.423 4.606 4.945 5.357 5.599 5.581 5.335 5.027 4.715 4.348 4.06 3.733 3.495 3.295 3.186 3.142 3.143 3.145 3.095 3.115 3.075 3.04 3.102 3.197 3.812 4.242 3.97 3.465 2.517 2.16 2 1.938 1.872 1.81 1.815 1.822 1.825 1.817 1.812 1.812 1.82 1.817 1.81 1.837 1.827 1.84 1.825 1.84 1.832 1.825 1.837 1.82 1.83 1.82 1.82 1.827 1.825 1.812 1.822 1.835 1.815 1.825 1.815 1.815 1.812 1.82 1.812 1.817 1.815 1.808 1.803 1.82 1.817 1.817 1.785 1.785 1.82 1.815 1.81 1.817 1.808 1.817 1.794 1.763 1.768 1.753 1.757 1.737 1.732 1.739 1.762 1.667 1.587 1.525 1.445 1.393 1.323 1.242 1.213 1.155 1.084 1.013 0.964 0.917 1.034 1.192 1.167 1.147 1.171 1.178 1.212 1.311 1.415 1.397 1.436 1.542 1.651 1.74 1.818 1.933 2.059 2.168 2.246 2.298 2.344 2.383
3.645 3.683 3.66 3.65 3.697 3.72 3.705 3.688 3.7 3.705 3.688 3.605 3.555 3.64 3.685 3.678 3.675 3.68 3.678 3.69 3.678 3.635 3.59 4.535 3.86 3.85 3.892 4.173 3.842 3.847 3.787 3.715 3.64 3.622 3.6 3.575 3.638 3.693 3.683 3.67 3.678 3.678 3.638 3.507 3.56 3.635 3.653 3.628 3.567 3.59 3.615 3.602 3.55 3.49 3.497 3.608 3.638 3.612 3.697 3.695 3.68 3.655 3.625 3.595 3.587 3.493 3.378 3.415 3.48 3.487 3.483 3.505 3.455 3.372 3.335 3.293 3.21 3.135 3.098 3.09 3.092 3.057 3.04 3.062 3.075 3.087 3.102 3.148 3.165 3.168 3.165 3.135 3.125 3.128 3.115 3.075 3.05 3.01 2.957 2.908 2.888 2.838 2.797 2.75 2.688 2.635 2.582 2.535 2.693 3.822 3.025 2.382 2.375 2.32 2.27 2.23 2.21 2.197 2.233 2.223 2.193 2.165 2.183 2.17 2.173 2.195 2.21 2.237 2.207 2.243 2.185 2.105 2.053 2.043 2.035 2.053 2.067 2.043 2.075 2.067 2.15 2.477 2.477 2.483 2.245 2.082 2.072 2.02 1.987 2.01 2.088 2.2 2.305 2.35 2.388 2.443 2.473 2.533 2.62 2.737 2.838 2.905 3.328 4.325 3.175 3.175 3.217 3.185 3.105 2.96 2.945 3.04 3.16 3.293 3.327 3.297 3.173 3.178 3.273 3.295 3.3 3.3 3.342 3.352 3.342 3.287 3.8 4.383 3.325 3.287 3.33 3.347 3.342 3.335 3.342 3.345 3.332 3.358 3.39 3.405 3.4 3.415 3.443 3.45 3.46 3.49 3.48 3.473 3.51 3.588 3.67 3.74 3.765 3.805 3.9 3.928 3.933 3.945 3.957 3.912 3.882 3.872 3.862 3.953 3.925 3.9 4.052 4.13 4.158 4.155 4.195 4.19 4.165 4.14 4.09 4.003 3.967 3.933 3.767 3.653 3.607 3.633 3.605 3.608 3.595 3.64 3.695 3.705 3.71 3.753 3.795 3.765 3.745 3.668 3.64 3.655 3.683 3.693 3.653 3.69 3.713 3.787 3.898 3.903 3.928 3.987 4.06 4.105 4.168 4.19 4.175 4.175 4.175 4.202 4.307 4.37 4.403 4.412 4.403 4.395 4.39 4.403 4.392 4.378 4.38 4.363 4.352 4.327 4.367 4.342 4.327 4.318 4.318 4.318 4.303 4.265 4.202 4.133 4.035 4.035 4.115 4.105 4.08 4.227 4.275 4.31 4.29 4.238 4.17 5.42 7.128 6.122 4.182 4.245 4.202 4.182 4.19 4.19 4.177 4.172 4.177 4.185 4.2 4.207 4.213 4.222 4.175 4.162 4.207 4.233 4.253 4.217 4.085 4.08 4.113 4.102 4.08 4.037 3.965 3.898 3.827 3.76 3.685 3.665 3.693 3.688 3.65 3.557 3.535 3.58 3.625 3.66 3.63 3.57 3.523 3.487 3.465 3.237 2.855 2.465 2.062 2.085 2.037 2.033 2.198 2.365 2.755 3.178 3.575 3.852 4.126 4.285 4.352 4.472 4.739 5.146 5.519 5.605 5.471 5.19 4.896 4.637 4.382 4.037 3.72 3.422 3.187 3.029 2.997 3.047 3.087 3.047 3.033 3.138 3.135 3.035 3.557 4.88 3.237 3.767 3.408 2.595 2.088 1.898 1.832 1.815 1.817 1.815 1.825 1.825 1.828 1.822 1.82 1.822 1.815 1.812 1.822 1.82 1.822 1.827 1.83 1.815 1.83 1.83 1.835 1.83 1.832 1.832 1.825 1.812 1.83 1.817 1.845 1.852 1.827 1.815 1.815 1.83 1.822 1.815 1.808 1.785 1.81 1.805 1.82 1.8 1.838 1.81 1.808 1.825 1.82 1.81 1.805 1.81 1.786 1.775 1.729 1.717 1.699 1.683 1.672 1.653 1.653 1.65 1.676 1.64 1.566 1.497 1.392 1.324 1.291 1.228 1.171 1.103 1.072 1.085 1.121 1.191 1.236 1.236 1.201 1.214 1.23 1.261 1.269 1.371 1.48 1.515 1.554 1.699 1.852 1.931 2.007 2.121 2.224 2.328 2.377 2.404 2.467 2.498
3.587 3.655 3.678 3.71 3.725 3.697 3.685 3.683 3.688 3.71 3.685 3.59 3.588 3.68 3.665 3.675 3.665 3.67 3.675 3.678 3.675 3.63 3.577 4.778 3.878 3.895 3.89 4.263 3.91 3.938 3.89 3.832 3.71 3.663 3.597 3.553 3.6 3.668 3.678 3.668 3.685 3.663 3.615 3.51 3.582 3.673 3.695 3.663 3.577 3.547 3.557 3.553 3.54 3.51 3.537 3.68 3.703 3.665 3.763 3.747 3.695 3.678 3.645 3.638 3.66 3.567 3.457 3.51 3.555 3.537 3.537 3.587 3.562 3.507 3.47 3.392 3.33 3.287 3.245 3.207 3.195 3.18 3.145 3.148 3.19 3.203 3.233 3.273 3.305 3.35 3.352 3.322 3.31 3.322 3.303 3.255 3.227 3.205 3.162 3.09 3.033 2.98 2.94 2.902 2.858 2.79 2.737 2.675 3.178 3.145 2.523 2.497 2.495 2.475 2.42 2.355 2.303 2.27 2.235 2.203 2.19 2.203 2.215 2.183 2.185 2.19 2.217 2.225 2.148 2.163 2.193 2.197 2.11 2.07 2.06 2.05 2.085 2.13 2.082 2.04 2.075 2.535 2.273 2.33 2.523 2.188 2.217 2.082 2.03 2.013 1.99 2.023 2.112 2.25 2.293 2.322 2.34 2.385 2.49 2.592 2.67 2.75 3.41 4.233 2.92 3.07 3.122 3.183 3.102 2.918 2.898 2.987 3.1 3.197 3.243 3.118 3.045 3.178 3.332 3.365 3.3 3.28 3.307 3.337 3.307 3.3 4.04 4.213 3.235 3.315 3.325 3.317 3.327 3.307 3.325 3.325 3.332 3.35 3.395 3.405 3.4 3.403 3.39 3.395 3.423 3.44 3.415 3.413 3.455 3.485 3.567 3.663 3.693 3.697 3.737 3.735 3.745 3.743 3.76 3.735 3.745 3.707 3.74 3.805 3.73 3.707 3.865 3.94 4.003 4.012 4.012 3.955 4.023 4 3.995 3.94 3.947 3.83 3.675 3.587 3.575 3.562 3.55 3.543 3.517 3.545 3.615 3.635 3.655 3.71 3.725 3.695 3.673 3.618 3.587 3.62 3.602 3.628 3.56 3.62 3.648 3.658 3.668 3.778 3.888 3.957 3.95 3.973 4.008 4.052 4.068 4.025 4.045 4.1 4.227 4.278 4.323 4.375 4.378 4.358 4.392 4.403 4.407 4.427 4.382 4.345 4.342 4.365 4.392 4.325 4.305 4.303 4.3 4.323 4.305 4.273 4.205 4.133 4.03 3.993 4.04 4.092 4.035 4.137 4.242 4.258 4.25 4.222 4.287 5.345 6.245 4.525 4.238 4.25 4.233 4.205 4.207 4.207 4.195 4.19 4.18 4.197 4.2 4.213 4.22 4.235 4.185 4.188 4.21 4.19 4.193 4.137 4.06 4.053 4.07 4.062 4.023 3.947 3.858 3.805 3.735 3.695 3.622 3.58 3.587 3.592 3.58 3.53 3.497 3.505 3.572 3.543 3.503 3.45 3.382 3.25 3.112 3.17 2.925 2.352 2.013 2.003 2.068 2.369 2.758 2.938 3.425 3.76 4.025 4.234 4.31 4.372 4.597 4.956 5.341 5.528 5.442 5.205 4.968 4.748 4.529 4.328 4.128 3.793 3.372 3.081 2.902 2.801 2.808 2.928 3.037 3.035 3.03 3.128 3.1 3.515 3.83 3.64 3.338 2.987 2.253 1.993 1.847 1.803 1.812 1.82 1.838 1.822 1.822 1.827 1.822 1.817 1.82 1.835 1.812 1.827 1.828 1.825 1.835 1.815 1.855 1.832 1.838 1.827 1.827 1.838 1.84 1.828 1.82 1.817 1.817 1.812 1.815 1.81 1.825 1.81 1.812 1.808 1.812 1.808 1.815 1.812 1.797 1.82 1.807 1.81 1.817 1.812 1.795 1.835 1.82 1.837 1.808 1.774 1.727 1.692 1.653 1.632 1.609 1.594 1.6 1.57 1.596 1.595 1.599 1.614 1.533 1.458 1.39 1.311 1.27 1.239 1.191 1.182 1.283 1.28 1.32 1.271 1.256 1.261 1.259 1.295 1.284 1.315 1.413 1.472 1.554 1.638 1.731 1.837 2.005 2.104 2.185 2.255 2.348 2.442 2.489 2.542 2.583 2.606
3.543 3.608 3.72 3.737 3.723 3.697 3.695 3.663 3.69 3.693 3.653 3.562 3.625 3.675 3.673 3.68 3.673 3.665 3.66 3.668 3.658 3.6 4.155 3.985 3.97 4.07 3.88 4.45 3.963 3.925 3.913 4.285 3.868 3.633 3.6 3.53 3.562 3.64 3.68 3.668 3.68 3.665 3.595 3.523 3.617 3.643 3.67 3.618 3.59 3.577 3.562 3.57 3.555 3.505 3.545 3.705 3.705 3.717 3.773 3.737 3.693 3.653 3.635 3.655 3.668 3.577 3.537 3.655 3.713 3.655 3.615 3.65 3.64 3.612 3.59 3.527 3.45 3.398 3.352 3.317 3.29 3.3 3.277 3.27 3.31 3.32 3.347 3.4 3.428 3.48 3.49 3.473 3.45 3.473 3.45 3.415 3.382 3.352 3.32 3.265 3.197 3.148 3.105 3.057 3.003 2.95 2.908 2.835 3.71 2.655 2.62 2.59 2.545 2.503 2.515 2.475 2.415 2.347 2.34 2.287 2.225 2.19 2.223 2.21 2.207 2.225 2.237 2.21 2.205 2.16 2.163 2.195 2.16 2.138 2.097 2.053 2.06 2.07 2.105 2.08 2.085 2.07 2.178 2.2 2.273 2.308 2.162 2.13 2.133 2.072 2.043 2.005 2 2.055 2.175 2.233 2.257 2.263 2.362 2.46 2.562 2.605 4.01 3.267 2.783 2.957 3.03 3.075 3.047 2.92 2.878 2.947 3.017 3.072 3.068 2.953 2.977 3.18 3.362 3.392 3.368 3.312 3.307 3.28 3.25 3.46 4.25 3.888 3.257 3.303 3.317 3.317 3.317 3.315 3.337 3.325 3.35 3.372 3.403 3.372 3.39 3.388 3.398 3.39 3.42 3.393 3.383 3.395 3.433 3.453 3.523 3.577 3.608 3.63 3.632 3.6 3.58 3.582 3.59 3.605 3.628 3.618 3.615 3.628 3.6 3.585 3.665 3.74 3.825 3.895 3.898 3.85 3.815 3.852 3.89 3.913 3.878 3.725 3.64 3.557 3.537 3.517 3.505 3.515 3.493 3.483 3.517 3.543 3.59 3.62 3.612 3.592 3.547 3.515 3.525 3.545 3.517 3.487 3.503 3.545 3.58 3.585 3.575 3.592 3.675 3.807 3.908 3.908 3.862 3.903 3.955 3.9 3.905 3.995 4.095 4.185 4.238 4.31 4.355 4.37 4.378 4.365 4.403 4.427 4.408 4.367 4.37 4.408 4.385 4.298 4.293 4.285 4.285 4.307 4.31 4.288 4.215 4.148 4.078 4.01 3.99 4.017 3.98 4.045 4.15 4.202 4.205 4.175 4.642 5.31 4.408 4.188 4.25 4.258 4.233 4.225 4.205 4.217 4.205 4.207 4.193 4.17 4.14 4.15 4.142 4.14 4.13 4.133 4.122 4.113 4.122 4.037 3.985 4.005 4.003 3.977 3.925 3.835 3.753 3.725 3.685 3.658 3.572 3.523 3.5 3.53 3.537 3.47 3.405 3.425 3.428 3.398 3.365 3.253 3.173 3.455 3.747 2.832 2.065 2.005 2.005 2.235 2.747 2.801 3.088 3.595 3.907 4.156 4.28 4.33 4.472 4.821 5.231 5.501 5.448 5.166 4.861 4.635 4.441 4.331 4.197 4.055 3.882 3.61 3.128 2.747 2.595 2.575 2.631 2.735 2.94 3.02 3.027 3.487 3.745 3.803 3.783 3.42 2.345 2.037 1.873 1.815 1.812 1.82 1.827 1.82 1.835 1.822 1.822 1.82 1.842 1.828 1.832 1.812 1.822 1.83 1.83 1.828 1.82 1.822 1.827 1.817 1.83 1.83 1.827 1.815 1.8 1.828 1.815 1.822 1.835 1.822 1.803 1.8 1.827 1.825 1.808 1.81 1.82 1.842 1.815 1.83 1.832 1.822 1.83 1.808 1.812 1.808 1.832 1.822 1.815 1.816 1.771 1.713 1.67 1.633 1.577 1.563 1.528 1.521 1.51 1.51 1.509 1.478 1.515 1.521 1.516 1.441 1.373 1.315 1.275 1.326 1.324 1.283 1.294 1.282 1.337 1.325 1.318 1.309 1.335 1.378 1.382 1.441 1.532 1.63 1.72 1.803 1.938 2.046 2.162 2.251 2.316 2.36 2.44 2.539 2.581 2.606 2.644 2.886
3.5 3.58 3.717 3.733 3.73 3.707 3.683 3.683 3.717 3.688 3.612 3.545 3.612 3.655 3.693 3.685 3.678 3.66 3.638 3.612 3.587 3.572 4.43 4.16 3.783 3.8 3.785 3.898 3.91 3.963 3.935 5.398 3.602 3.62 3.587 3.513 3.55 3.648 3.69 3.675 3.655 3.638 3.547 3.543 3.635 3.65 3.645 3.63 3.622 3.628 3.638 3.615 3.535 3.455 3.568 3.688 3.71 3.75 3.76 3.72 3.69 3.645 3.63 3.658 3.685 3.585 3.6 3.77 3.817 3.777 3.727 3.71 3.68 3.635 3.62 3.555 3.5 3.485 3.457 3.445 3.433 3.433 3.423 3.443 3.45 3.485 3.507 3.533 3.555 3.587 3.59 3.6 3.602 3.622 3.59 3.6 3.592 3.523 3.475 3.42 3.36 3.307 3.27 3.233 3.178 3.132 3.025 3.07 3 2.83 2.755 2.697 2.658 2.597 2.55 2.535 2.485 2.435 2.38 2.355 2.33 2.263 2.217 2.217 2.215 2.203 2.245 2.215 2.197 2.207 2.203 2.247 2.23 2.215 2.195 2.122 2.07 2.035 2.055 2.05 2.12 2.097 2.082 2.217 2.247 2.213 2.148 2.19 2.145 2.122 2.11 2.1 2.023 2.013 2.033 2.122 2.158 2.205 2.293 2.327 2.405 2.992 3.405 2.622 2.675 2.787 2.875 2.915 2.923 2.91 2.883 2.872 2.938 2.977 2.955 2.875 2.935 3.118 3.303 3.35 3.372 3.358 3.347 3.265 3.245 4.168 4.472 3.298 3.287 3.317 3.32 3.32 3.32 3.325 3.33 3.325 3.358 3.413 3.413 3.378 3.388 3.385 3.395 3.398 3.403 3.378 3.385 3.4 3.405 3.403 3.463 3.507 3.513 3.535 3.575 3.53 3.483 3.497 3.507 3.525 3.54 3.587 3.565 3.602 3.515 3.503 3.53 3.612 3.658 3.697 3.757 3.862 3.91 3.858 3.89 3.883 3.705 3.628 3.56 3.523 3.497 3.49 3.487 3.477 3.485 3.455 3.477 3.483 3.52 3.53 3.493 3.49 3.467 3.467 3.443 3.45 3.45 3.43 3.473 3.48 3.495 3.493 3.5 3.523 3.565 3.63 3.717 3.822 3.815 3.822 3.822 3.775 3.805 3.878 3.955 4.043 4.09 4.162 4.258 4.34 4.368 4.372 4.375 4.385 4.36 4.4 4.408 4.403 4.34 4.293 4.275 4.257 4.263 4.293 4.29 4.29 4.267 4.213 4.173 4.145 4.075 4.02 3.957 3.973 4.017 4.082 4.145 4.188 5.412 5.222 4.2 4.235 4.273 4.267 4.24 4.215 4.205 4.207 4.18 4.162 4.145 4.065 4.037 4.023 4.01 4.005 4.01 4.017 4.01 4.025 4.033 3.94 3.925 3.973 3.973 3.947 3.858 3.755 3.645 3.638 3.638 3.602 3.557 3.51 3.477 3.428 3.35 3.305 3.283 3.283 3.245 3.142 2.973 3.425 3.243 2.94 2.767 2.237 2.045 2.19 2.658 2.852 3.11 3.385 3.709 4.073 4.248 4.302 4.393 4.656 5.056 5.423 5.532 5.34 4.95 4.613 4.38 4.142 3.96 3.939 3.877 3.737 3.292 2.266 2.808 2.518 2.334 2.372 2.457 2.572 2.65 2.815 3.207 4.242 3.535 3.423 2.543 2.162 1.94 1.842 1.812 1.82 1.822 1.835 1.838 1.82 1.825 1.827 1.817 1.835 1.822 1.835 1.82 1.832 1.832 1.825 1.822 1.825 1.828 1.815 1.832 1.815 1.815 1.822 1.82 1.822 1.82 1.83 1.822 1.812 1.825 1.822 1.825 1.83 1.805 1.84 1.832 1.827 1.815 1.82 1.82 1.81 1.817 1.817 1.815 1.797 1.825 1.822 1.81 1.842 1.799 1.753 1.727 1.693 1.658 1.598 1.551 1.518 1.469 1.458 1.443 1.448 1.451 1.454 1.436 1.465 1.493 1.454 1.383 1.315 1.315 1.352 1.364 1.33 1.334 1.338 1.339 1.35 1.376 1.377 1.428 1.446 1.494 1.567 1.666 1.773 1.864 1.992 2.102 2.201 2.306 2.367 2.414 2.453 2.529 2.601 2.658 2.694 2.928 3.843
3.485 3.605 3.695 3.72 3.723 3.685 3.69 3.72 3.723 3.67 3.56 3.543 3.6 3.648 3.683 3.69 3.65 3.633 3.597 3.555 3.535 3.525 3.715 3.738 3.755 3.783 3.803 3.765 3.835 3.838 3.865 4.787 3.577 3.592 3.55 3.495 3.56 3.648 3.69 3.673 3.635 3.572 3.505 3.577 3.653 3.665 3.653 3.64 3.61 3.66 3.665 3.638 3.507 3.43 3.592 3.688 3.733 3.747 3.735 3.707 3.675 3.62 3.635 3.68 3.67 3.585 3.655 3.815 3.825 3.787 3.75 3.725 3.655 3.607 3.592 3.54 3.503 3.495 3.497 3.487 3.467 3.48 3.537 3.57 3.582 3.577 3.605 3.618 3.612 3.633 3.612 3.66 3.695 3.658 3.638 3.705 3.683 3.64 3.632 3.6 3.543 3.5 3.47 3.38 3.335 3.235 3.117 3.555 3.065 3.023 2.925 2.835 2.753 2.685 2.62 2.597 2.543 2.455 2.447 2.41 2.395 2.33 2.285 2.255 2.267 2.25 2.24 2.215 2.2 2.195 2.22 2.235 2.21 2.273 2.237 2.225 2.168 2.112 2.057 2.075 2.047 2.135 2.142 2.128 2.11 2.182 2.592 2.4 2.17 2.148 2.115 2.132 2.072 2.04 1.995 1.997 2.067 2.132 2.18 2.247 2.32 3.027 4.202 2.412 2.567 2.63 2.72 2.777 2.787 2.797 2.827 2.795 2.832 2.827 2.82 2.83 2.91 3.057 3.17 3.247 3.31 3.325 3.305 3.243 3.487 4.332 4 3.247 3.3 3.307 3.322 3.317 3.327 3.332 3.33 3.305 3.368 3.408 3.383 3.352 3.372 3.385 3.4 3.415 3.41 3.372 3.383 3.4 3.39 3.383 3.408 3.41 3.435 3.475 3.52 3.485 3.45 3.475 3.483 3.45 3.487 3.515 3.515 3.535 3.438 3.46 3.48 3.543 3.575 3.59 3.61 3.678 3.733 3.88 3.882 3.733 3.625 3.57 3.527 3.503 3.48 3.47 3.467 3.473 3.455 3.455 3.44 3.445 3.45 3.465 3.465 3.455 3.428 3.41 3.388 3.385 3.403 3.395 3.405 3.43 3.45 3.467 3.475 3.477 3.477 3.517 3.557 3.628 3.688 3.727 3.725 3.715 3.747 3.783 3.81 3.855 3.95 4.02 4.088 4.215 4.273 4.32 4.352 4.375 4.363 4.355 4.38 4.365 4.315 4.247 4.253 4.25 4.287 4.278 4.285 4.29 4.29 4.278 4.242 4.215 4.193 4.06 3.97 4.035 4.073 4.092 4.18 4.35 5.645 4.635 4.217 4.26 4.278 4.28 4.25 4.207 4.2 4.155 4.125 4.085 4.015 3.953 3.925 3.903 3.885 3.892 3.923 3.943 3.947 3.95 3.94 3.862 3.855 3.903 3.933 3.86 3.787 3.697 3.615 3.58 3.612 3.557 3.477 3.358 3.257 3.207 3.183 3.2 3.155 3.037 2.825 2.497 2.742 2.535 2.057 2.015 2.013 2.115 2.52 2.838 3.005 3.362 3.6 3.908 4.183 4.28 4.327 4.529 4.931 5.302 5.531 5.456 5.174 4.822 4.503 4.206 3.94 3.734 3.608 3.6 3.195 2.564 1.783 1.775 1.884 2.152 1.9 2.107 2.28 2.368 2.888 3.378 3.523 2.582 2.463 2.415 2.283 1.972 1.815 1.81 1.825 1.822 1.812 1.82 1.822 1.83 1.832 1.828 1.815 1.82 1.83 1.832 1.82 1.815 1.82 1.825 1.81 1.825 1.815 1.84 1.832 1.817 1.828 1.817 1.82 1.808 1.805 1.832 1.825 1.832 1.827 1.812 1.812 1.82 1.835 1.822 1.812 1.812 1.8 1.817 1.832 1.825 1.805 1.84 1.822 1.832 1.805 1.803 1.825 1.812 1.773 1.768 1.742 1.742 1.72 1.651 1.613 1.602 1.483 1.435 1.413 1.451 1.449 1.423 1.458 1.508 1.503 1.473 1.502 1.49 1.459 1.465 1.433 1.394 1.389 1.384 1.388 1.396 1.417 1.46 1.489 1.554 1.594 1.67 1.747 1.881 2.022 2.139 2.266 2.348 2.402 2.441 2.499 2.531 2.605 2.659 2.699 2.803 3.405 3.327
3.467 3.63 3.685 3.685 3.675 3.663 3.703 3.707 3.693 3.663 3.537 3.56 3.62 3.64 3.665 3.668 3.658 3.62 3.57 3.513 3.53 3.513 3.527 3.592 3.67 3.715 3.798 3.95 3.785 3.7 3.725 3.862 3.543 3.545 3.485 3.473 3.553 3.635 3.703 3.693 3.653 3.55 3.483 3.625 3.668 3.655 3.673 3.66 3.625 3.69 3.71 3.638 3.475 3.433 3.58 3.655 3.673 3.673 3.715 3.695 3.658 3.597 3.608 3.63 3.617 3.59 3.705 3.825 3.817 3.747 3.695 3.688 3.67 3.54 3.543 3.547 3.5 3.493 3.51 3.47 3.445 3.48 3.58 3.645 3.635 3.6 3.66 3.658 3.632 3.643 3.625 3.67 3.65 3.63 3.697 3.763 3.685 3.688 3.727 3.7 3.67 3.632 3.658 3.55 3.487 3.335 3.287 3.697 3.21 3.178 3.047 2.93 2.858 2.775 2.717 2.638 2.602 2.557 2.547 2.505 2.447 2.392 2.325 2.287 2.265 2.325 2.295 2.28 2.253 2.217 2.193 2.183 2.233 2.225 2.247 2.247 2.217 2.197 2.09 2.075 2.08 2.062 2.082 2.16 2.158 2.138 2.217 2.408 2.092 2.29 2.11 2.088 2.1 2.085 1.997 1.975 1.987 2.017 2.06 2.112 2.162 2.513 2.912 2.29 2.44 2.533 2.587 2.6 2.617 2.685 2.745 2.763 2.723 2.725 2.743 2.848 3.015 3.117 3.193 3.203 3.245 3.277 3.285 3.26 4.42 4.18 3.237 3.287 3.305 3.307 3.312 3.322 3.32 3.325 3.315 3.315 3.355 3.368 3.342 3.31 3.337 3.347 3.393 3.43 3.415 3.403 3.388 3.39 3.357 3.378 3.395 3.39 3.388 3.433 3.443 3.45 3.423 3.438 3.43 3.428 3.463 3.487 3.49 3.447 3.388 3.415 3.457 3.453 3.503 3.53 3.53 3.58 3.648 3.697 3.67 3.632 3.553 3.51 3.5 3.465 3.447 3.46 3.445 3.42 3.408 3.41 3.415 3.42 3.395 3.403 3.405 3.403 3.385 3.372 3.36 3.37 3.372 3.357 3.38 3.393 3.423 3.438 3.443 3.438 3.428 3.463 3.485 3.515 3.59 3.688 3.65 3.64 3.663 3.697 3.68 3.695 3.777 3.865 3.96 4.04 4.137 4.207 4.25 4.29 4.33 4.323 4.332 4.343 4.242 4.18 4.207 4.215 4.233 4.255 4.295 4.31 4.32 4.327 4.298 4.262 4.242 4.08 3.977 4.113 4.177 4.19 4.212 4.825 5.298 4.222 4.227 4.247 4.265 4.255 4.2 4.145 4.082 4.05 3.995 3.945 3.888 3.84 3.822 3.783 3.775 3.822 3.855 3.885 3.9 3.882 3.832 3.773 3.77 3.803 3.862 3.805 3.703 3.62 3.567 3.545 3.525 3.385 3.23 3.142 3.09 3.077 3.09 3.04 2.723 2.312 2.148 2.138 2.082 2.007 2.025 2.055 2.472 2.947 3.055 3.295 3.543 3.817 4.09 4.245 4.303 4.433 4.771 5.237 5.513 5.511 5.242 4.918 4.642 4.374 4.103 3.836 3.571 3.396 3.286 3.11 2.846 1.901 1.641 1.664 1.729 1.768 1.823 1.92 2.12 2.872 3.207 3.352 2.632 2.403 2.305 2.202 2.072 1.882 1.815 1.82 1.83 1.81 1.825 1.825 1.817 1.83 1.828 1.82 1.815 1.822 1.827 1.815 1.828 1.822 1.832 1.825 1.838 1.83 1.81 1.825 1.827 1.81 1.828 1.822 1.84 1.827 1.835 1.825 1.84 1.832 1.837 1.825 1.83 1.85 1.82 1.803 1.84 1.815 1.808 1.82 1.815 1.82 1.807 1.812 1.82 1.832 1.83 1.825 1.825 1.793 1.787 1.757 1.73 1.702 1.72 1.689 1.682 1.675 1.595 1.468 1.455 1.595 1.597 1.602 1.625 1.608 1.499 1.494 1.532 1.579 1.542 1.533 1.512 1.477 1.464 1.462 1.477 1.464 1.51 1.539 1.592 1.64 1.712 1.794 1.892 1.97 2.12 2.277 2.375 2.436 2.472 2.506 2.553 2.603 2.644 2.697 2.847 3.804 3.762 2.867
3.485 3.628 3.673 3.663 3.625 3.663 3.71 3.703 3.678 3.608 3.517 3.602 3.648 3.648 3.645 3.665 3.65 3.628 3.575 3.53 3.515 3.545 3.553 3.605 3.633 3.66 4.04 3.905 3.665 3.553 3.507 3.463 3.527 3.515 3.433 3.455 3.535 3.64 3.685 3.705 3.668 3.54 3.503 3.618 3.665 3.663 3.65 3.635 3.653 3.665 3.68 3.6 3.42 3.477 3.595 3.6 3.602 3.625 3.66 3.655 3.622 3.565 3.527 3.535 3.567 3.662 3.77 3.837 3.837 3.767 3.7 3.685 3.655 3.465 3.523 3.547 3.52 3.53 3.533 3.475 3.485 3.513 3.557 3.648 3.675 3.63 3.648 3.628 3.632 3.645 3.625 3.665 3.62 3.697 3.75 3.745 3.658 3.655 3.723 3.727 3.695 3.693 3.76 3.682 3.592 3.753 4 3.33 3.31 3.295 3.193 3.102 2.98 2.872 2.797 2.707 2.658 2.63 2.605 2.557 2.52 2.493 2.428 2.375 2.352 2.35 2.35 2.355 2.297 2.245 2.245 2.215 2.2 2.245 2.24 2.227 2.255 2.2 2.142 2.14 2.097 2.06 2.072 2.102 2.153 2.11 2.188 2.203 2.23 2.612 2.51 2.235 2.14 2.108 2.065 2.102 2.04 1.987 2.013 2 2.153 2.9 2.477 2.207 2.388 2.455 2.51 2.525 2.517 2.577 2.638 2.705 2.663 2.642 2.715 2.885 3.035 3.15 3.283 3.307 3.31 3.322 3.315 3.385 4.798 4.395 3.243 3.317 3.335 3.32 3.337 3.335 3.322 3.32 3.3 3.31 3.32 3.312 3.322 3.33 3.335 3.317 3.347 3.388 3.423 3.398 3.408 3.393 3.375 3.385 3.378 3.345 3.378 3.413 3.425 3.418 3.415 3.398 3.385 3.415 3.453 3.47 3.497 3.382 3.383 3.408 3.423 3.455 3.45 3.485 3.5 3.543 3.577 3.615 3.57 3.555 3.513 3.475 3.447 3.42 3.433 3.438 3.43 3.395 3.385 3.393 3.393 3.388 3.355 3.35 3.355 3.352 3.342 3.342 3.342 3.34 3.345 3.345 3.362 3.378 3.39 3.382 3.395 3.408 3.413 3.42 3.445 3.43 3.537 3.592 3.557 3.535 3.545 3.572 3.55 3.572 3.645 3.763 3.852 3.95 4.07 4.113 4.132 4.162 4.2 4.227 4.24 4.222 4.165 4.15 4.16 4.142 4.148 4.182 4.247 4.33 4.378 4.372 4.33 4.298 4.25 4.145 3.967 4.052 4.202 4.195 4.215 5.17 5.22 4.195 4.238 4.262 4.215 4.17 4.097 4.033 3.975 3.925 3.888 3.83 3.767 3.767 3.77 3.747 3.715 3.737 3.763 3.787 3.832 3.842 3.747 3.688 3.673 3.695 3.727 3.67 3.557 3.525 3.457 3.365 3.25 3.15 3.09 3.047 3.057 3.033 2.89 2.565 2.108 2.14 2.102 2.057 2.02 2.062 2.255 2.908 3.085 3.31 3.52 3.735 4.012 4.185 4.262 4.338 4.59 5.055 5.44 5.565 5.419 5.056 4.71 4.447 4.19 3.966 3.681 3.458 3.283 3.12 2.98 2.754 2.548 2.286 1.72 1.732 1.77 1.822 1.82 1.952 2.477 3.043 2.517 2.395 2.207 2.19 2.1 1.975 1.86 1.812 1.812 1.812 1.817 1.81 1.822 1.82 1.828 1.83 1.825 1.817 1.815 1.82 1.822 1.817 1.82 1.812 1.822 1.827 1.832 1.832 1.825 1.815 1.827 1.83 1.837 1.848 1.835 1.812 1.825 1.825 1.822 1.822 1.817 1.822 1.822 1.81 1.825 1.83 1.825 1.822 1.832 1.835 1.81 1.83 1.812 1.815 1.827 1.825 1.827 1.827 1.829 1.807 1.775 1.744 1.731 1.708 1.695 1.677 1.667 1.651 1.616 1.486 1.456 1.608 1.614 1.59 1.546 1.515 1.516 1.505 1.561 1.596 1.584 1.565 1.572 1.535 1.55 1.54 1.539 1.562 1.603 1.634 1.672 1.721 1.811 1.893 2 2.08 2.193 2.345 2.439 2.503 2.517 2.558 2.608 2.657 2.72 2.816 3.502 4.01 2.952 3.564
3.53 3.658 3.68 3.648 3.635 3.68 3.7 3.705 3.685 3.562 3.535 3.638 3.673 3.675 3.673 3.665 3.665 3.635 3.597 3.543 3.52 3.818 4.155 3.65 3.592 3.715 4 4.205 3.685 3.483 3.43 3.465 3.493 3.45 3.408 3.438 3.517 3.625 3.673 3.697 3.642 3.525 3.533 3.587 3.62 3.638 3.612 3.612 3.61 3.612 3.628 3.535 3.408 3.517 3.575 3.595 3.63 3.625 3.638 3.633 3.597 3.52 3.48 3.54 3.63 3.743 3.835 3.825 3.795 3.757 3.685 3.67 3.61 3.435 3.525 3.537 3.553 3.555 3.525 3.49 3.52 3.527 3.523 3.615 3.655 3.615 3.585 3.61 3.673 3.628 3.617 3.66 3.648 3.68 3.668 3.653 3.638 3.678 3.705 3.68 3.67 3.73 3.757 3.745 3.625 4.463 4.14 3.503 3.453 3.38 3.315 3.237 3.105 3 2.938 2.838 2.753 2.69 2.695 2.64 2.61 2.555 2.517 2.487 2.43 2.38 2.352 2.33 2.332 2.307 2.267 2.237 2.247 2.215 2.193 2.215 2.225 2.188 2.21 2.185 2.158 2.132 2.077 2.07 2.062 2.115 2.08 2.142 2.125 2.173 2.35 2.205 2.202 2.247 2.158 2.122 2.087 2.072 1.997 2.05 2.685 2.688 2.077 2.11 2.24 2.36 2.413 2.433 2.48 2.507 2.533 2.597 2.595 2.582 2.673 2.785 2.932 3.08 3.223 3.305 3.33 3.312 3.305 3.582 4.617 3.943 3.277 3.345 3.327 3.322 3.352 3.36 3.335 3.312 3.3 3.32 3.347 3.335 3.335 3.332 3.317 3.337 3.35 3.365 3.375 3.37 3.378 3.375 3.37 3.378 3.36 3.342 3.403 3.42 3.425 3.38 3.39 3.39 3.383 3.428 3.465 3.445 3.425 3.365 3.372 3.403 3.418 3.425 3.418 3.435 3.473 3.493 3.475 3.505 3.493 3.467 3.45 3.44 3.44 3.435 3.433 3.418 3.408 3.405 3.415 3.388 3.383 3.38 3.342 3.322 3.332 3.317 3.335 3.342 3.322 3.33 3.337 3.347 3.355 3.36 3.35 3.35 3.35 3.365 3.388 3.392 3.398 3.408 3.5 3.497 3.453 3.457 3.46 3.453 3.45 3.487 3.562 3.678 3.763 3.898 3.997 4.033 4.02 4.008 4.053 4.122 4.157 4.148 4.12 4.085 4.075 4.082 4.095 4.135 4.19 4.273 4.323 4.31 4.28 4.21 4.14 4.04 3.973 4.097 4.23 4.165 4.27 5.462 4.405 4.21 4.225 4.195 4.137 4.065 3.987 3.913 3.862 3.835 3.815 3.77 3.733 3.715 3.745 3.735 3.703 3.642 3.655 3.653 3.73 3.767 3.695 3.59 3.555 3.585 3.55 3.455 3.403 3.358 3.29 3.203 3.122 3.072 3.033 2.993 2.882 2.562 2.245 2.122 2.23 2.352 2.29 2.065 2.165 2.713 3.088 3.273 3.537 3.765 3.983 4.15 4.227 4.285 4.44 4.818 5.273 5.543 5.505 5.262 4.945 4.629 4.341 4.083 3.844 3.596 3.381 3.222 3.109 2.955 2.767 2.528 2.262 1.883 1.776 1.797 1.82 1.817 1.857 1.825 1.93 1.91 1.95 1.965 1.997 1.957 1.875 1.808 1.808 1.817 1.817 1.812 1.812 1.82 1.828 1.817 1.828 1.825 1.798 1.822 1.825 1.822 1.832 1.828 1.825 1.817 1.825 1.827 1.83 1.822 1.812 1.827 1.82 1.83 1.827 1.835 1.83 1.822 1.82 1.815 1.822 1.84 1.82 1.83 1.812 1.835 1.825 1.812 1.828 1.808 1.825 1.842 1.793 1.812 1.817 1.832 1.812 1.83 1.838 1.838 1.815 1.786 1.771 1.749 1.733 1.706 1.7 1.663 1.664 1.635 1.601 1.479 1.447 1.481 1.476 1.506 1.517 1.573 1.584 1.576 1.546 1.585 1.62 1.61 1.611 1.607 1.621 1.624 1.627 1.64 1.686 1.724 1.766 1.825 1.893 1.995 2.083 2.172 2.293 2.389 2.463 2.51 2.559 2.614 2.662 2.729 2.826 3.328 4.083 3.163 3.25 3.376
3.57 3.648 3.632 3.62 3.655 3.67 3.69 3.685 3.635 3.525 3.543 3.645 3.688 3.697 3.688 3.678 3.658 3.65 3.62 3.577 3.565 3.908 3.54 3.553 3.58 3.622 3.602 3.642 3.662 4.14 3.773 3.395 3.43 3.41 3.418 3.475 3.55 3.628 3.663 3.668 3.615 3.5 3.555 3.6 3.58 3.58 3.577 3.607 3.565 3.557 3.57 3.45 3.443 3.565 3.58 3.617 3.618 3.635 3.663 3.642 3.59 3.515 3.507 3.638 3.72 3.765 3.793 3.773 3.757 3.717 3.66 3.628 3.493 3.44 3.515 3.537 3.582 3.59 3.527 3.5 3.51 3.525 3.51 3.47 3.55 3.565 3.555 3.585 3.632 3.625 3.673 3.658 3.658 3.638 3.605 3.69 3.673 3.725 3.743 3.723 3.74 3.78 3.753 3.695 3.675 4.927 3.737 3.67 3.632 3.572 3.495 3.388 3.25 3.155 3.035 2.963 2.89 2.82 2.773 2.717 2.655 2.61 2.592 2.555 2.5 2.435 2.413 2.375 2.345 2.317 2.33 2.312 2.312 2.295 2.273 2.25 2.217 2.23 2.227 2.227 2.183 2.195 2.128 2.095 2.077 2.087 2.108 2.105 2.118 2.065 2.335 2.31 2.372 2.398 2.295 2.128 2.112 2.097 2.072 2.152 2.195 3.045 2.09 2.082 2.125 2.2 2.303 2.355 2.388 2.435 2.493 2.52 2.503 2.493 2.577 2.71 2.847 2.995 3.122 3.213 3.3 3.322 3.285 4.198 4.258 3.702 3.305 3.358 3.315 3.342 3.372 3.352 3.315 3.305 3.325 3.385 3.375 3.327 3.357 3.355 3.35 3.388 3.392 3.38 3.337 3.36 3.347 3.347 3.335 3.367 3.365 3.332 3.4 3.433 3.403 3.375 3.398 3.383 3.393 3.433 3.487 3.457 3.408 3.362 3.38 3.4 3.41 3.418 3.425 3.408 3.438 3.443 3.435 3.44 3.425 3.403 3.415 3.415 3.42 3.425 3.428 3.425 3.4 3.392 3.405 3.378 3.36 3.368 3.342 3.327 3.322 3.327 3.33 3.327 3.322 3.35 3.382 3.405 3.398 3.395 3.372 3.352 3.35 3.347 3.36 3.37 3.372 3.405 3.477 3.455 3.4 3.403 3.415 3.375 3.413 3.445 3.5 3.635 3.753 3.842 3.925 3.938 3.915 3.895 3.947 4.04 4.075 4.065 4.062 4.04 4 3.997 4.04 4.037 4.11 4.165 4.215 4.205 4.207 4.097 3.995 3.923 4.033 4.233 4.247 4.102 4.562 5.202 4.182 4.215 4.175 4.13 4.043 3.97 3.898 3.842 3.793 3.765 3.737 3.7 3.688 3.665 3.668 3.65 3.625 3.567 3.565 3.597 3.68 3.693 3.658 3.533 3.465 3.485 3.438 3.365 3.287 3.25 3.213 3.175 3.09 3.033 2.91 2.547 2.202 2.108 2.175 2.07 2.243 2.145 2.12 2.493 3.118 3.173 3.507 3.785 4.023 4.13 4.217 4.253 4.35 4.655 5.08 5.452 5.548 5.375 5.033 4.75 4.477 4.217 3.967 3.737 3.517 3.34 3.288 3.218 3.059 2.88 2.644 2.452 2.171 1.844 1.808 1.815 1.822 1.812 1.825 1.82 1.817 1.81 1.81 1.835 1.832 1.817 1.82 1.808 1.817 1.812 1.817 1.825 1.822 1.82 1.828 1.817 1.815 1.828 1.827 1.82 1.835 1.82 1.825 1.815 1.84 1.817 1.852 1.815 1.832 1.83 1.825 1.825 1.822 1.822 1.837 1.832 1.815 1.83 1.825 1.827 1.822 1.835 1.825 1.85 1.815 1.827 1.798 1.81 1.817 1.842 1.817 1.807 1.815 1.812 1.827 1.817 1.812 1.805 1.83 1.822 1.809 1.793 1.759 1.723 1.718 1.713 1.685 1.676 1.652 1.616 1.491 1.441 1.46 1.525 1.555 1.59 1.603 1.596 1.623 1.636 1.597 1.618 1.656 1.662 1.658 1.663 1.687 1.702 1.709 1.745 1.8 1.843 1.895 1.926 2.02 2.093 2.182 2.248 2.354 2.449 2.505 2.554 2.62 2.676 2.751 2.838 3.118 3.885 3.264 3.08 3.713 2.946
3.612 3.643 3.6 3.635 3.648 3.64 3.655 3.668 3.59 3.483 3.547 3.633 3.685 3.688 3.673 3.673 3.658 3.668 3.642 3.587 3.86 3.565 3.582 3.605 3.615 3.585 3.585 3.565 3.473 3.382 3.385 3.398 3.398 3.39 3.44 3.52 3.572 3.618 3.65 3.65 3.567 3.495 3.562 3.582 3.59 3.55 3.55 3.575 3.537 3.505 3.505 3.405 3.49 3.625 3.602 3.59 3.585 3.615 3.648 3.602 3.55 3.51 3.517 3.65 3.7 3.74 3.717 3.71 3.697 3.658 3.628 3.572 3.447 3.463 3.535 3.577 3.59 3.562 3.505 3.477 3.497 3.52 3.475 3.358 3.487 3.53 3.535 3.547 3.582 3.63 3.673 3.653 3.633 3.59 3.602 3.69 3.655 3.683 3.737 3.765 3.785 3.783 3.733 3.688 3.775 4.457 3.727 3.77 3.75 3.753 3.67 3.51 3.44 3.32 3.205 3.125 3.047 2.967 2.878 2.805 2.72 2.638 2.638 2.592 2.575 2.533 2.513 2.455 2.435 2.398 2.383 2.368 2.362 2.345 2.322 2.307 2.26 2.27 2.263 2.245 2.23 2.19 2.148 2.138 2.108 2.097 2.062 2.112 2.097 2.092 2.08 2.105 2.15 2.265 2.318 2.577 2.135 2.07 2.082 2.483 2.277 2.412 2.043 2.102 2.077 2.122 2.17 2.237 2.287 2.358 2.405 2.445 2.38 2.447 2.585 2.678 2.757 2.903 3.005 3.11 3.183 3.197 3.52 4.57 4.005 3.348 3.285 3.33 3.322 3.355 3.332 3.3 3.31 3.33 3.362 3.367 3.335 3.332 3.385 3.355 3.352 3.41 3.372 3.35 3.347 3.372 3.347 3.335 3.345 3.335 3.332 3.36 3.41 3.42 3.362 3.35 3.388 3.398 3.403 3.41 3.455 3.425 3.358 3.352 3.378 3.38 3.4 3.398 3.405 3.405 3.405 3.44 3.418 3.41 3.403 3.365 3.378 3.405 3.408 3.41 3.418 3.413 3.388 3.378 3.38 3.38 3.335 3.327 3.332 3.34 3.32 3.325 3.332 3.355 3.355 3.38 3.415 3.425 3.408 3.423 3.395 3.375 3.362 3.367 3.367 3.36 3.365 3.4 3.43 3.41 3.39 3.38 3.367 3.347 3.388 3.408 3.453 3.545 3.665 3.777 3.82 3.807 3.807 3.77 3.817 3.915 3.957 3.977 3.995 3.995 3.965 3.94 3.95 3.923 3.94 4 4.06 4.097 4.088 4.033 3.957 3.872 4.037 4.25 4.22 4.148 5.023 4.762 4.17 4.177 4.108 4.043 3.963 3.893 3.84 3.787 3.74 3.693 3.638 3.61 3.587 3.582 3.567 3.582 3.58 3.533 3.523 3.58 3.59 3.595 3.577 3.45 3.37 3.355 3.317 3.277 3.227 3.185 3.203 3.14 2.963 2.65 2.335 2.115 2.108 2.138 2.088 2.017 2.38 2.76 3.322 3.22 3.4 3.69 3.995 4.125 4.2 4.24 4.31 4.555 4.912 5.32 5.515 5.42 5.142 4.795 4.517 4.295 4.095 3.83 3.622 3.46 3.33 3.3 3.275 3.25 3.138 2.862 2.655 2.483 2.307 2.007 2.08 1.827 1.827 1.815 1.812 1.82 1.817 1.822 1.807 1.817 1.82 1.815 1.827 1.828 1.825 1.822 1.82 1.82 1.81 1.817 1.825 1.808 1.82 1.832 1.835 1.832 1.82 1.817 1.817 1.825 1.832 1.838 1.838 1.825 1.828 1.832 1.83 1.83 1.822 1.822 1.827 1.81 1.835 1.832 1.828 1.838 1.835 1.825 1.84 1.812 1.83 1.838 1.817 1.827 1.79 1.81 1.815 1.8 1.815 1.83 1.805 1.825 1.822 1.803 1.808 1.797 1.781 1.763 1.76 1.733 1.707 1.716 1.697 1.663 1.574 1.486 1.508 1.576 1.577 1.581 1.594 1.602 1.633 1.62 1.629 1.65 1.65 1.642 1.663 1.709 1.715 1.727 1.739 1.791 1.796 1.843 1.904 1.954 2.01 2.07 2.13 2.204 2.256 2.335 2.418 2.489 2.541 2.596 2.654 2.746 2.843 2.973 3.853 3.537 2.967 3.943 4.48 3.847
3.618 3.628 3.597 3.655 3.638 3.622 3.635 3.615 3.55 3.48 3.59 3.655 3.675 3.663 3.658 3.66 3.668 3.67 3.662 3.957 3.66 3.525 3.555 3.6 3.597 3.562 3.572 3.533 3.463 3.447 3.467 3.398 3.38 3.405 3.465 3.513 3.543 3.572 3.615 3.597 3.513 3.487 3.582 3.575 3.575 3.553 3.527 3.527 3.51 3.45 3.423 3.383 3.535 3.645 3.608 3.55 3.57 3.585 3.572 3.553 3.582 3.507 3.523 3.642 3.665 3.668 3.638 3.615 3.622 3.608 3.602 3.545 3.418 3.503 3.592 3.595 3.57 3.537 3.477 3.487 3.513 3.515 3.408 3.355 3.475 3.49 3.515 3.54 3.575 3.628 3.668 3.678 3.675 3.555 3.59 3.635 3.638 3.645 3.697 3.705 3.725 3.715 3.703 3.675 3.767 3.675 3.75 3.765 3.78 3.8 3.733 3.622 3.513 3.49 3.385 3.31 3.21 3.112 3.04 2.92 2.83 2.77 2.71 2.678 2.625 2.63 2.587 2.54 2.5 2.453 2.43 2.408 2.398 2.395 2.372 2.342 2.307 2.265 2.293 2.237 2.237 2.223 2.197 2.185 2.15 2.148 2.055 2.075 2.072 2.088 2.11 2.14 2.12 2.202 2.255 2.392 2.273 2.097 2.15 2.17 2.24 2.11 2.097 2.047 2.067 2.072 2.105 2.15 2.22 2.23 2.285 2.27 2.297 2.475 2.6 2.703 2.767 2.882 2.957 3.027 3.065 3.077 3.985 4.682 4.415 3.22 3.253 3.267 3.3 3.295 3.29 3.335 3.345 3.335 3.355 3.325 3.327 3.362 3.398 3.352 3.365 3.398 3.362 3.367 3.362 3.378 3.352 3.325 3.352 3.345 3.34 3.37 3.367 3.392 3.355 3.375 3.388 3.372 3.382 3.415 3.435 3.388 3.332 3.36 3.367 3.372 3.383 3.388 3.398 3.385 3.398 3.41 3.423 3.403 3.388 3.358 3.37 3.385 3.393 3.398 3.405 3.415 3.398 3.38 3.36 3.337 3.315 3.33 3.342 3.355 3.322 3.317 3.345 3.38 3.375 3.4 3.415 3.418 3.418 3.408 3.388 3.383 3.385 3.37 3.375 3.362 3.375 3.39 3.395 3.383 3.38 3.37 3.362 3.347 3.37 3.375 3.405 3.477 3.575 3.645 3.673 3.673 3.65 3.655 3.705 3.81 3.84 3.875 3.928 3.93 3.928 3.895 3.9 3.845 3.825 3.87 3.935 3.955 3.943 3.995 3.973 3.82 3.95 4.15 4.135 4.243 5.16 4.18 4.157 4.097 4.013 3.953 3.908 3.855 3.797 3.723 3.665 3.635 3.635 3.597 3.567 3.557 3.565 3.565 3.535 3.463 3.487 3.52 3.48 3.455 3.438 3.36 3.293 3.26 3.263 3.24 3.197 3.122 2.993 2.668 2.348 2.145 2.125 2.34 2.152 2.045 2.263 2.737 3.382 3.358 3.412 3.572 3.832 4.06 4.185 4.227 4.273 4.508 4.92 5.262 5.475 5.45 5.21 4.85 4.56 4.305 4.1 3.912 3.717 3.525 3.435 3.338 3.287 3.25 3.26 3.237 3.06 2.852 2.727 2.55 2.38 2.767 2.812 1.85 1.825 1.82 1.81 1.82 1.82 1.825 1.82 1.828 1.82 1.817 1.82 1.817 1.825 1.828 1.825 1.828 1.82 1.81 1.822 1.805 1.825 1.83 1.812 1.83 1.822 1.825 1.81 1.812 1.827 1.827 1.832 1.825 1.817 1.832 1.822 1.84 1.842 1.822 1.817 1.838 1.832 1.828 1.84 1.825 1.825 1.84 1.808 1.83 1.828 1.83 1.822 1.817 1.817 1.837 1.832 1.825 1.805 1.828 1.828 1.81 1.832 1.835 1.803 1.813 1.779 1.761 1.747 1.741 1.722 1.714 1.654 1.528 1.505 1.538 1.599 1.616 1.584 1.606 1.602 1.593 1.617 1.635 1.651 1.686 1.685 1.694 1.705 1.752 1.771 1.758 1.797 1.845 1.899 1.981 2.048 2.147 2.159 2.189 2.235 2.298 2.336 2.389 2.467 2.529 2.593 2.662 2.746 2.834 2.984 3.73 3.42 2.97 3.948 3.926 3.512 3.817
3.56 3.585 3.587 3.653 3.658 3.622 3.6 3.572 3.523 3.505 3.633 3.673 3.658 3.633 3.64 3.645 3.668 3.648 4.082 4.215 3.53 3.547 3.545 3.59 3.6 3.585 3.565 3.52 3.47 3.425 3.433 3.398 3.418 3.455 3.483 3.507 3.513 3.523 3.523 3.515 3.465 3.527 3.617 3.587 3.555 3.537 3.513 3.527 3.513 3.46 3.392 3.365 3.517 3.612 3.582 3.543 3.537 3.543 3.487 3.55 3.607 3.49 3.52 3.602 3.622 3.595 3.572 3.553 3.567 3.567 3.575 3.495 3.383 3.515 3.6 3.58 3.545 3.523 3.503 3.51 3.52 3.495 3.358 3.388 3.467 3.49 3.507 3.513 3.52 3.557 3.618 3.67 3.64 3.545 3.635 3.638 3.62 3.64 3.65 3.65 3.642 3.703 3.71 3.727 3.953 3.653 3.733 3.773 3.78 3.783 3.755 3.713 3.585 3.597 3.545 3.425 3.36 3.27 3.215 3.065 2.975 2.892 2.817 2.767 2.743 2.673 2.628 2.602 2.567 2.52 2.485 2.475 2.44 2.44 2.405 2.375 2.365 2.303 2.297 2.26 2.245 2.253 2.25 2.21 2.24 2.203 2.13 2.07 2.082 2.053 2.125 2.158 2.108 2.07 2.112 2.197 2.25 2.45 2.237 2.115 2.18 2.18 2.075 2.105 2.162 2.075 2.07 2.09 2.122 2.15 2.178 2.203 2.293 2.433 2.55 2.622 2.737 2.81 2.9 2.99 3.017 3.055 4.428 4.617 3.69 3.168 3.217 3.243 3.26 3.3 3.365 3.398 3.355 3.325 3.315 3.35 3.385 3.405 3.408 3.36 3.362 3.385 3.372 3.393 3.4 3.352 3.327 3.327 3.347 3.342 3.34 3.358 3.385 3.36 3.34 3.352 3.368 3.38 3.385 3.403 3.418 3.38 3.337 3.372 3.372 3.385 3.37 3.378 3.39 3.393 3.4 3.385 3.388 3.372 3.375 3.358 3.375 3.383 3.388 3.403 3.42 3.418 3.413 3.388 3.36 3.35 3.325 3.332 3.36 3.34 3.317 3.327 3.337 3.37 3.367 3.383 3.388 3.415 3.405 3.39 3.413 3.39 3.385 3.37 3.375 3.395 3.4 3.385 3.38 3.372 3.375 3.358 3.335 3.342 3.347 3.337 3.362 3.453 3.527 3.527 3.537 3.55 3.57 3.557 3.58 3.693 3.753 3.81 3.862 3.84 3.855 3.84 3.842 3.803 3.787 3.805 3.852 3.88 3.89 3.905 3.858 3.74 3.775 3.98 4.043 4.912 4.94 4.118 4.102 4.015 3.94 3.9 3.883 3.835 3.763 3.713 3.66 3.653 3.635 3.612 3.605 3.577 3.572 3.592 3.547 3.413 3.43 3.485 3.423 3.35 3.345 3.315 3.295 3.24 3.245 3.22 3.045 2.608 2.255 2.102 2.1 2.1 2.162 2.09 2.04 2.693 3.322 3.345 3.455 3.602 3.767 3.957 4.118 4.2 4.25 4.425 4.852 5.27 5.525 5.55 5.35 4.99 4.65 4.387 4.142 3.913 3.76 3.572 3.455 3.408 3.342 3.26 3.223 3.197 3.22 3.197 3.07 2.955 2.855 2.89 2.77 2.705 2.355 1.835 1.825 1.82 1.817 1.822 1.82 1.82 1.822 1.835 1.817 1.805 1.815 1.817 1.817 1.83 1.815 1.822 1.817 1.815 1.83 1.83 1.817 1.835 1.82 1.84 1.822 1.83 1.838 1.822 1.835 1.82 1.825 1.817 1.845 1.812 1.815 1.835 1.817 1.817 1.82 1.822 1.812 1.825 1.832 1.832 1.832 1.815 1.827 1.815 1.82 1.828 1.827 1.832 1.82 1.812 1.832 1.827 1.812 1.82 1.817 1.79 1.785 1.832 1.817 1.81 1.796 1.786 1.754 1.731 1.704 1.633 1.566 1.563 1.591 1.587 1.587 1.589 1.586 1.602 1.597 1.627 1.648 1.661 1.688 1.697 1.72 1.734 1.735 1.769 1.807 1.853 1.879 1.943 2.005 2.11 2.21 2.278 2.302 2.31 2.376 2.408 2.436 2.47 2.527 2.586 2.642 2.718 2.824 2.914 3.551 3.559 3.004 3.676 4.134 3.795 3.221 3.093
3.553 3.51 3.547 3.632 3.63 3.622 3.575 3.555 3.5 3.535 3.628 3.663 3.663 3.633 3.643 3.668 3.668 3.605 4.832 3.655 3.57 3.615 3.592 3.585 3.58 3.575 3.545 3.51 3.463 3.413 3.428 3.443 3.455 3.473 3.487 3.485 3.485 3.493 3.473 3.45 3.42 3.56 3.625 3.607 3.575 3.537 3.527 3.55 3.547 3.507 3.382 3.368 3.487 3.553 3.535 3.533 3.53 3.487 3.503 3.55 3.543 3.438 3.527 3.575 3.585 3.555 3.537 3.54 3.537 3.545 3.527 3.418 3.388 3.485 3.57 3.58 3.53 3.483 3.53 3.52 3.495 3.457 3.317 3.41 3.467 3.487 3.48 3.483 3.5 3.52 3.572 3.658 3.582 3.537 3.653 3.612 3.592 3.633 3.65 3.65 3.645 3.707 3.673 4.585 4.595 3.71 3.78 3.817 3.83 3.787 3.78 3.747 3.683 3.633 3.653 3.585 3.48 3.423 3.358 3.25 3.125 3.035 2.97 2.9 2.862 2.77 2.707 2.64 2.622 2.592 2.577 2.535 2.523 2.5 2.43 2.423 2.41 2.352 2.3 2.277 2.275 2.277 2.27 2.27 2.233 2.213 2.19 2.125 2.122 2.09 2.115 2.118 2.105 2.132 2.105 2.105 2.17 2.247 2.145 2.318 2.138 2.082 2.283 2.155 2.163 2.138 2.125 2.077 2.082 2.112 2.112 2.16 2.287 2.38 2.46 2.553 2.638 2.69 2.785 2.892 2.957 3.322 4.703 4.125 3.035 3.112 3.2 3.29 3.332 3.38 3.428 3.408 3.35 3.325 3.317 3.365 3.413 3.43 3.403 3.378 3.347 3.342 3.347 3.393 3.365 3.335 3.332 3.332 3.31 3.327 3.36 3.403 3.425 3.372 3.362 3.382 3.38 3.39 3.372 3.365 3.388 3.325 3.345 3.365 3.395 3.395 3.405 3.383 3.367 3.39 3.393 3.375 3.362 3.365 3.355 3.342 3.365 3.395 3.408 3.398 3.41 3.415 3.395 3.392 3.355 3.345 3.31 3.32 3.322 3.312 3.322 3.337 3.327 3.332 3.342 3.337 3.37 3.385 3.385 3.38 3.398 3.413 3.385 3.372 3.393 3.385 3.408 3.4 3.38 3.372 3.362 3.385 3.355 3.335 3.332 3.325 3.322 3.358 3.398 3.408 3.425 3.465 3.495 3.487 3.5 3.54 3.635 3.737 3.765 3.757 3.767 3.757 3.763 3.787 3.773 3.795 3.827 3.84 3.842 3.817 3.725 3.658 3.683 3.87 4.043 4.97 4.387 4.075 4.045 3.988 3.935 3.905 3.872 3.817 3.727 3.733 3.71 3.693 3.68 3.645 3.625 3.615 3.562 3.56 3.51 3.418 3.385 3.403 3.347 3.28 3.267 3.283 3.22 3.13 2.993 2.737 2.38 2.11 2.097 2.172 2.095 2.138 2.2 2.895 2.705 3.235 3.463 3.553 3.733 3.912 4.057 4.165 4.213 4.347 4.693 5.168 5.543 5.64 5.515 5.2 4.812 4.5 4.245 4.012 3.807 3.638 3.527 3.405 3.322 3.283 3.217 3.173 3.148 3.12 3.148 3.153 3.075 3.36 3.582 3.53 3.027 2.365 1.918 2.013 1.96 1.825 1.82 1.827 1.822 1.82 1.812 1.822 1.812 1.82 1.817 1.828 1.808 1.807 1.835 1.82 1.815 1.822 1.832 1.817 1.845 1.815 1.817 1.825 1.83 1.828 1.835 1.837 1.81 1.83 1.815 1.84 1.832 1.812 1.827 1.838 1.837 1.825 1.835 1.815 1.82 1.825 1.82 1.83 1.817 1.835 1.81 1.827 1.825 1.82 1.827 1.82 1.812 1.812 1.832 1.827 1.817 1.827 1.817 1.81 1.807 1.822 1.803 1.796 1.775 1.759 1.752 1.704 1.62 1.603 1.625 1.617 1.589 1.572 1.619 1.611 1.591 1.609 1.633 1.643 1.67 1.705 1.724 1.744 1.761 1.766 1.757 1.767 1.869 1.907 1.968 2.05 2.119 2.227 2.338 2.396 2.437 2.458 2.492 2.518 2.549 2.567 2.6 2.655 2.728 2.805 2.88 3.439 3.61 3.087 3.531 4.527 3.719 3.686 3.221 3.09
3.592 3.533 3.505 3.525 3.565 3.562 3.555 3.557 3.467 3.543 3.622 3.668 3.648 3.628 3.645 3.665 3.65 3.872 4.177 3.523 3.618 3.673 3.663 3.63 3.625 3.61 3.585 3.54 3.493 3.445 3.473 3.475 3.477 3.48 3.475 3.467 3.497 3.525 3.513 3.423 3.418 3.54 3.595 3.595 3.58 3.555 3.555 3.553 3.55 3.523 3.368 3.423 3.485 3.51 3.523 3.535 3.557 3.513 3.505 3.525 3.453 3.4 3.507 3.55 3.54 3.535 3.53 3.52 3.523 3.513 3.48 3.345 3.4 3.447 3.513 3.557 3.53 3.475 3.53 3.497 3.48 3.435 3.327 3.477 3.505 3.493 3.477 3.48 3.49 3.48 3.517 3.597 3.513 3.55 3.622 3.595 3.59 3.615 3.648 3.612 3.653 3.68 4.202 4.892 4.195 3.755 3.815 3.837 3.815 3.77 3.743 3.73 3.645 3.625 3.7 3.665 3.628 3.59 3.51 3.403 3.315 3.243 3.138 3.065 3.023 2.905 2.838 2.765 2.71 2.645 2.622 2.585 2.567 2.515 2.51 2.49 2.463 2.403 2.365 2.305 2.277 2.3 2.303 2.273 2.255 2.237 2.217 2.195 2.148 2.102 2.1 2.135 2.112 2.11 2.082 2.077 2.077 2.095 2.225 2.46 2.517 2.465 2.842 2.835 2.423 2.128 2.183 2.102 2.072 2.102 2.1 2.1 2.17 2.287 2.388 2.453 2.52 2.595 2.705 2.805 2.842 4.05 4.455 4.14 2.955 3.12 3.243 3.32 3.317 3.4 3.447 3.405 3.375 3.388 3.337 3.345 3.408 3.39 3.345 3.34 3.335 3.32 3.352 3.395 3.385 3.332 3.382 3.367 3.32 3.307 3.34 3.435 3.42 3.36 3.36 3.38 3.395 3.403 3.365 3.383 3.335 3.303 3.337 3.36 3.382 3.368 3.378 3.38 3.367 3.388 3.383 3.378 3.36 3.38 3.36 3.32 3.367 3.395 3.395 3.408 3.395 3.395 3.39 3.375 3.35 3.352 3.33 3.32 3.32 3.317 3.325 3.355 3.352 3.342 3.322 3.322 3.342 3.365 3.36 3.37 3.398 3.403 3.39 3.365 3.372 3.375 3.403 3.39 3.388 3.39 3.357 3.352 3.368 3.37 3.34 3.332 3.32 3.315 3.337 3.357 3.378 3.403 3.445 3.457 3.47 3.505 3.53 3.572 3.618 3.632 3.653 3.683 3.713 3.727 3.755 3.773 3.78 3.803 3.795 3.723 3.612 3.608 3.673 3.793 4.263 5.43 3.997 4.01 4.017 3.98 3.96 3.908 3.878 3.847 3.747 3.715 3.725 3.71 3.707 3.688 3.648 3.663 3.59 3.495 3.435 3.358 3.31 3.29 3.23 3.148 3.13 3.045 2.85 2.487 2.237 2.105 2.097 2.1 2.1 2.213 2.148 2.342 2.818 3.35 3.398 3.513 3.67 3.91 4.053 4.122 4.18 4.287 4.568 4.995 5.427 5.635 5.618 5.365 4.965 4.617 4.338 4.113 3.923 3.717 3.575 3.465 3.39 3.293 3.188 3.145 3.133 3.128 3.077 3.037 3.095 3.21 4.11 4.415 3.72 3.213 3.102 2.64 2.077 2.275 2.048 1.832 1.8 1.82 1.822 1.825 1.825 1.832 1.83 1.828 1.815 1.803 1.817 1.828 1.825 1.817 1.83 1.827 1.85 1.83 1.825 1.837 1.82 1.832 1.817 1.817 1.825 1.83 1.83 1.822 1.83 1.827 1.815 1.82 1.83 1.828 1.82 1.845 1.817 1.81 1.835 1.82 1.828 1.835 1.822 1.817 1.825 1.827 1.83 1.815 1.822 1.82 1.822 1.825 1.838 1.827 1.832 1.81 1.81 1.835 1.81 1.825 1.817 1.805 1.788 1.778 1.693 1.65 1.61 1.66 1.657 1.643 1.63 1.616 1.643 1.636 1.613 1.621 1.641 1.698 1.698 1.735 1.77 1.79 1.809 1.833 1.796 1.754 1.861 2.017 2.06 2.142 2.216 2.33 2.417 2.493 2.531 2.543 2.58 2.613 2.648 2.653 2.698 2.756 2.811 2.879 3.278 3.756 3.079 3.268 4.592 4.14 3.789 3.285 3.073 3.079
3.562 3.58 3.575 3.53 3.533 3.535 3.56 3.54 3.457 3.567 3.617 3.63 3.622 3.648 3.64 3.635 3.622 4.215 3.625 3.545 3.642 3.685 3.68 3.658 3.665 3.65 3.625 3.585 3.513 3.453 3.525 3.53 3.507 3.487 3.46 3.457 3.473 3.517 3.507 3.395 3.423 3.533 3.55 3.533 3.517 3.505 3.507 3.517 3.533 3.47 3.345 3.433 3.495 3.52 3.505 3.523 3.557 3.543 3.527 3.53 3.408 3.405 3.503 3.537 3.555 3.52 3.507 3.483 3.5 3.477 3.428 3.312 3.435 3.455 3.457 3.503 3.477 3.453 3.487 3.493 3.487 3.41 3.38 3.495 3.5 3.483 3.467 3.483 3.5 3.507 3.497 3.5 3.428 3.543 3.592 3.625 3.645 3.628 3.61 3.602 3.635 3.645 4.737 4.065 3.745 3.807 3.84 3.85 3.81 3.757 3.717 3.707 3.615 3.642 3.713 3.735 3.703 3.648 3.607 3.57 3.513 3.428 3.335 3.23 3.142 3.047 2.957 2.87 2.8 2.753 2.69 2.645 2.587 2.567 2.555 2.525 2.535 2.473 2.433 2.368 2.34 2.322 2.297 2.27 2.255 2.273 2.245 2.207 2.173 2.168 2.112 2.142 2.102 2.108 2.097 2.122 2.108 2.088 2.135 2.2 2.287 2.31 2.513 2.685 2.838 2.557 2.3 2.138 2.085 2.085 2.067 2.09 2.13 2.195 2.255 2.36 2.425 2.513 2.592 2.693 2.778 3.955 3.892 3.513 3.03 3.138 3.223 3.273 3.267 3.342 3.392 3.385 3.415 3.405 3.303 3.28 3.33 3.372 3.372 3.44 3.413 3.367 3.36 3.375 3.365 3.335 3.367 3.347 3.317 3.305 3.335 3.447 3.4 3.332 3.345 3.35 3.398 3.365 3.392 3.38 3.285 3.322 3.365 3.388 3.385 3.347 3.335 3.35 3.388 3.365 3.388 3.383 3.39 3.385 3.355 3.335 3.375 3.383 3.388 3.39 3.4 3.408 3.385 3.342 3.337 3.365 3.352 3.325 3.32 3.322 3.35 3.357 3.362 3.35 3.332 3.342 3.342 3.347 3.35 3.372 3.36 3.368 3.367 3.355 3.365 3.378 3.408 3.405 3.4 3.39 3.393 3.337 3.345 3.37 3.337 3.312 3.317 3.312 3.342 3.327 3.358 3.383 3.382 3.382 3.405 3.467 3.465 3.517 3.52 3.547 3.537 3.543 3.577 3.658 3.725 3.703 3.763 3.81 3.773 3.65 3.54 3.527 3.635 3.705 4.645 4.63 3.847 3.947 3.963 3.957 3.93 3.89 3.865 3.832 3.79 3.757 3.735 3.727 3.71 3.67 3.632 3.602 3.515 3.398 3.3 3.213 3.178 3.155 3.062 2.93 2.747 2.422 2.215 2.085 2.055 2.067 2.255 2.1 2.088 2.33 3.188 3.235 3.312 3.517 3.63 3.775 3.96 4.125 4.162 4.213 4.405 4.823 5.278 5.573 5.622 5.477 5.12 4.73 4.418 4.202 4.01 3.807 3.635 3.52 3.435 3.362 3.283 3.175 3.105 3.105 3.105 3.128 3.003 2.987 3.503 4.403 6.423 5.075 3.585 3.09 2.912 2.602 2.27 1.91 1.808 1.82 1.82 1.82 1.817 1.825 1.815 1.838 1.835 1.832 1.812 1.82 1.815 1.828 1.825 1.822 1.822 1.822 1.83 1.828 1.832 1.822 1.837 1.822 1.82 1.822 1.82 1.822 1.822 1.815 1.842 1.828 1.842 1.835 1.825 1.825 1.828 1.828 1.822 1.81 1.83 1.815 1.825 1.82 1.832 1.835 1.817 1.83 1.838 1.84 1.807 1.817 1.82 1.828 1.825 1.82 1.838 1.82 1.817 1.837 1.832 1.82 1.84 1.805 1.761 1.713 1.695 1.682 1.66 1.663 1.682 1.674 1.649 1.67 1.68 1.653 1.658 1.677 1.686 1.706 1.748 1.78 1.811 1.842 1.877 1.895 1.913 1.871 1.867 2.038 2.155 2.241 2.331 2.431 2.484 2.568 2.624 2.649 2.676 2.707 2.741 2.74 2.777 2.82 2.853 3.174 3.436 3.141 3.03 3.591 4.372 3.345 3.117 3.078 3.06 3.07
3.553 3.562 3.585 3.547 3.545 3.567 3.547 3.493 3.465 3.595 3.625 3.592 3.597 3.618 3.6 3.59 3.942 4.358 3.497 3.595 3.668 3.678 3.67 3.66 3.67 3.658 3.63 3.592 3.5 3.47 3.553 3.572 3.557 3.505 3.48 3.487 3.475 3.483 3.457 3.347 3.44 3.547 3.545 3.537 3.525 3.467 3.463 3.465 3.483 3.403 3.355 3.445 3.467 3.525 3.495 3.517 3.535 3.525 3.537 3.523 3.378 3.44 3.483 3.513 3.527 3.517 3.483 3.457 3.483 3.457 3.36 3.305 3.428 3.457 3.453 3.465 3.43 3.4 3.477 3.523 3.467 3.345 3.428 3.51 3.503 3.497 3.495 3.497 3.507 3.51 3.495 3.43 3.395 3.52 3.587 3.67 3.66 3.608 3.587 3.535 3.543 3.638 3.952 3.6 3.74 3.803 3.79 3.8 3.747 3.723 3.693 3.66 3.59 3.65 3.74 3.75 3.703 3.642 3.622 3.635 3.717 3.66 3.533 3.42 3.312 3.2 3.122 3.077 3 2.852 2.783 2.723 2.66 2.67 2.602 2.597 2.562 2.565 2.5 2.46 2.418 2.388 2.335 2.283 2.31 2.28 2.255 2.257 2.22 2.183 2.173 2.19 2.153 2.092 2.11 2.102 2.135 2.135 2.095 2.1 2.202 2.342 2.408 2.348 2.66 2.73 2.78 2.39 2.238 2.138 2.108 2.055 2.08 2.1 2.182 2.215 2.307 2.443 2.485 2.51 3.178 4.03 4.055 2.78 2.967 3.06 3.155 3.227 3.255 3.287 3.3 3.375 3.368 3.26 3.213 3.245 3.307 3.378 3.41 3.423 3.405 3.34 3.335 3.36 3.335 3.347 3.36 3.35 3.32 3.327 3.31 3.352 3.327 3.307 3.335 3.332 3.36 3.388 3.42 3.33 3.273 3.335 3.352 3.367 3.383 3.327 3.352 3.365 3.388 3.39 3.39 3.372 3.38 3.375 3.33 3.35 3.4 3.4 3.385 3.392 3.4 3.392 3.395 3.367 3.337 3.325 3.312 3.327 3.317 3.317 3.335 3.355 3.362 3.35 3.34 3.337 3.335 3.38 3.352 3.378 3.362 3.34 3.337 3.358 3.367 3.37 3.378 3.4 3.395 3.395 3.385 3.347 3.337 3.325 3.307 3.303 3.303 3.317 3.352 3.35 3.337 3.352 3.365 3.342 3.352 3.36 3.408 3.48 3.49 3.5 3.51 3.483 3.495 3.58 3.655 3.65 3.745 3.783 3.7 3.592 3.5 3.47 3.53 3.585 4.525 5.095 3.783 3.905 3.935 3.915 3.875 3.832 3.8 3.77 3.763 3.745 3.685 3.68 3.638 3.545 3.493 3.477 3.38 3.285 3.18 3.11 3.003 2.923 2.71 2.41 2.115 2.065 2.095 2.088 2.072 2.037 2.243 2.653 2.91 3.008 3.253 3.445 3.543 3.727 3.89 4.035 4.105 4.177 4.35 4.665 5.065 5.438 5.588 5.488 5.215 4.87 4.528 4.242 4.05 3.863 3.675 3.54 3.457 3.408 3.315 3.235 3.178 3.077 3.062 3.075 3.047 2.98 3.35 3.955 3.918 3.955 4.07 3.777 3.26 2.928 2.635 2.662 2.233 1.82 1.797 1.817 1.822 1.815 1.817 1.822 1.825 1.817 1.822 1.812 1.815 1.835 1.815 1.822 1.825 1.828 1.832 1.832 1.83 1.827 1.822 1.82 1.835 1.828 1.825 1.83 1.825 1.805 1.835 1.822 1.812 1.825 1.822 1.835 1.82 1.822 1.822 1.827 1.842 1.825 1.822 1.825 1.825 1.825 1.837 1.815 1.817 1.835 1.84 1.828 1.835 1.832 1.82 1.825 1.815 1.825 1.82 1.822 1.82 1.81 1.822 1.817 1.825 1.8 1.761 1.745 1.715 1.696 1.672 1.694 1.693 1.703 1.677 1.695 1.707 1.704 1.714 1.729 1.73 1.773 1.784 1.847 1.87 1.876 1.897 1.912 2.023 1.982 1.91 2.008 2.219 2.35 2.431 2.519 2.583 2.635 2.677 2.729 2.755 2.876 2.935 2.837 2.884 2.897 3.169 4.018 3.29 3.027 3.028 3.292 3.148 3.072 3.107 3.07 3.057 3.083
3.567 3.547 3.572 3.555 3.537 3.577 3.51 3.423 3.48 3.612 3.638 3.59 3.56 3.592 3.582 3.605 4.198 3.685 3.497 3.625 3.673 3.663 3.648 3.65 3.658 3.655 3.643 3.592 3.467 3.49 3.562 3.585 3.58 3.527 3.467 3.463 3.49 3.457 3.385 3.327 3.438 3.535 3.54 3.555 3.55 3.503 3.473 3.45 3.433 3.327 3.37 3.465 3.46 3.48 3.487 3.5 3.493 3.507 3.535 3.49 3.358 3.455 3.505 3.513 3.487 3.475 3.475 3.453 3.445 3.41 3.305 3.345 3.425 3.455 3.425 3.425 3.443 3.398 3.495 3.567 3.46 3.332 3.485 3.54 3.497 3.48 3.507 3.505 3.5 3.505 3.477 3.38 3.398 3.525 3.6 3.675 3.625 3.56 3.53 3.503 3.47 3.47 3.48 3.547 3.7 3.783 3.743 3.725 3.68 3.68 3.67 3.572 3.55 3.668 3.707 3.725 3.675 3.668 3.67 3.655 3.74 3.723 3.74 3.68 3.537 3.388 3.275 3.227 3.153 2.987 2.905 2.817 2.76 2.727 2.727 2.673 2.61 2.6 2.557 2.543 2.473 2.457 2.403 2.335 2.322 2.31 2.253 2.273 2.25 2.213 2.197 2.203 2.185 2.203 2.122 2.082 2.138 2.102 2.12 2.097 2.122 2.15 2.575 2.678 2.625 2.662 2.835 2.49 2.525 2.21 2.173 2.173 2.062 2.085 2.115 2.115 2.188 2.257 2.342 2.277 2.66 3.577 2.945 2.787 2.89 2.985 3.057 3.105 3.175 3.24 3.21 3.297 3.22 3.253 3.287 3.315 3.31 3.293 3.338 3.347 3.347 3.317 3.39 3.408 3.355 3.36 3.383 3.362 3.36 3.415 3.327 3.265 3.257 3.277 3.29 3.303 3.342 3.43 3.39 3.312 3.263 3.322 3.375 3.398 3.385 3.315 3.355 3.357 3.37 3.378 3.38 3.352 3.37 3.35 3.325 3.35 3.405 3.395 3.378 3.37 3.393 3.378 3.398 3.362 3.32 3.342 3.345 3.342 3.325 3.307 3.317 3.335 3.36 3.362 3.352 3.345 3.337 3.39 3.398 3.385 3.378 3.355 3.352 3.36 3.362 3.37 3.383 3.375 3.36 3.352 3.37 3.365 3.367 3.317 3.295 3.29 3.277 3.312 3.36 3.352 3.36 3.37 3.362 3.34 3.35 3.342 3.36 3.425 3.475 3.438 3.447 3.45 3.477 3.507 3.575 3.587 3.673 3.73 3.62 3.602 3.495 3.447 3.46 3.967 4.668 3.685 3.77 3.865 3.908 3.885 3.83 3.753 3.71 3.697 3.735 3.688 3.605 3.557 3.533 3.412 3.342 3.305 3.253 3.203 3.097 2.932 2.725 2.443 2.17 2.08 2.085 2.057 2.325 2.245 2.043 2.325 2.965 3.223 3.372 3.5 3.568 3.678 3.852 4.035 4.093 4.12 4.238 4.57 4.995 5.355 5.505 5.415 5.18 4.872 4.608 4.323 4.118 3.905 3.727 3.588 3.505 3.418 3.35 3.305 3.193 3.112 3.07 3.053 3.015 3.013 3.122 4.14 5.008 3.943 3.57 3.71 3.585 3.273 2.995 2.94 2.845 2.632 1.872 1.787 1.808 1.822 1.82 1.83 1.822 1.82 1.82 1.825 1.822 1.825 1.817 1.83 1.822 1.808 1.822 1.82 1.83 1.828 1.838 1.82 1.828 1.82 1.83 1.822 1.837 1.81 1.842 1.812 1.835 1.832 1.84 1.828 1.835 1.837 1.825 1.828 1.822 1.82 1.838 1.817 1.82 1.84 1.825 1.835 1.828 1.83 1.84 1.812 1.832 1.815 1.825 1.822 1.832 1.817 1.83 1.828 1.82 1.815 1.832 1.822 1.83 1.835 1.82 1.793 1.781 1.763 1.749 1.74 1.717 1.709 1.708 1.698 1.691 1.711 1.727 1.75 1.749 1.775 1.764 1.807 1.829 1.866 1.905 1.923 1.979 1.99 2.036 2.098 2.072 2.047 2.25 2.402 2.515 2.596 2.631 2.674 2.73 2.788 2.849 2.983 3.039 2.949 2.976 3.014 3.846 3.462 3.041 3.049 3.12 3.097 3.067 3.09 3.072 3.065 3.078 3.113
3.585 3.54 3.567 3.535 3.527 3.565 3.49 3.39 3.523 3.622 3.625 3.585 3.567 3.6 3.6 3.6 4.168 3.49 3.51 3.605 3.648 3.638 3.655 3.66 3.65 3.64 3.625 3.582 3.46 3.525 3.575 3.582 3.585 3.543 3.5 3.457 3.503 3.505 3.365 3.335 3.423 3.51 3.527 3.52 3.515 3.495 3.475 3.443 3.388 3.312 3.39 3.5 3.49 3.47 3.473 3.48 3.465 3.473 3.525 3.428 3.372 3.463 3.487 3.497 3.477 3.44 3.45 3.455 3.457 3.39 3.263 3.375 3.39 3.398 3.42 3.423 3.415 3.4 3.447 3.535 3.425 3.36 3.537 3.57 3.515 3.473 3.483 3.487 3.497 3.507 3.455 3.347 3.425 3.51 3.562 3.632 3.643 3.597 3.557 3.5 3.675 3.505 3.475 3.54 3.673 3.7 3.697 3.663 3.628 3.648 3.64 3.525 3.543 3.663 3.71 3.68 3.66 3.678 3.683 3.68 3.65 3.697 3.795 3.825 3.755 3.63 3.505 3.358 3.27 3.178 3.062 2.96 2.89 2.815 2.803 2.753 2.703 2.642 2.628 2.572 2.545 2.497 2.49 2.395 2.365 2.337 2.307 2.307 2.257 2.24 2.213 2.225 2.21 2.168 2.163 2.155 2.148 2.118 2.072 2.1 2.13 2.092 2.08 2.17 2.38 2.37 2.408 2.812 2.645 2.575 2.352 2.125 2.138 2.057 2.097 2.138 2.115 2.117 2.18 2.15 3.217 3.52 2.408 2.66 2.815 2.89 2.93 2.965 3.08 3.125 3.095 3.173 3.24 3.372 3.325 3.36 3.312 3.307 3.335 3.342 3.332 3.35 3.428 3.418 3.38 3.403 3.398 3.388 3.433 3.443 3.32 3.253 3.257 3.267 3.273 3.28 3.37 3.398 3.378 3.287 3.275 3.315 3.365 3.358 3.32 3.32 3.337 3.358 3.352 3.34 3.342 3.317 3.33 3.312 3.31 3.325 3.355 3.37 3.365 3.398 3.383 3.385 3.413 3.358 3.312 3.35 3.347 3.358 3.325 3.307 3.307 3.347 3.37 3.355 3.35 3.325 3.337 3.41 3.428 3.435 3.393 3.365 3.36 3.342 3.365 3.38 3.345 3.345 3.315 3.337 3.35 3.362 3.332 3.342 3.293 3.273 3.255 3.34 3.37 3.347 3.32 3.378 3.36 3.36 3.355 3.325 3.358 3.395 3.403 3.41 3.413 3.435 3.453 3.45 3.477 3.53 3.625 3.75 3.727 3.71 3.555 3.433 3.418 4.51 4.347 3.565 3.713 3.8 3.822 3.827 3.787 3.715 3.648 3.628 3.64 3.56 3.487 3.435 3.398 3.33 3.255 3.213 3.173 3.08 2.895 2.54 2.225 2.102 2.085 2.043 2.025 2.047 2.12 2.09 2.485 3.102 3.36 3.505 3.572 3.688 3.86 4.008 4.095 4.122 4.2 4.448 4.843 5.27 5.488 5.46 5.16 4.803 4.525 4.325 4.135 3.943 3.773 3.618 3.515 3.46 3.428 3.345 3.24 3.14 3.082 3.057 3.04 3.037 2.98 3.45 4.548 5.298 5.738 3.255 3.435 3.412 3.263 3.075 2.96 3.16 2.372 1.88 1.793 1.8 1.808 1.828 1.822 1.822 1.817 1.82 1.82 1.825 1.828 1.822 1.82 1.805 1.82 1.822 1.81 1.832 1.817 1.84 1.805 1.825 1.835 1.822 1.827 1.82 1.825 1.855 1.838 1.825 1.838 1.832 1.825 1.817 1.815 1.83 1.83 1.838 1.835 1.822 1.832 1.84 1.832 1.82 1.84 1.832 1.807 1.828 1.845 1.822 1.84 1.835 1.82 1.825 1.817 1.81 1.82 1.822 1.82 1.81 1.822 1.822 1.822 1.822 1.81 1.806 1.79 1.766 1.77 1.732 1.734 1.733 1.751 1.749 1.731 1.75 1.739 1.785 1.785 1.801 1.824 1.864 1.892 1.928 1.979 2.02 2.139 2.096 2.138 2.223 2.212 2.12 2.25 2.415 2.527 2.622 2.67 2.727 2.799 2.86 2.944 3.029 3.068 3.044 3.171 3.649 3.589 3.078 3.334 3.463 3.102 3.11 3.087 3.09 3.07 3.08 3.115 3.132
3.523 3.527 3.527 3.48 3.5 3.527 3.46 3.38 3.505 3.592 3.622 3.567 3.565 3.597 3.605 3.82 3.685 3.463 3.503 3.577 3.61 3.63 3.648 3.65 3.648 3.633 3.615 3.537 3.455 3.572 3.597 3.595 3.6 3.577 3.537 3.483 3.527 3.503 3.34 3.378 3.445 3.473 3.5 3.463 3.445 3.46 3.473 3.457 3.347 3.303 3.39 3.447 3.44 3.44 3.445 3.44 3.447 3.495 3.525 3.4 3.415 3.493 3.503 3.487 3.46 3.425 3.418 3.408 3.43 3.352 3.253 3.388 3.4 3.375 3.42 3.4 3.398 3.395 3.413 3.463 3.345 3.42 3.543 3.543 3.487 3.46 3.47 3.473 3.473 3.487 3.428 3.33 3.447 3.503 3.535 3.618 3.68 3.653 3.61 3.545 4.158 3.535 3.513 3.577 3.678 3.66 3.628 3.605 3.57 3.582 3.575 3.495 3.562 3.67 3.703 3.673 3.635 3.68 3.655 3.66 3.615 3.66 3.812 3.817 3.775 3.78 3.685 3.572 3.43 3.352 3.25 3.128 3.033 2.945 2.885 2.852 2.793 2.737 2.693 2.63 2.595 2.55 2.507 2.44 2.415 2.372 2.37 2.345 2.295 2.283 2.257 2.24 2.213 2.215 2.185 2.16 2.148 2.097 2.125 2.14 2.132 2.14 2.193 2.075 2.112 2.402 2.37 2.388 2.572 2.688 2.655 2.408 2.245 2.09 2.067 2.062 2.102 2.11 2.102 2.195 2.753 2.652 2.285 2.473 2.68 2.77 2.785 2.835 2.953 2.943 2.983 3.102 3.263 3.35 3.347 3.335 3.335 3.35 3.405 3.435 3.345 3.347 3.405 3.388 3.365 3.398 3.395 3.405 3.46 3.415 3.29 3.273 3.285 3.273 3.29 3.33 3.375 3.378 3.355 3.267 3.32 3.327 3.34 3.32 3.352 3.322 3.332 3.38 3.408 3.385 3.38 3.325 3.332 3.335 3.357 3.342 3.293 3.322 3.378 3.42 3.4 3.408 3.388 3.34 3.33 3.367 3.35 3.347 3.342 3.332 3.312 3.337 3.36 3.347 3.34 3.315 3.335 3.395 3.418 3.43 3.4 3.367 3.362 3.332 3.342 3.338 3.342 3.352 3.293 3.337 3.317 3.305 3.325 3.327 3.295 3.277 3.245 3.312 3.355 3.342 3.327 3.327 3.372 3.357 3.362 3.337 3.347 3.367 3.39 3.38 3.38 3.403 3.428 3.418 3.443 3.48 3.55 3.705 3.737 3.707 3.595 3.44 3.54 5.07 4.655 3.535 3.645 3.707 3.747 3.755 3.727 3.673 3.61 3.54 3.51 3.385 3.298 3.275 3.287 3.26 3.19 3.112 2.957 2.675 2.317 2.128 2.115 2.067 2.142 2.045 2.017 2.112 2.56 2.99 3.307 3.408 3.477 3.673 3.85 3.99 4.097 4.133 4.173 4.392 4.775 5.182 5.435 5.45 5.23 4.892 4.55 4.302 4.092 3.93 3.767 3.63 3.517 3.45 3.418 3.35 3.317 3.24 3.112 3.08 3.067 3.017 2.99 3.378 4.012 4.033 3.793 3.725 3.597 3.207 3.04 2.862 2.82 2.753 2.707 2.247 1.822 1.8 1.803 1.81 1.817 1.81 1.82 1.815 1.83 1.82 1.815 1.83 1.822 1.822 1.825 1.82 1.827 1.812 1.817 1.82 1.815 1.825 1.812 1.812 1.83 1.832 1.825 1.84 1.82 1.838 1.827 1.838 1.825 1.837 1.832 1.842 1.828 1.825 1.86 1.842 1.842 1.832 1.83 1.812 1.832 1.82 1.83 1.832 1.812 1.825 1.835 1.83 1.822 1.817 1.828 1.822 1.825 1.81 1.822 1.807 1.822 1.83 1.817 1.812 1.82 1.817 1.815 1.817 1.801 1.794 1.774 1.757 1.765 1.773 1.777 1.756 1.757 1.771 1.767 1.819 1.833 1.854 1.909 1.92 1.978 1.993 2.095 2.159 2.192 2.216 2.276 2.361 2.4 2.274 2.292 2.439 2.552 2.635 2.706 2.78 2.858 2.946 3.032 3.06 3.068 3.088 3.946 4.178 3.114 3.25 4.188 3.81 3.08 3.075 3.085 3.082 3.072 3.08 3.122 3.174
3.513 3.483 3.47 3.453 3.473 3.465 3.36 3.352 3.443 3.562 3.612 3.562 3.585 3.602 3.947 4.485 3.507 3.443 3.525 3.59 3.615 3.62 3.633 3.648 3.625 3.622 3.585 3.473 3.467 3.58 3.597 3.602 3.612 3.592 3.565 3.475 3.527 3.465 3.322 3.415 3.49 3.487 3.45 3.438 3.447 3.47 3.48 3.433 3.317 3.315 3.423 3.398 3.388 3.393 3.44 3.438 3.44 3.505 3.483 3.35 3.453 3.537 3.523 3.483 3.445 3.415 3.403 3.398 3.365 3.3 3.27 3.35 3.352 3.405 3.415 3.398 3.388 3.378 3.378 3.375 3.287 3.43 3.48 3.465 3.483 3.5 3.475 3.457 3.473 3.487 3.405 3.315 3.423 3.497 3.56 3.605 3.655 3.635 3.612 3.755 4.267 3.57 3.6 3.615 3.67 3.633 3.575 3.55 3.537 3.513 3.47 3.433 3.585 3.673 3.688 3.655 3.65 3.685 3.648 3.63 3.577 3.61 3.76 3.805 3.787 3.835 3.775 3.733 3.642 3.53 3.408 3.318 3.21 3.102 2.995 2.92 2.865 2.827 2.763 2.717 2.668 2.63 2.535 2.507 2.477 2.435 2.447 2.408 2.347 2.33 2.293 2.283 2.253 2.223 2.18 2.21 2.178 2.122 2.125 2.097 2.1 2.117 2.155 2.135 2.142 2.14 2.35 2.358 2.673 2.438 2.757 2.662 2.775 2.162 2.178 2.155 2.13 2.082 2.097 2.24 2.615 2.283 2.303 2.388 2.517 2.642 2.658 2.7 2.757 2.773 2.847 3.007 3.18 3.25 3.327 3.37 3.383 3.41 3.48 3.46 3.388 3.362 3.36 3.34 3.367 3.38 3.39 3.413 3.368 3.297 3.285 3.33 3.332 3.287 3.315 3.358 3.41 3.378 3.307 3.267 3.337 3.355 3.34 3.385 3.357 3.36 3.383 3.385 3.403 3.403 3.4 3.337 3.34 3.368 3.388 3.37 3.295 3.31 3.392 3.39 3.37 3.418 3.372 3.322 3.365 3.36 3.36 3.342 3.358 3.355 3.332 3.307 3.37 3.365 3.347 3.332 3.305 3.36 3.408 3.42 3.408 3.372 3.332 3.317 3.332 3.335 3.33 3.337 3.312 3.337 3.337 3.295 3.295 3.29 3.275 3.243 3.23 3.265 3.337 3.352 3.342 3.337 3.327 3.365 3.372 3.345 3.347 3.375 3.372 3.37 3.37 3.393 3.398 3.4 3.388 3.438 3.515 3.628 3.638 3.553 3.503 3.418 3.905 5.003 3.6 3.507 3.587 3.628 3.628 3.612 3.567 3.547 3.503 3.432 3.322 3.2 3.155 3.175 3.197 3.165 3.005 2.757 2.435 2.128 2.07 2.077 2.082 2.202 2.055 2.205 2.39 2.865 3.253 3.4 3.515 3.628 3.785 3.985 4.105 4.13 4.173 4.347 4.7 5.148 5.42 5.452 5.273 4.927 4.613 4.365 4.122 3.91 3.767 3.632 3.507 3.44 3.41 3.382 3.372 3.267 3.138 3.138 3.1 3.065 3.025 3.223 3.95 4.338 4.235 3.808 3.418 3.17 2.983 2.642 2.445 2.392 2.305 2.293 1.993 1.815 1.795 1.817 1.805 1.812 1.822 1.822 1.82 1.815 1.82 1.812 1.822 1.83 1.832 1.827 1.817 1.83 1.832 1.817 1.825 1.822 1.84 1.825 1.845 1.815 1.822 1.828 1.832 1.845 1.825 1.822 1.832 1.825 1.827 1.822 1.835 1.828 1.832 1.832 1.84 1.838 1.827 1.848 1.83 1.822 1.82 1.827 1.815 1.83 1.822 1.828 1.815 1.822 1.82 1.815 1.832 1.83 1.825 1.81 1.822 1.832 1.82 1.82 1.828 1.828 1.822 1.82 1.817 1.825 1.813 1.804 1.785 1.781 1.772 1.773 1.747 1.746 1.793 1.799 1.822 1.862 1.869 1.929 1.975 2.003 2.07 2.11 2.217 2.262 2.288 2.337 2.39 2.458 2.513 2.442 2.365 2.466 2.609 2.67 2.712 2.804 2.902 2.988 3.066 3.095 3.081 3.463 4.207 3.64 3.105 4.398 4.117 3.445 3.07 3.067 3.087 3.085 3.105 3.15 3.17 3.22
3.567 3.523 3.487 3.455 3.438 3.413 3.337 3.383 3.418 3.487 3.545 3.555 3.597 3.602 4.517 3.72 3.46 3.45 3.585 3.62 3.63 3.638 3.638 3.643 3.607 3.61 3.555 3.435 3.49 3.592 3.6 3.59 3.592 3.597 3.577 3.48 3.467 3.38 3.315 3.45 3.465 3.485 3.46 3.463 3.443 3.465 3.475 3.418 3.3 3.327 3.4 3.4 3.392 3.383 3.418 3.435 3.438 3.513 3.438 3.332 3.5 3.572 3.53 3.51 3.465 3.443 3.428 3.418 3.385 3.277 3.33 3.352 3.32 3.355 3.378 3.392 3.378 3.38 3.345 3.283 3.247 3.408 3.42 3.435 3.503 3.51 3.435 3.453 3.47 3.473 3.325 3.322 3.443 3.487 3.555 3.61 3.602 3.607 3.602 4.028 3.94 3.602 3.615 3.618 3.602 3.557 3.52 3.515 3.507 3.483 3.418 3.44 3.562 3.658 3.643 3.635 3.65 3.665 3.62 3.628 3.55 3.648 3.725 3.77 3.747 3.827 3.807 3.79 3.723 3.685 3.595 3.493 3.375 3.265 3.142 3.045 2.963 2.898 2.827 2.785 2.737 2.683 2.658 2.562 2.545 2.497 2.47 2.443 2.408 2.383 2.35 2.305 2.295 2.247 2.225 2.203 2.188 2.178 2.195 2.17 2.115 2.115 2.112 2.145 2.117 2.092 2.072 2.168 2.55 3.14 2.547 2.575 2.625 2.673 2.365 2.143 2.108 2.087 2.14 2.245 2.245 2.02 2.283 2.317 2.403 2.467 2.515 2.582 2.617 2.668 2.755 2.88 2.997 3.142 3.295 3.408 3.445 3.48 3.49 3.465 3.413 3.445 3.378 3.32 3.372 3.375 3.375 3.335 3.263 3.287 3.33 3.34 3.347 3.327 3.325 3.36 3.42 3.338 3.237 3.257 3.35 3.342 3.325 3.385 3.362 3.362 3.375 3.418 3.39 3.398 3.372 3.32 3.317 3.385 3.42 3.38 3.28 3.327 3.375 3.378 3.35 3.398 3.358 3.362 3.388 3.38 3.345 3.35 3.337 3.352 3.345 3.307 3.345 3.365 3.372 3.355 3.315 3.34 3.403 3.393 3.342 3.32 3.342 3.345 3.33 3.32 3.322 3.342 3.332 3.33 3.322 3.307 3.3 3.293 3.28 3.257 3.23 3.247 3.28 3.342 3.345 3.362 3.315 3.332 3.35 3.35 3.362 3.372 3.367 3.365 3.365 3.362 3.365 3.388 3.372 3.4 3.445 3.547 3.527 3.428 3.39 3.385 4.38 4.422 3.445 3.477 3.497 3.483 3.503 3.47 3.453 3.4 3.3 3.223 3.17 3.132 3.112 3.068 2.922 2.662 2.303 2.142 2.102 2.4 2.118 2.04 2.25 2.26 2.888 2.995 3.197 3.362 3.438 3.525 3.737 3.925 4.065 4.117 4.185 4.358 4.713 5.11 5.395 5.462 5.32 5 4.665 4.392 4.168 3.975 3.773 3.565 3.487 3.412 3.365 3.347 3.322 3.277 3.29 3.235 3.08 3.015 3.053 3.193 3.505 4.39 4.73 3.533 3.63 3.678 3.142 2.63 2.435 2.26 2.155 2.03 2.158 2 1.793 1.81 1.81 1.797 1.807 1.812 1.807 1.83 1.815 1.832 1.808 1.822 1.825 1.828 1.827 1.82 1.817 1.825 1.822 1.82 1.817 1.817 1.822 1.835 1.827 1.832 1.822 1.817 1.835 1.815 1.82 1.822 1.825 1.832 1.822 1.825 1.828 1.822 1.832 1.82 1.815 1.832 1.822 1.825 1.822 1.822 1.828 1.838 1.822 1.83 1.812 1.812 1.82 1.825 1.817 1.82 1.832 1.835 1.848 1.837 1.817 1.82 1.848 1.82 1.83 1.827 1.817 1.822 1.827 1.825 1.814 1.814 1.791 1.817 1.801 1.775 1.783 1.783 1.825 1.832 1.88 1.952 1.975 2.024 2.06 2.115 2.135 2.216 2.303 2.367 2.399 2.432 2.471 2.54 2.61 2.624 2.515 2.507 2.651 2.724 2.754 2.798 2.895 2.986 3.067 3.085 3.463 4.523 3.928 3.087 4.085 4.407 3.662 3.447 3.185 3.145 3.128 3.122 3.148 3.185 3.207 3.24
3.572 3.555 3.49 3.47 3.49 3.43 3.357 3.46 3.477 3.457 3.503 3.553 3.595 3.71 4.34 3.535 3.42 3.438 3.56 3.6 3.63 3.66 3.658 3.63 3.592 3.597 3.53 3.413 3.52 3.585 3.59 3.602 3.575 3.575 3.565 3.543 3.475 3.332 3.337 3.433 3.445 3.457 3.447 3.47 3.477 3.44 3.447 3.415 3.3 3.372 3.38 3.418 3.405 3.36 3.372 3.385 3.41 3.465 3.358 3.355 3.535 3.59 3.56 3.527 3.483 3.447 3.443 3.433 3.378 3.255 3.345 3.375 3.327 3.4 3.362 3.385 3.383 3.375 3.37 3.245 3.243 3.378 3.38 3.43 3.473 3.47 3.423 3.46 3.485 3.41 3.247 3.385 3.487 3.495 3.553 3.592 3.592 3.605 3.688 4.438 3.572 3.575 3.565 3.543 3.53 3.505 3.503 3.477 3.483 3.46 3.408 3.457 3.527 3.622 3.607 3.643 3.625 3.617 3.587 3.543 3.547 3.662 3.673 3.68 3.695 3.79 3.822 3.777 3.717 3.753 3.707 3.653 3.523 3.428 3.322 3.215 3.09 3.005 2.923 2.855 2.803 2.757 2.683 2.648 2.63 2.575 2.513 2.48 2.48 2.438 2.372 2.352 2.33 2.312 2.295 2.245 2.215 2.2 2.195 2.197 2.188 2.132 2.107 2.092 2.128 2.122 2.082 2.08 2.118 2.497 2.365 2.2 2.553 2.765 2.713 2.215 2.14 2.185 2.197 2.128 2.105 2.03 2.233 2.3 2.33 2.36 2.403 2.483 2.53 2.54 2.645 2.773 2.888 3.047 3.207 3.335 3.457 3.497 3.48 3.46 3.47 3.47 3.385 3.35 3.367 3.395 3.37 3.255 3.29 3.378 3.342 3.34 3.325 3.327 3.317 3.36 3.362 3.295 3.23 3.265 3.327 3.307 3.342 3.357 3.347 3.37 3.378 3.39 3.385 3.388 3.383 3.335 3.315 3.382 3.435 3.368 3.245 3.352 3.403 3.36 3.372 3.325 3.32 3.388 3.388 3.357 3.357 3.367 3.345 3.327 3.342 3.307 3.322 3.36 3.347 3.355 3.335 3.322 3.355 3.337 3.32 3.342 3.35 3.32 3.312 3.312 3.305 3.31 3.358 3.32 3.31 3.26 3.293 3.287 3.29 3.257 3.243 3.223 3.243 3.293 3.355 3.362 3.315 3.317 3.332 3.347 3.345 3.365 3.38 3.385 3.362 3.347 3.35 3.352 3.37 3.403 3.463 3.533 3.535 3.428 3.385 3.568 4.722 3.72 3.438 3.455 3.467 3.43 3.39 3.368 3.317 3.235 3.125 3.077 3.03 2.945 2.763 2.455 2.205 2.118 2.16 2.165 2.273 2.117 2.04 2.12 2.423 3.108 3.263 3.46 3.507 3.6 3.74 3.918 4.025 4.082 4.145 4.32 4.69 5.09 5.372 5.43 5.31 5.04 4.73 4.455 4.217 3.977 3.795 3.608 3.447 3.303 3.317 3.312 3.29 3.24 3.22 3.223 3.183 3.18 3.105 2.987 3.378 4.48 4.265 3.868 3.293 2.743 2.7 3.445 3.005 2.45 2.257 2.128 2.01 1.977 1.808 1.8 1.815 1.82 1.81 1.812 1.8 1.808 1.808 1.827 1.822 1.825 1.827 1.822 1.822 1.835 1.822 1.822 1.815 1.815 1.835 1.832 1.805 1.825 1.815 1.825 1.835 1.835 1.822 1.82 1.835 1.832 1.832 1.832 1.817 1.82 1.822 1.817 1.822 1.827 1.82 1.835 1.845 1.832 1.825 1.82 1.798 1.832 1.82 1.832 1.822 1.83 1.83 1.832 1.84 1.82 1.82 1.827 1.82 1.815 1.84 1.825 1.832 1.83 1.832 1.825 1.817 1.835 1.83 1.822 1.832 1.825 1.832 1.836 1.806 1.812 1.805 1.776 1.833 1.867 1.872 1.878 1.937 2.025 2.038 2.064 2.125 2.183 2.227 2.311 2.394 2.469 2.514 2.536 2.585 2.642 2.714 2.745 2.688 2.613 2.686 2.75 2.753 2.812 2.888 2.99 3.047 3.27 4.355 4.508 3.24 3.847 4.255 3.73 3.32 3.217 3.213 3.18 3.17 3.17 3.23 3.265 3.293 3.277
3.562 3.543 3.527 3.52 3.51 3.445 3.37 3.473 3.525 3.477 3.463 3.533 3.557 4.345 3.673 3.52 3.405 3.467 3.527 3.535 3.572 3.628 3.635 3.6 3.585 3.58 3.467 3.408 3.547 3.602 3.622 3.615 3.595 3.565 3.533 3.525 3.465 3.317 3.372 3.435 3.443 3.408 3.435 3.438 3.46 3.455 3.408 3.355 3.297 3.4 3.435 3.423 3.423 3.385 3.352 3.372 3.362 3.365 3.283 3.358 3.495 3.567 3.572 3.523 3.485 3.457 3.453 3.44 3.33 3.263 3.337 3.383 3.332 3.395 3.388 3.362 3.375 3.362 3.33 3.215 3.273 3.33 3.342 3.395 3.42 3.418 3.42 3.447 3.477 3.362 3.273 3.42 3.493 3.523 3.52 3.543 3.577 3.58 4.18 3.787 3.485 3.513 3.5 3.47 3.49 3.48 3.463 3.47 3.463 3.44 3.392 3.505 3.533 3.555 3.6 3.612 3.595 3.628 3.605 3.493 3.57 3.64 3.678 3.69 3.688 3.735 3.807 3.743 3.725 3.733 3.755 3.747 3.685 3.545 3.457 3.358 3.277 3.145 3.027 2.95 2.89 2.835 2.745 2.743 2.715 2.668 2.625 2.602 2.545 2.497 2.467 2.428 2.388 2.365 2.307 2.312 2.26 2.243 2.205 2.185 2.217 2.185 2.142 2.085 2.085 2.12 2.135 2.13 2.102 2.112 2.335 2.227 2.347 2.175 2.645 2.62 2.22 2.142 2.155 2.155 2.04 2.043 2.142 2.31 2.26 2.315 2.355 2.398 2.408 2.453 2.562 2.632 2.753 2.94 3.068 3.188 3.33 3.453 3.475 3.5 3.497 3.45 3.42 3.392 3.388 3.392 3.327 3.21 3.355 3.36 3.355 3.345 3.325 3.315 3.347 3.347 3.32 3.257 3.235 3.24 3.27 3.327 3.393 3.355 3.352 3.382 3.398 3.375 3.38 3.355 3.375 3.347 3.337 3.315 3.388 3.39 3.243 3.307 3.325 3.31 3.327 3.338 3.35 3.375 3.395 3.393 3.383 3.372 3.332 3.35 3.37 3.327 3.305 3.362 3.39 3.4 3.375 3.312 3.31 3.332 3.355 3.347 3.312 3.297 3.317 3.332 3.317 3.28 3.312 3.31 3.245 3.253 3.3 3.303 3.293 3.287 3.26 3.223 3.28 3.317 3.28 3.28 3.297 3.283 3.31 3.352 3.362 3.35 3.367 3.388 3.367 3.337 3.347 3.347 3.36 3.383 3.428 3.483 3.487 3.41 3.395 4.015 4.557 3.42 3.46 3.425 3.423 3.39 3.267 3.195 3.112 3.06 2.967 2.858 2.595 2.325 2.122 2.087 2.145 2.303 2.097 2.16 2.135 2.22 2.543 3.033 3.34 3.545 3.58 3.68 3.807 3.94 4.01 4.057 4.12 4.318 4.657 5.06 5.323 5.422 5.33 5.057 4.78 4.51 4.255 4.037 3.84 3.618 3.432 3.303 3.2 3.2 3.26 3.275 3.263 3.2 3.165 3.18 3.15 3.14 3.247 3.645 3.905 3.933 3.673 3.547 2.995 2.605 2.527 2.963 2.778 2.483 2.322 1.985 1.842 1.815 1.805 1.81 1.812 1.798 1.815 1.822 1.805 1.807 1.82 1.817 1.822 1.83 1.825 1.815 1.82 1.822 1.825 1.812 1.812 1.815 1.83 1.83 1.83 1.822 1.815 1.82 1.817 1.82 1.822 1.83 1.832 1.817 1.825 1.825 1.828 1.825 1.822 1.817 1.815 1.832 1.822 1.82 1.83 1.822 1.822 1.815 1.812 1.808 1.815 1.828 1.82 1.825 1.817 1.822 1.835 1.83 1.83 1.84 1.83 1.817 1.808 1.825 1.83 1.822 1.83 1.815 1.848 1.832 1.812 1.825 1.832 1.805 1.85 1.805 1.796 1.802 1.842 1.817 1.867 1.925 1.961 1.969 2.006 2.086 2.114 2.135 2.222 2.275 2.366 2.437 2.495 2.562 2.605 2.631 2.68 2.726 2.79 2.808 2.818 2.817 2.725 2.743 2.763 2.827 2.908 3.007 3.132 4.117 4.175 3.367 3.89 4.295 3.39 3.217 3.267 3.217 3.227 3.247 3.263 3.275 3.332 3.395 3.4 3.345
