ncols 500
nrows 31
xllcorner    247000
yllcorner    135898
cellsize     2
NODATA_value -9999
5.838 5.833 5.807 5.784 5.799 5.781 5.806 5.761 5.769 5.759 5.761 5.774 5.786 5.766 5.719 6.146 6.861 5.786 5.759 5.756 5.736 5.746 5.746 5.744 5.831 5.414 6.906 8.131 6.146 5.799 5.829 5.784 5.806 5.821 5.801 5.816 5.796 5.784 5.776 5.789 5.809 5.791 5.791 5.781 5.784 5.779 5.789 5.829 5.814 5.796 5.799 5.796 5.844 6.451 5.069 5.774 5.809 5.769 5.751 5.804 5.711 5.806 5.784 5.721 5.806 5.861 5.781 5.831 5.799 5.739 5.811 5.781 5.784 5.771 5.714 5.701 5.771 5.681 4.551 4.481 5.244 5.364 5.407 5.417 5.443 5.484 5.43 5.395 5.412 5.396 5.431 5.414 5.432 5.466 5.48 5.504 5.519 5.541 5.536 5.584 5.589 5.616 5.619 5.626 5.664 5.664 5.668 5.684 5.686 5.711 5.699 5.704 5.726 5.716 5.731 5.741 5.784 5.779 5.761 5.791 5.793 5.771 5.779 5.786 5.809 5.796 5.814 5.806 5.839 5.844 5.846 5.816 5.781 5.799 5.784 5.799 5.774 5.791 5.794 5.829 5.804 5.789 5.804 5.804 5.809 5.839 5.889 5.871 5.871 5.864 5.916 6.031 6.063 6.093 6.101 6.088 6.081 6.061 6.073 6.046 6.058 6.053 6.046 6.051 6.068 6.071 6.068 6.088 6.076 6.101 6.118 6.136 6.163 6.163 6.176 6.176 6.156 6.153 6.158 6.133 6.146 6.138 6.173 6.151 6.183 6.218 6.236 6.253 6.271 6.286 6.303 6.313 6.338 6.368 6.396 6.396 6.426 6.446 6.491 6.491 6.536 6.593 6.628 6.671 6.668 6.748 6.768 6.773 6.831 6.823 6.893 6.911 6.933 6.981 7.011 7.038 7.081 7.096 7.103 7.122 7.168 7.169 7.212 7.248 7.263 7.292 7.309 7.324 7.354 7.387 7.391 7.41 7.426 7.456 7.476 7.496 7.516 7.523 7.571 7.611 7.611 7.643 7.646 7.641 7.676 7.713 7.741 7.748 7.803 7.838 7.848 7.851 7.878 7.896 7.913 7.931 7.956 7.973 7.986 8.008 8.038 8.088 8.083 8.091 8.123 8.148 8.138 8.188 8.168 8.188 8.196 8.206 8.213 8.218 8.223 8.221 8.228 8.248 8.261 8.283 8.283 8.301 8.301 8.271 8.263 8.266 8.296 8.298 8.303 8.338 8.336 8.343 8.333 8.346 8.386 8.393 8.411 8.443 8.481 8.516 8.583 8.621 8.636 8.688 8.736 8.823 8.853 8.913 8.753 8.721 8.713 8.698 8.676 8.721 8.736 8.723 8.723 8.726 8.711 8.723 8.738 8.766 8.783 8.808 8.793 8.801 8.831 8.876 8.926 8.993 9.048 9.111 9.146 9.191 9.208 9.186 9.213 9.336 9.481 9.496 9.376 9.263 9.263 9.266 9.271 9.256 9.198 9.163 9.116 9.053 9.086 9.081 9.108 9.108 9.096 9.088 9.158 9.146 9.148 9.153 9.166 9.163 9.168 9.166 9.178 9.173 9.173 9.191 9.203 9.183 9.203 9.221 9.231 9.238 9.236 9.251 9.238 9.228 9.243 9.236 9.221 9.256 9.246 9.238 9.228 9.216 9.193 9.203 9.228 9.238 9.286 9.238 9.211 9.248 9.233 9.221 9.203 9.218 9.211 9.226 9.211 9.201 9.198 9.218 9.301 9.226 9.246 9.248 9.236 9.243 9.213 9.371 9.358 9.248 9.253 9.241 9.251 9.268 9.273 9.301 9.301 9.313 9.323 9.368 9.371 9.378 9.401 9.423 9.438 9.431 9.461 9.468 9.501 9.501 9.546 9.558 9.576 9.586 9.603 9.628 9.648 9.673 9.698 9.713 9.733 9.751 9.768 9.783 9.861 9.933 9.933 9.948 10.033 10.076 10.098 10.108 10.133 10.178 10.236 10.288 10.311 10.373 10.338 10.313 10.361 10.408 10.418 10.491 10.561 10.688 10.721 10.758 10.843 10.891 11.001 11.023 10.901 10.941 10.996 11.258 11.328 11.233 11.238 11.186 11.126 11.003 10.951 10.951 11.083 11.038 11.041 11.046 11.008 11.003 11.041 11.071 11.073 11.091 11.108 11.136
5.872 5.837 5.795 5.771 5.754 5.754 5.746 5.764 5.739 5.729 5.761 5.741 5.756 5.739 5.646 6.521 6.369 5.729 5.726 5.719 5.736 5.739 5.716 5.734 5.796 5.376 8.751 8.021 5.934 5.781 5.804 5.799 5.776 5.774 5.776 5.769 5.779 5.771 5.799 5.761 5.781 5.764 5.789 5.791 5.786 5.761 5.781 5.796 5.806 5.779 5.761 5.776 6.174 5.876 5.259 5.761 5.824 5.816 5.801 5.799 5.746 5.836 5.759 5.731 5.844 5.804 5.791 5.831 5.761 5.809 5.754 5.746 5.831 5.681 5.719 5.684 5.781 5.206 4.661 4.939 5.316 5.395 5.404 5.392 5.426 5.453 5.393 5.35 5.35 5.384 5.402 5.404 5.395 5.448 5.478 5.474 5.489 5.511 5.541 5.566 5.574 5.614 5.634 5.619 5.616 5.628 5.639 5.679 5.684 5.709 5.739 5.721 5.736 5.744 5.741 5.759 5.774 5.779 5.789 5.796 5.791 5.791 5.781 5.756 5.801 5.804 5.801 5.784 5.791 5.784 5.774 5.779 5.806 5.781 5.804 5.799 5.799 5.766 5.796 5.809 5.816 5.816 5.781 5.799 5.821 5.901 5.869 5.861 5.874 5.874 5.963 6.038 6.061 6.083 6.056 6.031 6.011 6.041 6.021 6.031 6.041 6.046 6.033 6.031 6.036 6.033 6.068 6.073 6.098 6.123 6.143 6.116 6.158 6.146 6.158 6.151 6.173 6.158 6.146 6.163 6.173 6.183 6.196 6.163 6.176 6.188 6.236 6.241 6.243 6.246 6.278 6.308 6.353 6.408 6.441 6.458 6.486 6.498 6.493 6.546 6.536 6.558 6.603 6.628 6.703 6.733 6.776 6.813 6.843 6.876 6.911 6.923 6.948 6.998 7.031 7.073 7.086 7.093 7.121 7.145 7.174 7.198 7.215 7.247 7.253 7.298 7.32 7.34 7.364 7.393 7.415 7.428 7.445 7.463 7.476 7.478 7.523 7.528 7.561 7.591 7.608 7.638 7.653 7.676 7.696 7.721 7.731 7.766 7.778 7.803 7.833 7.856 7.851 7.891 7.918 7.936 7.966 7.966 7.971 8.008 8.018 8.018 8.078 8.081 8.121 8.113 8.138 8.161 8.176 8.171 8.181 8.203 8.226 8.236 8.253 8.238 8.243 8.263 8.251 8.258 8.263 8.291 8.288 8.286 8.273 8.316 8.286 8.293 8.301 8.318 8.316 8.348 8.341 8.358 8.378 8.401 8.391 8.448 8.491 8.558 8.591 8.676 8.683 8.733 8.808 8.881 8.908 8.751 8.733 8.691 8.698 8.686 8.703 8.713 8.713 8.681 8.706 8.686 8.716 8.711 8.726 8.746 8.763 8.768 8.791 8.771 8.796 8.853 8.881 8.953 9.016 9.106 9.138 9.158 9.216 9.203 9.226 9.216 9.276 9.511 9.538 9.336 9.246 9.263 9.271 9.268 9.226 9.183 9.138 9.106 9.058 9.076 9.088 9.093 9.093 9.126 9.138 9.158 9.123 9.156 9.166 9.138 9.151 9.141 9.158 9.166 9.171 9.176 9.171 9.186 9.191 9.193 9.218 9.213 9.218 9.238 9.221 9.238 9.238 9.198 9.213 9.216 9.213 9.201 9.206 9.211 9.223 9.218 9.241 9.268 9.171 9.203 9.201 9.203 9.201 9.183 9.201 9.186 9.206 9.198 9.216 9.186 9.203 9.293 9.236 9.223 9.223 9.223 9.221 9.178 9.303 9.293 9.238 9.246 9.228 9.241 9.263 9.256 9.283 9.291 9.273 9.293 9.343 9.361 9.326 9.388 9.398 9.416 9.433 9.411 9.431 9.468 9.471 9.518 9.543 9.536 9.538 9.578 9.606 9.608 9.648 9.668 9.688 9.691 9.713 9.728 9.753 9.821 9.881 9.913 9.941 9.996 10.048 10.056 10.076 10.131 10.146 10.171 10.236 10.273 10.301 10.268 10.303 10.356 10.451 10.383 10.401 10.413 10.483 10.611 10.683 10.748 10.793 10.853 10.938 11.046 11.046 10.938 11.021 11.073 11.341 11.291 11.268 11.141 11.076 10.926 11.023 11.046 11.016 11.043 10.983 10.981 10.998 11.018 11.046 11.056 11.046 11.081 11.098 11.106
5.907 5.861 5.77 5.769 5.749 5.714 5.719 5.731 5.721 5.724 5.731 5.724 5.789 5.721 5.811 6.864 6.131 5.721 5.711 5.696 5.711 5.706 5.691 5.731 5.624 6.066 8.326 7.274 5.771 5.761 5.761 5.779 5.764 5.764 5.769 5.771 5.736 5.756 5.761 5.764 5.746 5.764 5.756 5.774 5.754 5.766 5.761 5.761 5.754 5.774 5.749 5.779 6.396 5.086 5.651 5.774 5.861 5.776 5.791 5.789 5.751 5.831 5.751 5.726 5.841 5.774 5.744 5.806 5.686 5.766 5.741 5.706 5.759 5.694 5.669 5.704 5.694 4.631 4.706 5.306 5.361 5.401 5.392 5.411 5.451 5.419 5.375 5.362 5.359 5.362 5.374 5.386 5.45 5.452 5.486 5.481 5.501 5.509 5.526 5.544 5.561 5.554 5.559 5.591 5.621 5.606 5.639 5.666 5.671 5.711 5.716 5.714 5.719 5.729 5.751 5.749 5.781 5.766 5.784 5.756 5.774 5.771 5.761 5.784 5.784 5.774 5.784 5.781 5.771 5.753 5.789 5.779 5.786 5.789 5.806 5.793 5.801 5.806 5.809 5.834 5.809 5.824 5.814 5.806 5.829 5.859 5.819 5.841 5.849 5.859 5.978 6.023 6.076 6.076 6.046 6.013 6.003 6.026 6.006 6.023 5.988 6.011 6.018 5.993 6.056 6.028 6.056 6.071 6.068 6.081 6.101 6.116 6.153 6.143 6.186 6.186 6.188 6.151 6.148 6.166 6.161 6.148 6.161 6.178 6.193 6.211 6.243 6.278 6.268 6.266 6.313 6.338 6.398 6.413 6.443 6.466 6.516 6.533 6.538 6.588 6.608 6.623 6.668 6.698 6.718 6.728 6.761 6.783 6.798 6.853 6.893 6.928 6.953 7.011 7.048 7.086 7.103 7.116 7.161 7.166 7.184 7.222 7.227 7.248 7.258 7.306 7.317 7.332 7.363 7.38 7.394 7.407 7.436 7.458 7.478 7.511 7.506 7.541 7.563 7.583 7.613 7.643 7.633 7.663 7.703 7.711 7.743 7.761 7.783 7.803 7.808 7.856 7.868 7.896 7.908 7.926 7.956 7.971 7.976 7.996 8.026 8.043 8.031 8.053 8.061 8.091 8.118 8.148 8.168 8.168 8.178 8.191 8.183 8.203 8.216 8.233 8.256 8.253 8.288 8.271 8.296 8.283 8.278 8.288 8.316 8.303 8.316 8.338 8.333 8.333 8.351 8.358 8.358 8.376 8.401 8.396 8.408 8.466 8.526 8.601 8.621 8.686 8.721 8.816 8.803 8.861 8.798 8.711 8.686 8.678 8.658 8.681 8.681 8.698 8.653 8.673 8.673 8.658 8.673 8.678 8.708 8.716 8.753 8.761 8.798 8.828 8.806 8.838 8.863 8.931 8.961 9.016 9.111 9.123 9.146 9.193 9.203 9.231 9.213 9.318 9.476 9.488 9.368 9.276 9.278 9.271 9.253 9.226 9.168 9.123 9.108 9.106 9.078 9.053 9.143 9.123 9.128 9.133 9.158 9.138 9.116 9.138 9.131 9.141 9.133 9.151 9.171 9.168 9.173 9.178 9.178 9.206 9.201 9.216 9.223 9.201 9.208 9.206 9.191 9.208 9.206 9.208 9.183 9.208 9.188 9.178 9.213 9.206 9.233 9.173 9.191 9.173 9.178 9.196 9.176 9.198 9.191 9.201 9.188 9.186 9.161 9.191 9.293 9.181 9.206 9.231 9.213 9.191 9.176 9.148 9.296 9.203 9.241 9.221 9.223 9.246 9.246 9.273 9.273 9.268 9.293 9.308 9.336 9.318 9.348 9.363 9.386 9.388 9.398 9.411 9.446 9.466 9.481 9.501 9.503 9.516 9.558 9.568 9.593 9.613 9.668 9.641 9.658 9.686 9.691 9.723 9.806 9.828 9.841 9.921 9.983 9.973 10.021 10.043 10.066 10.093 10.103 10.186 10.216 10.233 10.228 10.263 10.366 10.438 10.366 10.346 10.396 10.381 10.461 10.571 10.631 10.698 10.773 10.846 10.903 10.996 11.136 11.026 10.993 11.038 11.208 11.246 11.301 11.151 10.981 11.058 11.053 11.026 11.003 10.978 10.981 10.996 11.028 11.016 11.028 11.031 11.051 11.076 11.081 11.063
5.861 5.827 5.788 5.764 5.719 5.721 5.704 5.696 5.719 5.709 5.736 5.721 5.714 5.659 6.066 6.889 5.674 5.719 5.701 5.684 5.679 5.681 5.679 5.764 5.316 7.179 8.399 6.254 5.764 5.761 5.771 5.739 5.746 5.736 5.739 5.739 5.721 5.739 5.749 5.721 5.731 5.756 5.741 5.756 5.769 5.741 5.759 5.769 5.731 5.754 5.719 6.001 6.189 5.131 5.876 5.786 5.811 5.789 5.776 5.731 5.759 5.761 5.749 5.719 5.826 5.746 5.736 5.761 5.694 5.779 5.684 5.716 5.754 5.629 5.631 5.779 5.289 4.426 4.889 5.431 5.379 5.411 5.42 5.472 5.397 5.369 5.355 5.369 5.376 5.377 5.383 5.378 5.411 5.436 5.471 5.461 5.471 5.469 5.481 5.524 5.551 5.564 5.586 5.604 5.584 5.628 5.649 5.666 5.641 5.686 5.684 5.711 5.726 5.719 5.744 5.724 5.739 5.746 5.771 5.766 5.751 5.748 5.776 5.784 5.781 5.794 5.801 5.804 5.804 5.766 5.814 5.796 5.771 5.786 5.804 5.784 5.786 5.819 5.824 5.801 5.811 5.839 5.841 5.789 5.851 5.819 5.831 5.829 5.841 5.916 6.006 6.046 6.086 6.038 5.976 5.973 6.008 6.006 6.016 6.023 6.013 6.001 6.036 5.981 6.028 5.981 6.001 6.053 6.088 6.103 6.121 6.108 6.136 6.121 6.126 6.133 6.148 6.136 6.138 6.128 6.131 6.146 6.193 6.213 6.228 6.248 6.296 6.291 6.308 6.343 6.366 6.368 6.406 6.441 6.443 6.471 6.498 6.526 6.561 6.573 6.591 6.613 6.643 6.706 6.718 6.746 6.786 6.823 6.841 6.871 6.918 6.931 6.973 7.008 7.031 7.056 7.071 7.116 7.131 7.178 7.181 7.215 7.236 7.266 7.277 7.286 7.314 7.317 7.332 7.366 7.395 7.385 7.423 7.474 7.498 7.498 7.496 7.531 7.578 7.598 7.613 7.631 7.656 7.696 7.698 7.726 7.736 7.751 7.778 7.808 7.841 7.856 7.868 7.903 7.901 7.941 7.943 7.996 7.966 8.016 8.008 8.013 8.048 8.031 8.036 8.076 8.108 8.131 8.128 8.138 8.178 8.201 8.203 8.218 8.226 8.238 8.253 8.251 8.268 8.258 8.271 8.281 8.311 8.301 8.326 8.331 8.323 8.311 8.346 8.341 8.366 8.366 8.388 8.398 8.428 8.416 8.456 8.521 8.551 8.601 8.686 8.726 8.798 8.846 8.871 8.773 8.731 8.688 8.668 8.641 8.653 8.688 8.668 8.666 8.636 8.651 8.638 8.693 8.681 8.688 8.708 8.718 8.716 8.743 8.763 8.828 8.803 8.813 8.868 8.898 8.931 8.946 9.013 9.098 9.116 9.113 9.198 9.246 9.248 9.246 9.321 9.436 9.463 9.393 9.286 9.281 9.261 9.261 9.223 9.158 9.178 9.173 9.133 9.111 9.143 9.126 9.138 9.138 9.116 9.123 9.118 9.106 9.128 9.126 9.151 9.146 9.163 9.153 9.156 9.178 9.166 9.173 9.193 9.203 9.176 9.221 9.186 9.168 9.168 9.166 9.198 9.171 9.173 9.168 9.186 9.188 9.166 9.258 9.193 9.173 9.158 9.166 9.183 9.171 9.168 9.196 9.176 9.163 9.153 9.148 9.186 9.198 9.181 9.183 9.203 9.193 9.193 9.141 9.228 9.258 9.201 9.201 9.193 9.206 9.211 9.221 9.238 9.261 9.258 9.263 9.273 9.306 9.296 9.313 9.338 9.366 9.368 9.371 9.398 9.413 9.428 9.456 9.463 9.476 9.486 9.508 9.536 9.573 9.603 9.603 9.616 9.611 9.676 9.666 9.683 9.731 9.833 9.798 9.911 9.931 9.923 9.971 10.001 10.038 10.043 10.071 10.123 10.161 10.148 10.171 10.206 10.293 10.346 10.283 10.323 10.366 10.363 10.386 10.436 10.521 10.563 10.621 10.721 10.791 10.898 10.928 11.063 11.186 11.038 11.056 11.078 11.186 11.116 11.031 11.078 11.061 11.021 10.998 10.993 10.951 10.966 11.013 10.981 11.001 11.006 10.993 11.036 11.033 11.031 11.073
5.872 5.856 5.834 5.806 5.741 5.736 5.701 5.691 5.711 5.699 5.706 5.731 5.671 5.636 6.551 6.586 5.669 5.694 5.656 5.674 5.671 5.664 5.691 5.711 5.371 7.816 7.424 5.741 5.739 5.746 5.754 5.721 5.731 5.736 5.731 5.729 5.741 5.746 5.731 5.726 5.744 5.781 5.746 5.751 5.749 5.761 5.766 5.799 5.781 5.736 5.739 6.336 5.549 5.616 5.854 5.761 5.816 5.751 5.789 5.751 5.719 5.776 5.796 5.709 5.796 5.754 5.691 5.796 5.679 5.754 5.711 5.669 5.769 5.624 5.604 5.736 4.689 4.489 5.251 5.331 5.391 5.393 5.372 5.416 5.376 5.366 5.355 5.365 5.365 5.368 5.37 5.365 5.362 5.422 5.436 5.449 5.491 5.494 5.511 5.541 5.539 5.544 5.571 5.581 5.614 5.639 5.624 5.634 5.631 5.649 5.664 5.696 5.731 5.711 5.706 5.706 5.741 5.739 5.786 5.789 5.779 5.801 5.789 5.809 5.781 5.776 5.769 5.784 5.771 5.804 5.806 5.814 5.799 5.811 5.804 5.799 5.784 5.789 5.784 5.804 5.774 5.829 5.831 5.824 5.869 5.821 5.836 5.839 5.871 5.981 6.028 6.048 6.056 6.011 5.976 5.966 5.988 5.981 6.011 6.013 6.001 5.998 6.031 5.998 6.043 6.031 6.041 6.033 6.038 6.036 6.078 6.051 6.098 6.088 6.123 6.123 6.133 6.133 6.153 6.161 6.171 6.201 6.216 6.206 6.233 6.256 6.293 6.311 6.331 6.373 6.411 6.431 6.451 6.463 6.466 6.496 6.538 6.536 6.543 6.558 6.596 6.621 6.656 6.683 6.728 6.766 6.803 6.826 6.868 6.908 6.931 6.988 6.996 7.023 7.058 7.093 7.098 7.146 7.166 7.188 7.182 7.191 7.236 7.243 7.256 7.264 7.299 7.324 7.366 7.382 7.406 7.412 7.434 7.463 7.469 7.508 7.533 7.553 7.561 7.596 7.621 7.646 7.658 7.701 7.703 7.723 7.766 7.778 7.796 7.816 7.843 7.871 7.871 7.871 7.898 7.948 7.948 7.958 7.983 8.003 8.008 8.021 8.061 8.041 8.066 8.073 8.071 8.078 8.091 8.131 8.133 8.158 8.188 8.208 8.211 8.238 8.263 8.283 8.276 8.296 8.268 8.306 8.313 8.316 8.328 8.338 8.331 8.348 8.373 8.383 8.373 8.386 8.383 8.388 8.416 8.466 8.511 8.553 8.618 8.668 8.718 8.783 8.886 8.863 8.841 8.698 8.701 8.653 8.631 8.613 8.648 8.681 8.658 8.663 8.618 8.608 8.626 8.651 8.673 8.661 8.688 8.696 8.751 8.756 8.766 8.793 8.816 8.816 8.843 8.833 8.853 8.898 8.951 8.981 9.043 9.103 9.153 9.191 9.201 9.236 9.246 9.298 9.431 9.496 9.408 9.286 9.276 9.293 9.278 9.238 9.206 9.206 9.206 9.166 9.106 9.111 9.146 9.151 9.123 9.113 9.111 9.086 9.098 9.111 9.141 9.123 9.148 9.158 9.161 9.146 9.156 9.168 9.183 9.181 9.193 9.196 9.153 9.153 9.171 9.173 9.171 9.176 9.171 9.138 9.178 9.173 9.218 9.163 9.156 9.163 9.141 9.156 9.146 9.168 9.176 9.206 9.146 9.153 9.138 9.143 9.226 9.173 9.181 9.178 9.173 9.156 9.121 9.226 9.221 9.181 9.208 9.196 9.191 9.198 9.188 9.236 9.206 9.221 9.231 9.261 9.288 9.291 9.296 9.338 9.333 9.346 9.358 9.361 9.388 9.403 9.431 9.413 9.431 9.478 9.486 9.513 9.553 9.563 9.563 9.596 9.591 9.623 9.636 9.696 9.713 9.758 9.743 9.856 9.896 9.913 9.931 9.986 9.998 10.011 10.041 10.071 10.096 10.098 10.111 10.168 10.251 10.253 10.221 10.276 10.316 10.358 10.366 10.391 10.408 10.486 10.511 10.591 10.663 10.753 10.816 10.906 10.961 11.126 11.176 11.101 11.178 11.161 11.111 11.153 11.108 11.051 11.021 10.953 10.938 10.961 10.961 10.968 10.953 10.963 11.006 11.026 11.003 11.016 11.041 11.043
5.818 5.855 5.841 5.826 5.816 5.764 5.744 5.724 5.721 5.726 5.706 5.706 5.631 5.814 6.784 5.994 5.711 5.686 5.649 5.659 5.634 5.646 5.704 5.536 6.146 8.224 6.979 5.696 5.719 5.771 5.704 5.701 5.704 5.731 5.716 5.706 5.719 5.711 5.699 5.691 5.734 5.731 5.716 5.721 5.739 5.736 5.756 5.744 5.739 5.746 5.831 6.344 5.104 5.864 5.869 5.774 5.844 5.746 5.744 5.786 5.711 5.784 5.809 5.709 5.774 5.791 5.706 5.784 5.671 5.714 5.714 5.639 5.751 5.601 5.594 5.486 4.491 4.764 5.421 5.329 5.381 5.361 5.392 5.388 5.348 5.357 5.37 5.359 5.359 5.366 5.369 5.381 5.39 5.395 5.41 5.441 5.456 5.464 5.516 5.506 5.541 5.536 5.561 5.574 5.586 5.596 5.599 5.616 5.616 5.649 5.659 5.681 5.711 5.694 5.701 5.726 5.748 5.751 5.739 5.786 5.786 5.789 5.794 5.789 5.814 5.804 5.764 5.761 5.774 5.786 5.774 5.789 5.799 5.786 5.789 5.769 5.829 5.776 5.814 5.841 5.833 5.799 5.824 5.811 5.844 5.814 5.844 5.841 5.929 5.998 6.018 6.061 6.046 5.986 5.956 5.986 5.996 5.976 5.976 5.986 5.996 5.951 5.971 5.991 5.991 5.991 6.021 6.041 6.058 6.046 6.086 6.053 6.081 6.103 6.106 6.091 6.108 6.123 6.121 6.156 6.176 6.153 6.208 6.236 6.263 6.281 6.291 6.333 6.326 6.356 6.386 6.398 6.398 6.441 6.458 6.481 6.546 6.551 6.591 6.616 6.638 6.671 6.731 6.711 6.743 6.776 6.813 6.843 6.881 6.941 6.943 6.996 7.031 7.056 7.066 7.111 7.116 7.113 7.156 7.153 7.182 7.204 7.228 7.247 7.256 7.298 7.313 7.323 7.339 7.347 7.384 7.404 7.437 7.46 7.492 7.521 7.531 7.573 7.586 7.608 7.631 7.651 7.668 7.686 7.701 7.738 7.756 7.783 7.786 7.813 7.828 7.851 7.873 7.888 7.891 7.926 7.966 7.966 7.986 7.981 8.008 8.018 8.003 8.048 8.068 8.068 8.073 8.083 8.116 8.106 8.143 8.141 8.136 8.153 8.181 8.191 8.218 8.233 8.263 8.276 8.271 8.271 8.283 8.311 8.316 8.333 8.328 8.343 8.366 8.378 8.381 8.386 8.378 8.416 8.421 8.498 8.551 8.601 8.643 8.711 8.731 8.861 8.858 8.906 8.696 8.676 8.661 8.673 8.651 8.653 8.643 8.671 8.651 8.588 8.603 8.613 8.623 8.631 8.633 8.671 8.668 8.713 8.728 8.741 8.776 8.793 8.811 8.806 8.821 8.831 8.853 8.851 8.871 8.921 8.948 9.063 9.096 9.101 9.151 9.198 9.243 9.243 9.316 9.461 9.551 9.428 9.316 9.291 9.273 9.266 9.246 9.216 9.241 9.228 9.148 9.126 9.156 9.118 9.101 9.091 9.091 9.093 9.108 9.123 9.141 9.098 9.146 9.156 9.156 9.143 9.151 9.171 9.166 9.166 9.176 9.111 9.121 9.143 9.171 9.151 9.161 9.123 9.123 9.141 9.126 9.211 9.181 9.121 9.123 9.116 9.153 9.138 9.128 9.143 9.186 9.153 9.143 9.126 9.133 9.236 9.151 9.153 9.146 9.158 9.136 9.096 9.148 9.253 9.138 9.168 9.178 9.171 9.161 9.198 9.198 9.228 9.193 9.226 9.243 9.263 9.291 9.256 9.311 9.316 9.318 9.328 9.351 9.346 9.363 9.388 9.411 9.413 9.443 9.453 9.488 9.513 9.521 9.526 9.538 9.576 9.573 9.611 9.658 9.728 9.731 9.743 9.826 9.848 9.891 9.901 9.946 9.953 9.976 10.013 10.058 10.051 10.038 10.063 10.126 10.213 10.153 10.171 10.246 10.261 10.298 10.351 10.381 10.398 10.421 10.411 10.433 10.521 10.598 10.711 10.763 10.868 10.948 10.986 11.183 11.221 11.223 11.228 11.201 11.196 11.108 11.101 11.056 11.003 10.966 10.966 10.931 10.958 10.971 11.006 11.013 10.966 10.996 10.998 11.033 11.043
5.761 5.813 5.819 5.831 5.789 5.806 5.826 5.771 5.769 5.731 5.754 5.719 5.626 6.066 6.784 5.646 5.646 5.666 5.626 5.671 5.624 5.616 5.751 5.254 6.904 8.521 6.389 5.706 5.721 5.711 5.716 5.731 5.701 5.669 5.704 5.721 5.694 5.699 5.671 5.709 5.729 5.706 5.686 5.681 5.709 5.739 5.716 5.724 5.734 5.719 6.136 5.776 5.299 5.849 5.819 5.751 5.811 5.729 5.749 5.749 5.709 5.761 5.806 5.696 5.771 5.764 5.699 5.771 5.659 5.699 5.749 5.594 5.664 5.586 5.659 5.114 4.519 5.141 5.314 5.369 5.379 5.372 5.394 5.381 5.342 5.353 5.345 5.359 5.375 5.384 5.384 5.393 5.405 5.406 5.414 5.444 5.471 5.476 5.489 5.476 5.539 5.521 5.546 5.536 5.589 5.579 5.576 5.596 5.606 5.609 5.639 5.661 5.671 5.696 5.724 5.676 5.729 5.734 5.736 5.759 5.746 5.769 5.779 5.756 5.764 5.769 5.766 5.799 5.789 5.761 5.761 5.789 5.791 5.791 5.804 5.779 5.801 5.781 5.784 5.826 5.819 5.826 5.809 5.856 5.841 5.851 5.859 5.844 5.949 5.991 6.028 6.041 5.978 5.941 5.936 5.941 5.966 5.966 5.973 5.988 5.978 5.978 6.001 6.001 5.978 5.998 6.016 6.021 6.073 6.041 6.068 6.098 6.101 6.108 6.101 6.088 6.098 6.101 6.116 6.133 6.166 6.161 6.221 6.218 6.263 6.271 6.251 6.308 6.343 6.346 6.358 6.436 6.436 6.473 6.496 6.503 6.528 6.556 6.593 6.626 6.633 6.661 6.706 6.778 6.796 6.836 6.856 6.926 6.931 6.948 6.956 6.983 7.013 7.013 7.048 7.071 7.108 7.128 7.141 7.161 7.188 7.185 7.227 7.249 7.264 7.291 7.308 7.308 7.34 7.374 7.388 7.416 7.435 7.458 7.474 7.521 7.508 7.536 7.571 7.571 7.603 7.641 7.668 7.693 7.703 7.738 7.756 7.793 7.806 7.836 7.851 7.843 7.856 7.891 7.921 7.928 7.946 7.976 7.981 7.986 7.996 8.023 8.028 8.053 8.046 8.068 8.081 8.086 8.093 8.103 8.111 8.138 8.166 8.166 8.183 8.186 8.186 8.188 8.228 8.221 8.266 8.286 8.288 8.323 8.338 8.316 8.343 8.331 8.356 8.368 8.396 8.378 8.371 8.391 8.446 8.526 8.576 8.648 8.686 8.731 8.821 8.921 8.873 8.748 8.688 8.646 8.631 8.636 8.623 8.636 8.663 8.648 8.593 8.576 8.588 8.618 8.628 8.623 8.623 8.666 8.686 8.703 8.713 8.713 8.751 8.771 8.773 8.791 8.776 8.816 8.798 8.818 8.866 8.891 8.906 8.983 9.001 9.026 9.063 9.108 9.196 9.236 9.246 9.341 9.486 9.541 9.421 9.316 9.273 9.311 9.276 9.256 9.273 9.253 9.216 9.193 9.146 9.106 9.081 9.076 9.076 9.091 9.113 9.113 9.116 9.111 9.146 9.133 9.136 9.121 9.161 9.156 9.143 9.156 9.103 9.106 9.148 9.123 9.136 9.146 9.126 9.111 9.121 9.101 9.146 9.093 9.123 9.146 9.128 9.113 9.123 9.146 9.153 9.168 9.113 9.111 9.111 9.116 9.173 9.146 9.141 9.138 9.133 9.141 9.093 9.141 9.126 9.133 9.166 9.161 9.146 9.161 9.158 9.178 9.196 9.216 9.201 9.213 9.221 9.246 9.251 9.271 9.281 9.278 9.291 9.316 9.338 9.346 9.373 9.383 9.398 9.401 9.441 9.471 9.488 9.503 9.491 9.528 9.531 9.543 9.566 9.621 9.661 9.701 9.703 9.786 9.801 9.851 9.868 9.903 9.918 9.918 10.001 10.011 10.013 10.008 10.008 10.081 10.171 10.116 10.136 10.183 10.213 10.276 10.303 10.333 10.366 10.403 10.391 10.396 10.371 10.453 10.526 10.633 10.711 10.816 10.903 10.958 11.053 11.288 11.296 11.236 11.178 11.121 11.106 11.101 11.081 11.073 10.986 10.983 10.973 10.938 10.968 10.976 10.961 10.973 10.996 10.998 11.013 11.023
5.746 5.752 5.764 5.756 5.761 5.761 5.781 5.764 5.751 5.761 5.769 5.731 5.661 6.416 6.506 5.601 5.636 5.609 5.619 5.621 5.621 5.621 5.726 5.241 7.764 7.791 5.744 5.689 5.714 5.694 5.684 5.699 5.694 5.674 5.674 5.684 5.706 5.699 5.644 5.679 5.696 5.704 5.699 5.684 5.669 5.721 5.716 5.719 5.739 5.681 6.334 5.124 5.656 5.811 5.789 5.769 5.831 5.756 5.736 5.781 5.691 5.739 5.796 5.694 5.749 5.771 5.669 5.776 5.674 5.724 5.689 5.586 5.641 5.584 5.629 4.546 4.594 5.314 5.309 5.369 5.394 5.401 5.446 5.379 5.353 5.358 5.364 5.343 5.333 5.368 5.379 5.405 5.417 5.413 5.435 5.454 5.466 5.464 5.476 5.464 5.464 5.491 5.519 5.536 5.549 5.579 5.601 5.621 5.614 5.641 5.634 5.664 5.661 5.674 5.701 5.701 5.704 5.701 5.741 5.704 5.726 5.736 5.748 5.751 5.756 5.774 5.746 5.759 5.779 5.784 5.791 5.769 5.794 5.796 5.819 5.796 5.796 5.799 5.804 5.809 5.829 5.824 5.791 5.901 5.866 5.874 5.841 5.851 5.946 5.989 5.988 5.993 5.926 5.926 5.973 5.931 5.948 5.951 5.933 5.946 5.966 5.961 5.983 5.996 5.986 6.006 6.028 6.006 6.043 6.046 6.056 6.083 6.083 6.081 6.091 6.081 6.108 6.111 6.153 6.158 6.176 6.176 6.176 6.213 6.243 6.221 6.261 6.318 6.338 6.358 6.406 6.416 6.456 6.488 6.493 6.538 6.533 6.571 6.596 6.643 6.658 6.703 6.718 6.751 6.786 6.831 6.856 6.871 6.918 6.968 6.991 7.013 7.033 7.063 7.106 7.108 7.118 7.156 7.156 7.158 7.176 7.208 7.218 7.231 7.257 7.274 7.306 7.313 7.347 7.368 7.389 7.413 7.43 7.433 7.471 7.505 7.518 7.546 7.576 7.601 7.628 7.628 7.646 7.686 7.711 7.728 7.743 7.786 7.781 7.821 7.858 7.858 7.878 7.901 7.903 7.936 7.923 7.956 7.978 7.991 8.021 8.013 8.026 8.036 8.053 8.061 8.073 8.083 8.086 8.121 8.126 8.126 8.121 8.168 8.166 8.178 8.206 8.206 8.221 8.213 8.223 8.243 8.243 8.293 8.306 8.316 8.333 8.331 8.338 8.358 8.356 8.371 8.381 8.401 8.483 8.543 8.606 8.663 8.696 8.778 8.838 8.883 8.716 8.656 8.631 8.623 8.601 8.626 8.628 8.628 8.643 8.606 8.596 8.596 8.576 8.611 8.611 8.643 8.636 8.618 8.678 8.676 8.693 8.726 8.743 8.728 8.773 8.788 8.788 8.758 8.781 8.793 8.826 8.861 8.898 8.938 8.938 8.958 8.998 9.046 9.106 9.183 9.246 9.278 9.346 9.473 9.538 9.431 9.296 9.308 9.288 9.291 9.321 9.268 9.251 9.218 9.136 9.118 9.083 9.081 9.076 9.103 9.118 9.096 9.111 9.126 9.138 9.126 9.131 9.148 9.113 9.153 9.158 9.126 9.118 9.136 9.133 9.128 9.101 9.096 9.096 9.123 9.096 9.143 9.143 9.123 9.128 9.103 9.118 9.103 9.133 9.136 9.141 9.116 9.101 9.108 9.106 9.183 9.113 9.106 9.113 9.131 9.118 9.078 9.123 9.196 9.131 9.131 9.118 9.128 9.153 9.143 9.151 9.158 9.163 9.186 9.196 9.226 9.221 9.243 9.281 9.271 9.258 9.268 9.306 9.311 9.338 9.351 9.356 9.366 9.368 9.388 9.431 9.438 9.461 9.473 9.488 9.516 9.516 9.546 9.596 9.636 9.648 9.703 9.761 9.753 9.826 9.831 9.866 9.883 9.903 9.941 9.966 9.961 9.958 9.998 10.048 10.071 10.073 10.116 10.151 10.136 10.188 10.241 10.266 10.326 10.363 10.386 10.413 10.373 10.388 10.436 10.471 10.563 10.701 10.766 10.851 10.941 11.016 11.123 11.291 11.268 11.191 11.138 11.098 11.096 11.076 11.078 11.083 11.033 10.973 10.963 10.941 10.926 10.981 10.983 10.988 10.996 10.998 11.028
5.928 5.704 5.709 5.684 5.714 5.691 5.729 5.764 5.764 5.804 5.781 5.759 5.829 6.691 6.051 5.586 5.619 5.546 5.604 5.611 5.589 5.631 5.621 5.811 7.969 6.421 5.644 5.661 5.676 5.679 5.681 5.684 5.694 5.661 5.679 5.659 5.671 5.654 5.646 5.639 5.654 5.661 5.679 5.664 5.694 5.726 5.674 5.644 5.666 5.956 5.929 5.136 5.806 5.854 5.744 5.806 5.756 5.694 5.786 5.689 5.721 5.769 5.704 5.734 5.734 5.689 5.724 5.699 5.656 5.724 5.666 5.621 5.559 5.701 5.271 4.286 4.889 5.374 5.299 5.344 5.371 5.42 5.442 5.42 5.37 5.369 5.38 5.342 5.363 5.374 5.377 5.397 5.422 5.417 5.419 5.436 5.451 5.474 5.466 5.474 5.503 5.493 5.506 5.521 5.546 5.566 5.576 5.589 5.631 5.609 5.609 5.634 5.644 5.666 5.661 5.676 5.691 5.681 5.714 5.739 5.726 5.731 5.746 5.724 5.734 5.734 5.734 5.771 5.766 5.786 5.769 5.751 5.771 5.761 5.801 5.761 5.801 5.809 5.829 5.806 5.804 5.811 5.834 5.869 5.844 5.864 5.839 5.931 5.966 6.006 5.981 5.933 5.918 5.916 5.921 5.921 5.911 5.946 5.938 5.936 5.928 5.931 5.948 5.968 5.978 6.011 6.038 6.036 6.038 6.073 6.068 6.096 6.091 6.076 6.071 6.096 6.103 6.098 6.116 6.136 6.163 6.213 6.218 6.258 6.271 6.291 6.281 6.328 6.343 6.353 6.391 6.416 6.423 6.458 6.476 6.526 6.568 6.591 6.628 6.656 6.661 6.708 6.726 6.728 6.768 6.818 6.843 6.876 6.923 6.938 6.966 7.018 7.048 7.068 7.101 7.106 7.171 7.161 7.181 7.196 7.213 7.22 7.245 7.256 7.261 7.296 7.3 7.323 7.346 7.357 7.397 7.411 7.42 7.443 7.485 7.487 7.516 7.528 7.568 7.581 7.603 7.643 7.681 7.713 7.716 7.736 7.761 7.766 7.788 7.831 7.843 7.878 7.881 7.893 7.911 7.913 7.941 7.933 7.941 7.986 7.991 8.001 8.021 8.046 8.041 8.081 8.078 8.093 8.096 8.101 8.101 8.116 8.148 8.166 8.168 8.163 8.171 8.183 8.201 8.223 8.231 8.241 8.246 8.283 8.283 8.281 8.301 8.326 8.328 8.358 8.361 8.383 8.408 8.443 8.493 8.563 8.606 8.661 8.751 8.768 8.916 8.753 8.646 8.651 8.626 8.618 8.611 8.601 8.633 8.628 8.606 8.573 8.558 8.578 8.593 8.601 8.606 8.588 8.623 8.633 8.646 8.673 8.688 8.701 8.708 8.746 8.731 8.738 8.756 8.776 8.791 8.801 8.833 8.851 8.916 8.938 8.938 8.918 8.918 8.976 9.038 9.153 9.186 9.236 9.266 9.311 9.453 9.526 9.411 9.308 9.286 9.313 9.323 9.276 9.273 9.236 9.193 9.143 9.101 9.096 9.086 9.088 9.083 9.111 9.098 9.103 9.103 9.118 9.113 9.121 9.123 9.151 9.103 9.086 9.106 9.121 9.096 9.118 9.103 9.086 9.078 9.081 9.181 9.121 9.106 9.106 9.098 9.091 9.093 9.096 9.116 9.098 9.103 9.091 9.093 9.086 9.141 9.126 9.106 9.113 9.123 9.096 9.076 9.168 9.181 9.098 9.103 9.103 9.126 9.126 9.156 9.148 9.168 9.163 9.161 9.196 9.203 9.203 9.233 9.238 9.256 9.266 9.256 9.246 9.293 9.311 9.321 9.366 9.338 9.348 9.356 9.376 9.403 9.436 9.421 9.443 9.481 9.501 9.523 9.573 9.641 9.603 9.678 9.728 9.736 9.791 9.788 9.806 9.831 9.898 9.901 9.926 9.943 9.933 9.991 10.031 10.056 10.026 10.061 10.106 10.136 10.163 10.198 10.218 10.283 10.313 10.341 10.391 10.391 10.383 10.408 10.448 10.481 10.493 10.633 10.761 10.828 10.893 10.968 11.036 11.158 11.321 11.208 11.128 11.083 11.066 11.058 11.083 11.051 11.048 10.961 10.948 10.921 10.933 10.946 10.978 10.981 10.963 10.976 10.993
6.151 6.037 5.864 5.744 5.709 5.681 5.696 5.694 5.744 5.779 5.726 5.664 6.114 6.686 5.656 5.571 5.519 5.551 5.586 5.566 5.581 5.696 5.446 6.606 8.366 6.534 5.614 5.664 5.659 5.649 5.666 5.666 5.684 5.656 5.674 5.661 5.649 5.649 5.651 5.664 5.666 5.656 5.641 5.664 5.704 5.696 5.686 5.676 5.646 6.296 5.119 5.571 5.759 5.866 5.776 5.791 5.769 5.681 5.799 5.714 5.699 5.769 5.684 5.716 5.781 5.641 5.706 5.691 5.629 5.696 5.621 5.539 5.589 5.734 4.869 4.304 5.201 5.251 5.316 5.324 5.366 5.429 5.454 5.442 5.378 5.387 5.38 5.359 5.366 5.367 5.374 5.405 5.402 5.402 5.437 5.446 5.471 5.491 5.496 5.489 5.501 5.501 5.519 5.519 5.529 5.536 5.554 5.566 5.571 5.626 5.609 5.644 5.646 5.636 5.649 5.661 5.661 5.696 5.686 5.689 5.729 5.736 5.703 5.724 5.746 5.744 5.724 5.753 5.756 5.766 5.786 5.791 5.776 5.791 5.779 5.781 5.771 5.791 5.809 5.816 5.796 5.839 5.861 5.871 5.851 5.849 5.854 5.984 5.964 5.954 5.953 5.916 5.896 5.908 5.896 5.898 5.886 5.888 5.898 5.886 5.943 5.931 5.953 5.948 5.978 5.983 6.013 6.001 6.026 6.026 6.081 6.078 6.066 6.058 6.081 6.091 6.096 6.101 6.133 6.136 6.171 6.221 6.253 6.251 6.261 6.298 6.316 6.358 6.373 6.403 6.431 6.448 6.458 6.483 6.488 6.536 6.531 6.553 6.606 6.606 6.641 6.701 6.728 6.741 6.783 6.826 6.886 6.911 6.953 6.961 6.983 7.003 7.043 7.066 7.086 7.113 7.176 7.178 7.208 7.221 7.261 7.259 7.267 7.289 7.292 7.3 7.319 7.341 7.35 7.367 7.388 7.406 7.412 7.431 7.458 7.494 7.526 7.553 7.571 7.601 7.623 7.643 7.661 7.693 7.696 7.723 7.743 7.771 7.801 7.821 7.853 7.866 7.896 7.891 7.903 7.911 7.926 7.951 7.941 7.983 7.966 7.971 8.026 8.041 8.048 8.073 8.091 8.096 8.118 8.103 8.128 8.123 8.143 8.138 8.136 8.173 8.191 8.176 8.196 8.198 8.221 8.228 8.228 8.248 8.283 8.268 8.303 8.301 8.338 8.346 8.366 8.393 8.433 8.501 8.558 8.578 8.633 8.696 8.771 8.843 8.883 8.631 8.631 8.591 8.591 8.598 8.588 8.623 8.621 8.606 8.588 8.566 8.601 8.581 8.573 8.581 8.601 8.618 8.611 8.633 8.648 8.683 8.681 8.681 8.713 8.721 8.733 8.748 8.756 8.761 8.778 8.791 8.828 8.831 8.878 8.891 8.888 8.886 8.918 8.941 8.966 9.053 9.151 9.211 9.223 9.258 9.288 9.401 9.493 9.446 9.311 9.303 9.323 9.296 9.296 9.236 9.228 9.183 9.108 9.078 9.096 9.083 9.078 9.083 9.081 9.098 9.123 9.123 9.101 9.123 9.128 9.113 9.086 9.108 9.108 9.106 9.081 9.068 9.081 9.083 9.058 9.053 9.081 9.081 9.098 9.091 9.086 9.106 9.086 9.101 9.106 9.078 9.076 9.068 9.076 9.166 9.078 9.078 9.106 9.088 9.116 9.068 9.066 9.088 9.068 9.098 9.103 9.091 9.108 9.103 9.116 9.143 9.138 9.138 9.153 9.131 9.196 9.216 9.226 9.231 9.213 9.233 9.261 9.261 9.288 9.293 9.311 9.306 9.323 9.343 9.351 9.391 9.393 9.401 9.416 9.443 9.446 9.503 9.571 9.578 9.593 9.643 9.713 9.696 9.746 9.786 9.778 9.831 9.838 9.891 9.893 9.903 9.923 9.951 10.013 9.993 9.946 10.016 10.046 10.101 10.126 10.171 10.193 10.213 10.266 10.308 10.343 10.358 10.391 10.423 10.438 10.458 10.461 10.503 10.583 10.708 10.788 10.878 10.943 11.003 11.061 11.206 11.323 11.136 11.056 11.046 11.053 11.076 11.081 11.041 11.003 10.953 10.968 10.941 10.968 10.963 10.946 10.973 10.968 10.976
5.471 5.62 5.979 6.094 6.051 5.794 5.676 5.676 5.689 5.684 5.634 5.676 6.426 6.244 5.634 5.596 5.511 5.536 5.589 5.599 5.691 5.766 5.244 7.364 7.721 5.741 5.629 5.631 5.626 5.656 5.651 5.671 5.659 5.664 5.679 5.649 5.634 5.649 5.649 5.676 5.679 5.676 5.664 5.699 5.686 5.696 5.696 5.656 5.826 6.144 5.054 5.784 5.751 5.859 5.751 5.769 5.769 5.684 5.759 5.721 5.696 5.801 5.671 5.701 5.724 5.639 5.679 5.681 5.614 5.666 5.611 5.549 5.651 5.501 4.494 4.761 5.301 5.259 5.319 5.314 5.401 5.434 5.397 5.373 5.379 5.384 5.376 5.376 5.382 5.387 5.393 5.424 5.426 5.429 5.452 5.474 5.481 5.466 5.494 5.501 5.516 5.503 5.521 5.524 5.531 5.516 5.514 5.546 5.566 5.586 5.589 5.591 5.606 5.639 5.626 5.614 5.641 5.696 5.668 5.674 5.689 5.689 5.714 5.699 5.719 5.706 5.724 5.739 5.739 5.756 5.739 5.726 5.759 5.784 5.769 5.786 5.791 5.791 5.801 5.841 5.841 5.918 5.956 5.876 5.894 5.819 5.936 6.026 6.021 6.011 5.958 5.918 5.878 5.838 5.851 5.816 5.828 5.856 5.878 5.878 5.931 5.926 5.933 5.943 5.953 5.948 5.953 5.983 6.001 6.028 6.041 6.043 6.056 6.068 6.066 6.096 6.101 6.123 6.141 6.176 6.191 6.216 6.238 6.241 6.303 6.281 6.341 6.348 6.376 6.406 6.423 6.436 6.466 6.486 6.523 6.536 6.553 6.558 6.608 6.623 6.623 6.668 6.716 6.751 6.783 6.843 6.873 6.913 6.941 6.961 6.991 7.028 7.066 7.088 7.103 7.123 7.166 7.178 7.193 7.213 7.236 7.246 7.25 7.257 7.269 7.289 7.299 7.327 7.34 7.355 7.38 7.382 7.407 7.403 7.44 7.48 7.508 7.521 7.553 7.578 7.596 7.658 7.666 7.696 7.721 7.743 7.741 7.781 7.796 7.813 7.813 7.836 7.863 7.873 7.896 7.911 7.903 7.936 7.981 7.976 7.986 8.016 8.023 8.018 8.038 8.046 8.086 8.066 8.091 8.106 8.091 8.118 8.141 8.151 8.173 8.183 8.166 8.173 8.201 8.211 8.206 8.203 8.231 8.241 8.271 8.286 8.291 8.311 8.313 8.343 8.348 8.423 8.476 8.536 8.563 8.586 8.671 8.763 8.826 8.908 8.688 8.623 8.601 8.598 8.586 8.571 8.586 8.618 8.613 8.571 8.548 8.518 8.561 8.551 8.578 8.571 8.591 8.581 8.616 8.613 8.663 8.656 8.681 8.671 8.708 8.698 8.718 8.716 8.711 8.726 8.763 8.788 8.828 8.846 8.863 8.886 8.858 8.921 8.896 8.863 8.913 9.006 9.078 9.151 9.213 9.243 9.258 9.286 9.418 9.486 9.423 9.328 9.311 9.328 9.333 9.261 9.256 9.211 9.136 9.146 9.121 9.096 9.078 9.103 9.083 9.093 9.118 9.116 9.101 9.131 9.108 9.103 9.101 9.111 9.093 9.083 9.071 9.053 9.076 9.078 9.133 9.096 9.063 9.093 9.083 9.073 9.061 9.088 9.101 9.098 9.063 9.066 9.038 9.066 9.118 9.078 9.073 9.063 9.068 9.078 9.041 9.043 9.211 9.043 9.061 9.068 9.093 9.088 9.088 9.086 9.096 9.118 9.108 9.146 9.168 9.171 9.193 9.221 9.216 9.196 9.218 9.223 9.258 9.263 9.278 9.291 9.276 9.303 9.313 9.336 9.333 9.361 9.366 9.378 9.406 9.426 9.501 9.511 9.538 9.561 9.641 9.666 9.683 9.723 9.758 9.781 9.803 9.818 9.833 9.841 9.866 9.868 9.946 9.998 9.963 9.938 9.988 10.006 10.036 10.091 10.111 10.126 10.178 10.226 10.253 10.293 10.338 10.373 10.396 10.461 10.466 10.451 10.493 10.543 10.608 10.693 10.771 10.863 10.906 10.973 11.031 11.066 11.238 11.248 11.076 11.038 11.068 11.086 11.106 11.068 11.063 11.051 10.996 10.983 10.951 10.946 10.968 10.958 10.958 10.983
5.684 5.081 5.259 5.734 5.884 5.904 5.971 5.954 5.961 5.781 5.646 5.666 6.309 5.956 5.681 5.601 5.621 5.591 5.546 5.594 5.716 5.691 5.556 7.586 6.341 5.654 5.619 5.614 5.626 5.621 5.659 5.649 5.649 5.659 5.641 5.641 5.639 5.661 5.679 5.639 5.634 5.664 5.669 5.704 5.706 5.656 5.689 5.629 6.126 5.746 5.401 5.844 5.754 5.859 5.751 5.744 5.786 5.714 5.734 5.779 5.709 5.784 5.756 5.686 5.764 5.656 5.639 5.731 5.604 5.639 5.604 5.509 5.711 5.034 4.424 5.109 5.251 5.296 5.296 5.334 5.399 5.423 5.392 5.336 5.356 5.376 5.365 5.358 5.356 5.377 5.391 5.41 5.421 5.426 5.453 5.441 5.466 5.439 5.446 5.459 5.484 5.511 5.524 5.524 5.526 5.531 5.534 5.541 5.524 5.549 5.576 5.566 5.604 5.616 5.634 5.634 5.651 5.644 5.676 5.661 5.654 5.668 5.699 5.691 5.689 5.704 5.719 5.724 5.699 5.729 5.731 5.724 5.726 5.744 5.764 5.764 5.824 5.806 5.811 5.789 5.829 5.859 5.859 5.904 5.909 5.931 5.986 6.034 6.011 6.024 5.968 5.921 5.856 5.841 5.826 5.821 5.821 5.846 5.826 5.846 5.881 5.861 5.921 5.911 5.938 5.948 5.988 6.001 5.996 6.031 6.043 6.026 6.033 6.043 6.051 6.053 6.081 6.111 6.146 6.166 6.196 6.248 6.211 6.256 6.291 6.291 6.336 6.336 6.371 6.368 6.408 6.436 6.433 6.478 6.538 6.508 6.553 6.573 6.613 6.648 6.683 6.728 6.753 6.788 6.808 6.851 6.868 6.908 6.923 6.996 6.986 7.023 7.056 7.076 7.108 7.128 7.163 7.163 7.183 7.191 7.206 7.218 7.216 7.249 7.261 7.287 7.305 7.312 7.338 7.342 7.374 7.407 7.425 7.43 7.458 7.463 7.476 7.496 7.536 7.566 7.596 7.613 7.648 7.683 7.681 7.716 7.763 7.776 7.803 7.826 7.823 7.851 7.851 7.878 7.898 7.921 7.921 7.926 7.951 7.966 7.986 8.026 8.023 8.021 8.046 8.041 8.063 8.071 8.093 8.093 8.081 8.121 8.126 8.138 8.166 8.173 8.163 8.218 8.236 8.228 8.211 8.223 8.223 8.253 8.261 8.276 8.286 8.296 8.316 8.338 8.376 8.448 8.516 8.541 8.538 8.623 8.721 8.811 8.798 8.781 8.616 8.601 8.611 8.571 8.551 8.571 8.613 8.576 8.563 8.553 8.543 8.548 8.563 8.541 8.578 8.576 8.613 8.603 8.633 8.621 8.638 8.676 8.673 8.673 8.683 8.701 8.681 8.678 8.686 8.741 8.776 8.798 8.836 8.841 8.833 8.831 8.873 8.881 8.866 8.876 8.893 8.948 9.013 9.121 9.148 9.223 9.226 9.253 9.278 9.381 9.473 9.433 9.356 9.326 9.306 9.288 9.283 9.218 9.193 9.191 9.156 9.088 9.111 9.088 9.091 9.088 9.108 9.078 9.086 9.088 9.058 9.086 9.063 9.088 9.056 9.058 9.041 9.068 9.056 9.143 9.166 9.051 9.078 9.066 9.058 9.071 9.078 9.076 9.083 9.061 9.046 9.043 9.041 9.133 9.061 9.051 9.073 9.096 9.088 9.048 9.106 9.181 9.023 9.026 9.053 9.031 9.056 9.081 9.066 9.106 9.096 9.093 9.103 9.146 9.143 9.176 9.218 9.186 9.183 9.226 9.226 9.243 9.251 9.263 9.251 9.258 9.271 9.286 9.306 9.346 9.338 9.341 9.361 9.396 9.406 9.441 9.466 9.538 9.571 9.618 9.661 9.666 9.718 9.723 9.743 9.746 9.796 9.816 9.823 9.843 9.826 9.898 9.961 9.913 9.913 9.956 9.973 10.016 10.048 10.081 10.111 10.148 10.178 10.226 10.231 10.266 10.351 10.361 10.378 10.438 10.448 10.493 10.523 10.576 10.593 10.643 10.728 10.806 10.881 10.913 11.003 11.038 11.093 11.213 11.183 11.078 11.041 11.071 11.098 11.108 11.091 11.071 11.006 10.941 10.958 10.936 10.936 10.946 10.976 10.978
5.869 5.832 5.819 5.709 5.381 4.984 4.989 5.081 5.399 6.001 5.926 5.644 6.526 7.159 6.116 5.694 5.676 5.649 5.624 5.659 5.734 5.486 6.111 7.594 6.371 5.596 5.589 5.614 5.634 5.644 5.654 5.641 5.646 5.671 5.664 5.649 5.651 5.659 5.636 5.636 5.614 5.651 5.674 5.684 5.659 5.654 5.674 5.696 6.281 5.101 5.744 5.781 5.741 5.816 5.756 5.696 5.771 5.704 5.756 5.739 5.684 5.761 5.689 5.636 5.694 5.671 5.594 5.686 5.574 5.624 5.554 5.521 5.629 4.654 4.486 5.239 5.209 5.299 5.309 5.344 5.381 5.358 5.317 5.305 5.317 5.334 5.337 5.359 5.377 5.39 5.384 5.418 5.394 5.414 5.432 5.419 5.484 5.471 5.469 5.481 5.503 5.519 5.519 5.524 5.531 5.531 5.534 5.559 5.546 5.549 5.576 5.571 5.574 5.589 5.621 5.621 5.628 5.621 5.631 5.654 5.668 5.668 5.659 5.691 5.681 5.699 5.699 5.684 5.724 5.716 5.741 5.714 5.736 5.753 5.736 5.754 5.753 5.789 5.789 5.819 5.846 5.859 5.866 5.881 5.889 5.971 6.036 5.979 6.031 5.991 5.981 5.933 5.853 5.846 5.851 5.828 5.828 5.868 5.868 5.871 5.898 5.898 5.893 5.908 5.948 5.926 5.943 5.976 6.011 6.018 6.036 6.031 6.028 6.041 6.053 6.061 6.096 6.113 6.116 6.153 6.158 6.201 6.231 6.258 6.266 6.291 6.333 6.361 6.356 6.376 6.428 6.436 6.448 6.486 6.501 6.523 6.571 6.591 6.663 6.696 6.698 6.736 6.771 6.803 6.838 6.878 6.876 6.921 6.953 6.951 6.986 7.016 7.026 7.028 7.093 7.088 7.116 7.146 7.158 7.176 7.168 7.228 7.211 7.252 7.271 7.315 7.309 7.315 7.33 7.358 7.381 7.405 7.431 7.461 7.464 7.481 7.485 7.513 7.531 7.551 7.573 7.608 7.621 7.663 7.671 7.728 7.758 7.756 7.786 7.793 7.826 7.846 7.846 7.878 7.906 7.916 7.928 7.953 7.953 7.968 7.988 7.983 7.983 8.013 8.021 8.036 8.068 8.078 8.088 8.123 8.108 8.111 8.101 8.116 8.153 8.136 8.178 8.193 8.208 8.213 8.223 8.236 8.251 8.261 8.268 8.278 8.278 8.293 8.323 8.328 8.406 8.466 8.546 8.541 8.588 8.658 8.756 8.811 8.731 8.661 8.596 8.561 8.563 8.556 8.553 8.576 8.571 8.568 8.571 8.528 8.553 8.561 8.568 8.573 8.568 8.568 8.588 8.621 8.608 8.603 8.653 8.658 8.651 8.671 8.656 8.636 8.643 8.668 8.691 8.756 8.773 8.798 8.831 8.811 8.796 8.836 8.861 8.881 8.808 8.853 8.868 8.888 8.973 9.058 9.138 9.181 9.238 9.231 9.253 9.271 9.401 9.503 9.463 9.343 9.308 9.316 9.288 9.253 9.236 9.223 9.183 9.128 9.148 9.086 9.091 9.106 9.086 9.098 9.088 9.056 9.078 9.068 9.076 9.068 9.063 9.038 9.086 9.061 9.068 9.131 9.043 9.041 9.051 9.051 9.051 9.083 9.063 9.056 9.071 9.051 9.038 9.036 9.121 9.103 9.033 9.056 9.061 9.073 9.056 9.033 9.111 9.033 9.033 9.038 9.041 9.038 9.061 9.076 9.083 9.071 9.096 9.106 9.121 9.123 9.158 9.176 9.168 9.178 9.201 9.176 9.201 9.218 9.223 9.233 9.228 9.256 9.268 9.271 9.316 9.308 9.308 9.316 9.361 9.363 9.408 9.433 9.453 9.538 9.576 9.646 9.646 9.668 9.678 9.708 9.711 9.771 9.798 9.793 9.778 9.816 9.866 9.916 9.876 9.891 9.951 9.933 9.998 10.021 10.051 10.093 10.108 10.126 10.191 10.211 10.223 10.281 10.331 10.333 10.371 10.398 10.436 10.511 10.586 10.561 10.621 10.648 10.716 10.791 10.871 10.891 10.946 11.028 11.071 11.116 11.193 11.123 11.053 11.043 11.071 11.083 11.108 11.098 11.031 10.998 10.941 10.948 10.938 10.968 10.968 10.993
5.833 5.821 5.871 5.866 5.841 5.756 5.676 5.541 5.464 5.416 5.169 4.944 5.306 5.516 5.616 5.739 5.821 5.796 5.781 5.724 5.714 5.229 6.716 7.441 5.916 5.604 5.579 5.591 5.619 5.626 5.666 5.661 5.659 5.676 5.649 5.639 5.616 5.634 5.639 5.606 5.631 5.656 5.664 5.664 5.681 5.661 5.654 5.921 5.906 5.161 5.736 5.784 5.714 5.779 5.704 5.726 5.766 5.691 5.721 5.721 5.676 5.689 5.684 5.659 5.639 5.664 5.609 5.664 5.596 5.591 5.516 5.659 5.284 4.419 4.801 5.209 5.211 5.294 5.344 5.316 5.334 5.291 5.276 5.314 5.321 5.319 5.335 5.321 5.332 5.341 5.386 5.373 5.409 5.391 5.456 5.451 5.439 5.459 5.489 5.516 5.516 5.509 5.519 5.519 5.544 5.544 5.546 5.579 5.574 5.549 5.546 5.574 5.584 5.601 5.581 5.591 5.586 5.601 5.606 5.619 5.626 5.631 5.654 5.644 5.679 5.724 5.686 5.679 5.681 5.706 5.704 5.719 5.731 5.741 5.746 5.741 5.796 5.784 5.776 5.764 5.811 5.834 5.841 5.861 5.841 5.829 5.844 5.894 5.884 5.953 5.953 5.911 5.911 5.916 5.906 5.881 5.856 5.861 5.871 5.908 5.898 5.923 5.923 5.926 5.938 5.948 5.958 5.961 5.993 5.991 6.011 6.001 6.038 6.043 6.043 6.038 6.066 6.091 6.111 6.133 6.163 6.186 6.208 6.226 6.246 6.268 6.291 6.331 6.351 6.401 6.416 6.433 6.463 6.501 6.531 6.561 6.611 6.613 6.653 6.673 6.713 6.753 6.791 6.831 6.821 6.848 6.878 6.911 6.946 6.961 6.986 7.033 7.068 7.078 7.088 7.116 7.141 7.116 7.146 7.156 7.161 7.216 7.203 7.24 7.241 7.258 7.298 7.308 7.325 7.332 7.376 7.387 7.393 7.419 7.448 7.482 7.495 7.524 7.546 7.586 7.608 7.631 7.638 7.638 7.688 7.711 7.731 7.746 7.756 7.776 7.788 7.816 7.828 7.876 7.856 7.881 7.918 7.916 7.926 7.971 7.983 7.971 8.008 8.018 8.011 8.011 8.038 8.048 8.058 8.091 8.108 8.133 8.131 8.148 8.133 8.151 8.156 8.186 8.181 8.208 8.208 8.228 8.251 8.243 8.271 8.306 8.293 8.296 8.341 8.371 8.453 8.486 8.513 8.571 8.618 8.683 8.773 8.681 8.616 8.583 8.573 8.543 8.548 8.541 8.576 8.596 8.573 8.501 8.551 8.546 8.553 8.533 8.578 8.571 8.563 8.548 8.568 8.608 8.606 8.626 8.638 8.608 8.653 8.653 8.628 8.643 8.631 8.668 8.703 8.751 8.758 8.773 8.806 8.788 8.796 8.833 8.836 8.851 8.848 8.871 8.891 8.878 8.926 9.021 9.106 9.166 9.208 9.211 9.246 9.276 9.266 9.366 9.481 9.421 9.288 9.263 9.308 9.291 9.268 9.228 9.198 9.178 9.123 9.098 9.118 9.081 9.083 9.081 9.061 9.073 9.071 9.073 9.056 9.038 9.038 9.058 9.066 9.038 9.153 9.048 9.061 9.038 9.033 9.031 9.066 9.051 9.063 9.071 9.033 9.043 9.006 9.086 9.103 9.051 9.043 9.036 9.038 9.046 9.068 9.133 9.001 9.006 9.008 9.008 9.013 9.036 9.051 9.068 9.086 9.073 9.066 9.093 9.121 9.126 9.151 9.148 9.148 9.163 9.171 9.201 9.213 9.196 9.203 9.228 9.221 9.238 9.258 9.268 9.286 9.283 9.293 9.318 9.321 9.378 9.406 9.446 9.476 9.571 9.601 9.608 9.621 9.661 9.668 9.701 9.718 9.788 9.778 9.771 9.781 9.843 9.916 9.868 9.871 9.891 9.898 9.958 10.016 10.043 10.056 10.081 10.081 10.128 10.158 10.203 10.236 10.283 10.283 10.331 10.373 10.403 10.403 10.528 10.516 10.573 10.601 10.626 10.666 10.746 10.816 10.873 10.928 10.961 11.021 11.071 11.123 11.223 11.076 11.038 11.081 11.056 11.083 11.113 11.103 11.028 10.983 10.938 10.938 10.951 10.958 10.933
5.808 5.828 5.851 5.821 5.824 5.804 5.836 5.851 5.811 5.766 5.696 5.624 5.354 5.071 4.971 5.194 5.319 5.621 5.726 5.686 5.584 5.264 6.861 7.166 5.901 5.756 5.659 5.606 5.591 5.609 5.626 5.661 5.644 5.646 5.656 5.626 5.676 5.629 5.624 5.626 5.641 5.666 5.669 5.639 5.679 5.654 5.651 6.191 5.464 5.511 5.759 5.716 5.679 5.766 5.689 5.736 5.749 5.681 5.709 5.716 5.624 5.709 5.674 5.604 5.654 5.591 5.606 5.621 5.584 5.531 5.536 5.726 4.804 4.394 5.121 5.174 5.209 5.264 5.279 5.336 5.286 5.24 5.224 5.271 5.264 5.275 5.293 5.309 5.32 5.318 5.336 5.353 5.388 5.402 5.407 5.439 5.469 5.461 5.474 5.501 5.514 5.521 5.521 5.509 5.541 5.536 5.531 5.534 5.541 5.544 5.554 5.561 5.574 5.594 5.559 5.571 5.576 5.611 5.589 5.589 5.609 5.626 5.646 5.639 5.651 5.661 5.671 5.681 5.679 5.684 5.684 5.691 5.731 5.739 5.739 5.736 5.744 5.731 5.744 5.744 5.774 5.779 5.819 5.836 5.861 5.874 5.861 5.846 5.821 5.809 5.856 5.828 5.843 5.898 5.898 5.908 5.901 5.921 5.923 5.926 5.943 5.926 5.921 5.946 5.948 5.951 5.986 5.958 5.968 5.978 5.993 6.008 6.023 6.043 5.991 6.008 6.026 6.063 6.081 6.103 6.141 6.163 6.173 6.203 6.273 6.283 6.326 6.351 6.371 6.391 6.431 6.466 6.498 6.533 6.563 6.548 6.613 6.623 6.668 6.701 6.718 6.738 6.761 6.771 6.821 6.851 6.876 6.923 6.966 6.971 6.996 7.023 7.058 7.088 7.093 7.121 7.131 7.183 7.173 7.203 7.223 7.226 7.253 7.25 7.264 7.271 7.271 7.293 7.305 7.305 7.329 7.352 7.381 7.404 7.426 7.456 7.461 7.515 7.528 7.568 7.586 7.631 7.626 7.678 7.691 7.728 7.741 7.761 7.786 7.791 7.778 7.796 7.818 7.826 7.846 7.898 7.881 7.901 7.923 7.936 7.946 7.973 8.001 8.003 8.008 8.033 8.043 8.056 8.091 8.081 8.078 8.091 8.113 8.123 8.113 8.158 8.191 8.178 8.201 8.203 8.198 8.211 8.246 8.246 8.281 8.308 8.298 8.316 8.348 8.426 8.476 8.478 8.536 8.591 8.686 8.756 8.761 8.606 8.613 8.571 8.548 8.536 8.523 8.536 8.543 8.548 8.548 8.483 8.541 8.563 8.553 8.531 8.533 8.551 8.563 8.543 8.573 8.606 8.621 8.633 8.623 8.623 8.636 8.626 8.613 8.591 8.643 8.673 8.698 8.736 8.733 8.736 8.748 8.808 8.801 8.828 8.818 8.858 8.843 8.866 8.866 8.878 8.888 8.968 9.026 9.103 9.156 9.198 9.221 9.238 9.248 9.253 9.346 9.448 9.398 9.286 9.276 9.286 9.273 9.243 9.233 9.208 9.161 9.146 9.096 9.086 9.063 9.028 9.043 9.043 9.053 9.063 9.021 9.031 9.046 9.043 9.063 9.123 9.016 9.058 9.033 9.051 9.036 9.046 9.068 9.051 9.046 9.008 8.993 9.011 9.041 9.068 9.046 9.043 9.021 9.056 9.008 9.041 9.093 8.958 8.996 9.023 8.986 8.996 9.001 9.023 9.053 9.068 9.043 9.061 9.096 9.091 9.111 9.126 9.143 9.133 9.156 9.158 9.181 9.183 9.171 9.183 9.191 9.208 9.228 9.256 9.261 9.278 9.261 9.281 9.308 9.301 9.318 9.346 9.478 9.461 9.521 9.581 9.581 9.616 9.618 9.643 9.666 9.728 9.766 9.751 9.733 9.768 9.801 9.843 9.811 9.838 9.873 9.896 9.953 9.953 10.011 10.041 10.061 10.081 10.096 10.123 10.161 10.198 10.241 10.251 10.293 10.321 10.348 10.393 10.491 10.446 10.503 10.563 10.556 10.558 10.648 10.698 10.733 10.801 10.888 10.936 10.963 11.028 11.036 11.153 11.188 11.076 11.046 11.061 11.063 11.056 11.101 11.043 11.031 10.983 10.971 10.958 10.936 10.943
5.773 5.812 5.821 5.811 5.824 5.809 5.816 5.776 5.781 5.754 5.734 5.781 5.841 5.809 5.776 5.449 5.026 4.846 5.129 5.449 5.461 5.404 6.196 6.111 6.119 5.974 5.794 5.749 5.676 5.641 5.619 5.609 5.579 5.601 5.619 5.599 5.626 5.634 5.639 5.646 5.651 5.646 5.629 5.634 5.636 5.626 5.854 5.999 5.109 5.709 5.686 5.686 5.656 5.709 5.641 5.689 5.704 5.644 5.659 5.694 5.626 5.661 5.629 5.599 5.656 5.571 5.566 5.621 5.626 5.506 5.666 5.466 4.609 4.731 5.201 5.161 5.214 5.246 5.281 5.309 5.241 5.245 5.263 5.259 5.258 5.257 5.276 5.298 5.311 5.332 5.328 5.362 5.372 5.389 5.419 5.406 5.444 5.464 5.446 5.456 5.476 5.496 5.471 5.496 5.501 5.516 5.526 5.541 5.539 5.536 5.554 5.579 5.571 5.546 5.594 5.609 5.599 5.594 5.624 5.616 5.624 5.609 5.599 5.604 5.651 5.668 5.671 5.681 5.681 5.699 5.681 5.691 5.694 5.709 5.741 5.753 5.749 5.753 5.756 5.744 5.791 5.791 5.814 5.824 5.849 5.831 5.841 5.871 5.864 5.876 5.858 5.838 5.806 5.801 5.828 5.841 5.848 5.931 5.961 5.956 5.943 5.981 5.993 5.983 5.971 5.951 5.936 5.948 5.928 5.956 5.971 5.986 6.021 6.036 6.016 6.026 6.041 6.046 6.066 6.088 6.103 6.158 6.163 6.218 6.228 6.298 6.321 6.348 6.371 6.401 6.428 6.448 6.478 6.478 6.533 6.558 6.571 6.606 6.621 6.653 6.688 6.733 6.758 6.783 6.801 6.838 6.903 6.913 6.936 6.966 6.988 7.053 7.068 7.063 7.103 7.108 7.171 7.151 7.156 7.216 7.223 7.253 7.276 7.268 7.278 7.284 7.311 7.317 7.328 7.362 7.368 7.376 7.398 7.414 7.408 7.446 7.469 7.487 7.511 7.566 7.596 7.596 7.626 7.666 7.683 7.713 7.741 7.766 7.783 7.788 7.821 7.846 7.848 7.848 7.846 7.846 7.863 7.886 7.921 7.916 7.928 7.966 7.956 7.968 8.001 8.026 8.036 8.076 8.083 8.086 8.071 8.103 8.133 8.098 8.108 8.136 8.146 8.168 8.178 8.196 8.213 8.241 8.243 8.238 8.263 8.281 8.318 8.336 8.391 8.446 8.473 8.518 8.571 8.646 8.761 8.833 8.678 8.573 8.551 8.553 8.551 8.511 8.503 8.548 8.551 8.528 8.511 8.506 8.508 8.526 8.523 8.543 8.521 8.536 8.551 8.558 8.568 8.588 8.603 8.628 8.608 8.601 8.636 8.603 8.613 8.628 8.668 8.671 8.723 8.716 8.721 8.726 8.766 8.776 8.793 8.813 8.851 8.828 8.818 8.836 8.833 8.858 8.878 8.938 8.941 9.026 9.086 9.138 9.183 9.211 9.233 9.248 9.266 9.336 9.448 9.383 9.261 9.246 9.266 9.268 9.243 9.223 9.188 9.176 9.108 9.028 9.058 9.048 9.036 9.028 9.036 9.018 9.016 9.026 9.031 9.106 9.086 9.038 9.053 9.051 9.028 9.018 9.031 9.036 9.051 9.046 9.006 8.988 9.008 9.058 9.088 9.013 9.031 9.016 9.018 9.018 9.046 9.088 8.988 8.978 8.973 8.988 8.983 8.996 9.023 9.026 9.053 9.011 9.068 9.061 9.071 9.106 9.111 9.111 9.141 9.111 9.136 9.156 9.153 9.171 9.158 9.153 9.201 9.198 9.216 9.233 9.256 9.251 9.266 9.273 9.268 9.311 9.321 9.408 9.451 9.498 9.548 9.571 9.588 9.601 9.606 9.641 9.686 9.736 9.706 9.696 9.748 9.796 9.816 9.763 9.803 9.833 9.871 9.901 9.933 9.978 9.986 10.006 10.031 10.046 10.106 10.131 10.146 10.176 10.213 10.238 10.256 10.316 10.351 10.391 10.393 10.446 10.496 10.508 10.533 10.556 10.583 10.621 10.686 10.741 10.843 10.886 10.903 11.006 11.063 11.073 11.191 11.171 11.023 11.026 11.058 11.061 11.081 11.086 11.058 11.043 10.991 10.983 10.968 10.958
5.748 5.751 5.741 5.759 5.751 5.774 5.786 5.781 5.761 5.736 5.691 5.726 5.736 5.764 5.746 5.759 5.799 5.741 5.539 5.239 4.819 4.684 5.079 5.584 5.904 6.159 7.219 6.299 5.906 5.776 5.744 5.656 5.616 5.569 5.576 5.579 5.626 5.676 5.661 5.639 5.649 5.641 5.671 5.644 5.634 5.616 6.164 5.734 5.319 5.746 5.719 5.631 5.619 5.674 5.611 5.606 5.644 5.621 5.656 5.624 5.629 5.616 5.606 5.579 5.594 5.531 5.539 5.556 5.571 5.579 5.706 4.936 4.364 5.044 5.174 5.179 5.226 5.316 5.294 5.336 5.229 5.225 5.272 5.279 5.286 5.261 5.284 5.287 5.312 5.309 5.317 5.327 5.359 5.363 5.379 5.391 5.391 5.404 5.429 5.431 5.436 5.481 5.486 5.476 5.494 5.509 5.529 5.519 5.521 5.541 5.551 5.549 5.574 5.556 5.581 5.571 5.596 5.616 5.611 5.624 5.624 5.604 5.599 5.609 5.628 5.609 5.619 5.659 5.649 5.661 5.659 5.691 5.721 5.729 5.761 5.764 5.769 5.789 5.796 5.804 5.796 5.779 5.804 5.816 5.844 5.846 5.856 5.889 5.859 5.859 5.861 5.836 5.853 5.848 5.873 5.888 5.866 5.826 5.806 5.846 5.833 5.881 5.893 5.928 5.961 6.011 6.011 6.028 5.998 5.991 5.956 5.943 5.928 5.988 6.011 6.041 6.073 6.093 6.123 6.101 6.138 6.153 6.168 6.213 6.258 6.263 6.293 6.291 6.353 6.383 6.408 6.418 6.451 6.468 6.506 6.518 6.548 6.586 6.626 6.651 6.676 6.703 6.746 6.783 6.806 6.836 6.868 6.938 6.958 6.976 7.013 7.033 7.066 7.061 7.118 7.123 7.148 7.178 7.191 7.191 7.206 7.226 7.266 7.261 7.273 7.291 7.324 7.32 7.343 7.354 7.373 7.38 7.401 7.425 7.442 7.476 7.486 7.522 7.528 7.533 7.591 7.581 7.608 7.638 7.681 7.673 7.741 7.748 7.758 7.766 7.783 7.816 7.833 7.821 7.863 7.866 7.896 7.921 7.913 7.908 7.941 7.953 7.948 7.956 7.986 8.016 8.021 8.046 8.061 8.063 8.076 8.113 8.101 8.116 8.133 8.156 8.158 8.156 8.168 8.198 8.193 8.218 8.231 8.243 8.278 8.288 8.311 8.353 8.426 8.476 8.493 8.558 8.608 8.791 8.846 8.756 8.581 8.533 8.548 8.541 8.516 8.511 8.528 8.546 8.511 8.493 8.501 8.503 8.541 8.518 8.508 8.541 8.548 8.521 8.543 8.543 8.596 8.583 8.596 8.598 8.573 8.608 8.588 8.598 8.613 8.658 8.633 8.653 8.686 8.698 8.701 8.743 8.773 8.773 8.771 8.801 8.813 8.813 8.843 8.841 8.848 8.846 8.891 8.893 8.903 8.951 9.033 9.098 9.146 9.171 9.186 9.218 9.233 9.211 9.306 9.403 9.351 9.256 9.236 9.243 9.258 9.231 9.233 9.198 9.151 9.076 9.013 9.018 8.996 9.001 8.991 8.996 9.003 9.016 9.031 9.106 9.036 9.048 9.046 9.008 9.023 9.008 9.068 9.033 9.008 8.981 9.013 8.963 9.058 9.063 9.006 9.026 9.023 9.021 9.011 9.013 9.121 8.973 8.971 8.971 8.993 8.973 8.968 8.996 9.028 9.023 9.036 9.031 9.048 9.043 9.071 9.093 9.078 9.111 9.088 9.106 9.101 9.151 9.136 9.146 9.158 9.158 9.161 9.178 9.221 9.218 9.223 9.226 9.236 9.256 9.286 9.286 9.388 9.386 9.471 9.521 9.548 9.548 9.583 9.606 9.601 9.663 9.673 9.663 9.671 9.708 9.776 9.803 9.761 9.768 9.818 9.823 9.878 9.893 9.911 9.956 9.973 10.011 10.028 10.058 10.101 10.128 10.138 10.183 10.211 10.226 10.243 10.341 10.343 10.341 10.383 10.448 10.458 10.481 10.513 10.546 10.566 10.608 10.606 10.653 10.718 10.836 10.893 10.958 10.993 11.076 11.098 11.176 11.086 11.016 11.016 11.048 11.056 11.076 11.073 11.053 11.013 10.978 10.981 10.956
5.738 5.682 5.691 5.684 5.699 5.704 5.716 5.749 5.749 5.716 5.714 5.734 5.724 5.691 5.656 5.641 5.681 5.706 5.709 5.604 5.581 5.476 5.464 5.389 5.236 4.949 6.091 8.811 9.621 7.726 7.479 5.724 5.706 5.636 5.574 5.566 5.601 5.636 5.659 5.634 5.629 5.614 5.641 5.619 5.619 5.751 6.181 5.281 5.601 5.576 5.666 5.641 5.579 5.614 5.624 5.571 5.676 5.599 5.631 5.631 5.634 5.591 5.626 5.581 5.576 5.549 5.516 5.536 5.609 5.746 5.406 4.531 4.669 5.169 5.106 5.161 5.229 5.279 5.329 5.284 5.224 5.194 5.204 5.223 5.286 5.279 5.295 5.32 5.295 5.29 5.3 5.307 5.306 5.323 5.346 5.349 5.379 5.394 5.421 5.436 5.434 5.431 5.464 5.464 5.466 5.489 5.479 5.491 5.519 5.509 5.519 5.534 5.539 5.546 5.546 5.579 5.586 5.556 5.591 5.594 5.589 5.579 5.614 5.579 5.619 5.621 5.626 5.644 5.649 5.661 5.716 5.691 5.708 5.719 5.751 5.746 5.796 5.796 5.799 5.764 5.806 5.834 5.841 5.864 5.851 5.844 5.826 5.834 5.854 5.861 5.843 5.846 5.843 5.833 5.823 5.836 5.853 5.826 5.871 5.858 5.826 5.771 5.766 5.778 5.813 5.846 5.933 6.006 6.013 5.963 5.981 6.031 6.061 6.083 6.091 6.076 6.086 6.113 6.141 6.208 6.206 6.216 6.216 6.243 6.261 6.283 6.286 6.313 6.346 6.361 6.363 6.388 6.443 6.498 6.498 6.528 6.558 6.583 6.623 6.651 6.688 6.723 6.731 6.773 6.808 6.843 6.851 6.856 6.903 6.941 6.991 7.013 7.038 7.056 7.106 7.141 7.156 7.176 7.191 7.203 7.213 7.226 7.231 7.27 7.265 7.274 7.288 7.304 7.322 7.311 7.361 7.378 7.4 7.414 7.427 7.462 7.482 7.501 7.531 7.546 7.616 7.643 7.646 7.671 7.703 7.713 7.698 7.696 7.728 7.751 7.781 7.823 7.808 7.833 7.851 7.851 7.871 7.896 7.898 7.913 7.941 7.943 7.958 7.981 8.016 8.001 8.006 8.021 8.038 8.041 8.068 8.086 8.086 8.108 8.121 8.131 8.161 8.171 8.203 8.208 8.221 8.236 8.228 8.228 8.238 8.263 8.311 8.376 8.476 8.473 8.533 8.618 8.693 8.858 8.731 8.583 8.493 8.498 8.511 8.498 8.503 8.513 8.526 8.493 8.481 8.483 8.476 8.526 8.521 8.523 8.523 8.533 8.553 8.546 8.558 8.556 8.598 8.598 8.593 8.621 8.598 8.603 8.581 8.576 8.606 8.603 8.661 8.661 8.668 8.698 8.721 8.728 8.743 8.721 8.753 8.791 8.783 8.811 8.796 8.838 8.833 8.851 8.876 8.858 8.856 8.923 8.996 9.033 9.058 9.146 9.141 9.166 9.176 9.216 9.193 9.281 9.381 9.361 9.238 9.216 9.218 9.233 9.211 9.201 9.141 9.118 9.053 8.978 8.963 8.976 8.958 8.986 9.001 9.023 9.026 8.993 9.056 9.023 9.013 9.023 8.998 9.008 9.016 8.993 8.971 8.986 8.988 9.028 9.118 9.003 9.011 9.028 9.023 9.018 8.988 8.993 8.963 8.983 8.956 8.976 8.978 8.956 8.983 9.016 9.013 9.016 9.018 9.038 9.041 9.031 9.076 9.066 9.078 9.088 9.073 9.113 9.118 9.116 9.141 9.126 9.126 9.131 9.171 9.193 9.193 9.233 9.208 9.223 9.223 9.258 9.303 9.401 9.348 9.461 9.486 9.493 9.523 9.556 9.571 9.591 9.623 9.663 9.628 9.641 9.691 9.726 9.746 9.703 9.768 9.768 9.788 9.831 9.843 9.868 9.898 9.938 9.968 10.008 10.028 10.056 10.098 10.118 10.148 10.151 10.186 10.233 10.273 10.296 10.298 10.361 10.391 10.406 10.433 10.446 10.478 10.551 10.543 10.563 10.591 10.598 10.631 10.718 10.821 10.896 10.958 11.013 11.056 11.111 11.183 11.086 11.031 11.048 11.058 11.061 11.068 11.041 11.041 11.003 10.978 10.958
5.734 5.712 5.676 5.699 5.686 5.674 5.681 5.686 5.664 5.646 5.664 5.659 5.674 5.674 5.656 5.656 5.671 5.659 5.646 5.641 5.664 5.706 5.749 5.679 5.591 5.379 5.084 7.794 8.639 9.131 9.144 5.931 5.739 5.729 5.649 5.616 5.556 5.571 5.579 5.609 5.619 5.624 5.649 5.621 5.639 6.024 5.574 5.264 5.604 5.609 5.544 5.596 5.559 5.549 5.644 5.559 5.601 5.604 5.634 5.614 5.599 5.554 5.589 5.561 5.544 5.616 5.544 5.649 5.751 5.641 4.969 4.386 4.836 5.154 5.116 5.161 5.244 5.286 5.331 5.264 5.241 5.218 5.223 5.229 5.249 5.259 5.272 5.302 5.306 5.279 5.302 5.306 5.304 5.303 5.31 5.351 5.351 5.341 5.386 5.384 5.391 5.406 5.399 5.424 5.439 5.456 5.464 5.481 5.503 5.481 5.509 5.503 5.506 5.534 5.526 5.551 5.559 5.589 5.586 5.576 5.589 5.581 5.611 5.584 5.611 5.644 5.629 5.644 5.666 5.674 5.663 5.654 5.681 5.731 5.759 5.759 5.771 5.796 5.806 5.816 5.821 5.816 5.831 5.829 5.836 5.869 5.851 5.856 5.819 5.826 5.811 5.828 5.808 5.826 5.853 5.851 5.843 5.851 5.856 5.863 5.878 5.853 5.811 5.863 5.851 5.868 5.833 5.843 5.873 5.873 5.911 6.006 6.066 6.031 6.068 6.121 6.143 6.168 6.166 6.201 6.216 6.233 6.233 6.241 6.271 6.273 6.291 6.373 6.386 6.401 6.401 6.411 6.433 6.468 6.476 6.498 6.513 6.561 6.608 6.648 6.711 6.716 6.751 6.781 6.808 6.843 6.846 6.876 6.931 6.943 6.983 6.973 7.003 7.051 7.071 7.088 7.138 7.126 7.148 7.166 7.168 7.188 7.228 7.251 7.273 7.295 7.289 7.328 7.335 7.344 7.36 7.387 7.402 7.405 7.432 7.464 7.476 7.492 7.518 7.556 7.588 7.598 7.613 7.646 7.698 7.718 7.718 7.751 7.756 7.781 7.786 7.793 7.783 7.826 7.828 7.826 7.856 7.861 7.883 7.921 7.921 7.933 7.941 7.998 8.008 7.993 8.041 8.053 8.043 8.046 8.063 8.051 8.061 8.091 8.098 8.113 8.151 8.161 8.183 8.193 8.188 8.208 8.221 8.221 8.248 8.276 8.336 8.441 8.456 8.506 8.566 8.646 8.768 8.753 8.581 8.538 8.516 8.491 8.476 8.468 8.471 8.486 8.511 8.478 8.478 8.488 8.506 8.533 8.496 8.493 8.516 8.523 8.558 8.556 8.576 8.543 8.581 8.561 8.601 8.588 8.626 8.596 8.596 8.596 8.648 8.641 8.648 8.673 8.683 8.688 8.688 8.751 8.718 8.723 8.736 8.753 8.756 8.783 8.788 8.818 8.818 8.853 8.848 8.853 8.878 8.908 8.941 8.973 9.028 9.031 9.061 9.123 9.151 9.151 9.178 9.183 9.293 9.381 9.328 9.236 9.223 9.246 9.223 9.241 9.181 9.151 9.093 9.001 8.931 8.958 9.001 8.976 8.998 9.088 9.003 9.028 9.041 9.011 9.023 9.018 9.018 9.011 9.006 8.996 8.973 8.951 9.033 9.001 8.971 9.006 9.021 9.031 9.001 8.971 9.113 8.963 8.943 8.958 8.958 8.956 8.981 8.951 9.003 9.018 8.998 9.008 9.046 9.023 9.046 9.048 9.053 9.061 9.081 9.088 9.106 9.093 9.108 9.123 9.113 9.128 9.121 9.133 9.146 9.176 9.183 9.196 9.193 9.221 9.226 9.278 9.416 9.356 9.433 9.478 9.478 9.508 9.511 9.536 9.536 9.601 9.616 9.626 9.611 9.676 9.716 9.743 9.671 9.731 9.766 9.768 9.793 9.818 9.823 9.886 9.921 9.948 9.966 10.003 10.036 10.056 10.081 10.123 10.136 10.146 10.178 10.281 10.231 10.268 10.328 10.323 10.356 10.391 10.411 10.456 10.473 10.506 10.528 10.558 10.556 10.583 10.608 10.681 10.756 10.861 10.903 10.963 11.061 11.086 11.146 11.228 11.096 11.023 11.061 11.043 11.036 11.051 11.061 11.053 10.956 10.931
5.662 5.688 5.679 5.651 5.701 5.674 5.669 5.644 5.661 5.661 5.646 5.644 5.626 5.636 5.619 5.646 5.656 5.654 5.654 5.631 5.631 5.626 5.624 5.644 5.654 5.661 5.706 5.696 5.626 5.584 5.629 5.666 5.409 5.501 5.694 5.719 5.624 5.601 5.574 5.604 5.624 5.666 5.726 5.726 5.764 6.201 5.079 5.509 5.554 5.544 5.574 5.539 5.526 5.549 5.564 5.609 5.566 5.611 5.596 5.614 5.559 5.539 5.559 5.611 5.586 5.639 5.649 5.766 5.701 5.194 4.641 4.444 5.086 5.149 5.154 5.196 5.264 5.274 5.269 5.256 5.223 5.193 5.223 5.219 5.226 5.249 5.254 5.275 5.278 5.298 5.282 5.29 5.293 5.305 5.297 5.334 5.356 5.339 5.379 5.386 5.376 5.374 5.414 5.418 5.404 5.424 5.436 5.449 5.464 5.486 5.484 5.489 5.498 5.529 5.511 5.521 5.579 5.561 5.576 5.584 5.611 5.589 5.594 5.621 5.604 5.634 5.636 5.649 5.654 5.661 5.666 5.676 5.741 5.704 5.744 5.769 5.769 5.816 5.791 5.801 5.824 5.841 5.839 5.849 5.834 5.866 5.849 5.856 5.841 5.854 5.833 5.826 5.848 5.843 5.853 5.863 5.856 5.901 5.866 5.853 5.833 5.823 5.818 5.881 5.888 5.876 5.876 5.888 5.883 5.918 5.923 5.943 5.963 5.971 6.018 6.018 6.121 6.173 6.136 6.143 6.201 6.253 6.256 6.253 6.281 6.328 6.306 6.348 6.363 6.403 6.436 6.458 6.446 6.481 6.548 6.508 6.546 6.546 6.593 6.603 6.641 6.698 6.721 6.741 6.763 6.813 6.851 6.883 6.921 6.928 6.958 6.968 6.988 7.006 7.026 7.053 7.066 7.093 7.136 7.163 7.186 7.196 7.213 7.233 7.245 7.29 7.303 7.318 7.337 7.349 7.365 7.395 7.412 7.424 7.442 7.47 7.471 7.512 7.543 7.548 7.573 7.608 7.631 7.668 7.678 7.703 7.711 7.706 7.741 7.763 7.786 7.788 7.836 7.848 7.836 7.853 7.856 7.851 7.891 7.906 7.901 7.938 7.973 7.973 7.983 7.993 8.006 8.033 8.038 8.058 8.038 8.061 8.086 8.098 8.113 8.131 8.133 8.141 8.148 8.176 8.193 8.196 8.203 8.213 8.238 8.323 8.396 8.461 8.446 8.538 8.598 8.686 8.808 8.591 8.518 8.486 8.481 8.466 8.456 8.461 8.473 8.481 8.476 8.426 8.473 8.493 8.503 8.516 8.493 8.491 8.503 8.528 8.523 8.551 8.546 8.561 8.566 8.573 8.578 8.588 8.578 8.561 8.581 8.603 8.618 8.633 8.646 8.663 8.676 8.681 8.728 8.701 8.706 8.698 8.736 8.738 8.768 8.758 8.793 8.786 8.798 8.831 8.823 8.833 8.868 8.888 8.861 8.916 8.951 8.973 8.998 9.051 9.083 9.153 9.176 9.178 9.158 9.263 9.388 9.326 9.263 9.198 9.226 9.256 9.201 9.166 9.118 9.071 8.988 8.996 8.983 8.981 9.051 9.028 9.028 9.038 9.013 9.031 9.008 9.008 9.011 9.008 8.976 8.973 8.931 9.003 9.091 9.011 9.001 8.991 9.023 9.008 8.991 9.061 8.941 8.953 8.953 8.941 8.966 8.971 8.971 8.968 8.981 8.966 9.011 9.031 9.018 9.016 9.063 9.046 9.048 9.066 9.081 9.053 9.076 9.111 9.098 9.121 9.096 9.116 9.111 9.131 9.151 9.161 9.186 9.171 9.186 9.218 9.241 9.298 9.326 9.381 9.443 9.448 9.488 9.491 9.486 9.546 9.611 9.608 9.578 9.583 9.631 9.678 9.713 9.648 9.693 9.701 9.751 9.781 9.793 9.816 9.883 9.876 9.908 9.933 9.988 10.008 10.051 10.053 10.076 10.111 10.136 10.163 10.256 10.221 10.236 10.283 10.298 10.321 10.351 10.358 10.398 10.453 10.451 10.496 10.508 10.536 10.548 10.543 10.593 10.616 10.698 10.811 10.866 10.948 10.981 11.066 11.088 11.176 11.246 11.056 11.023 11.038 11.023 11.073 11.071 11.033 10.988 10.921
5.631 5.62 5.626 5.646 5.646 5.639 5.639 5.661 5.631 5.629 5.594 5.586 5.594 5.579 5.601 5.599 5.579 5.626 5.609 5.624 5.624 5.604 5.621 5.599 5.576 5.579 5.596 5.626 5.639 5.654 5.694 5.694 5.361 4.509 4.816 5.556 5.696 5.661 5.606 5.599 5.651 5.751 5.776 5.846 6.049 6.019 5.431 5.594 5.544 5.549 5.559 5.546 5.509 5.534 5.546 5.624 5.569 5.569 5.569 5.619 5.579 5.606 5.564 5.619 5.651 5.684 5.774 5.724 5.401 4.916 4.451 4.724 5.184 5.219 5.249 5.271 5.334 5.304 5.234 5.211 5.208 5.201 5.222 5.239 5.237 5.239 5.231 5.259 5.266 5.281 5.275 5.31 5.313 5.307 5.294 5.339 5.326 5.336 5.344 5.364 5.381 5.369 5.364 5.376 5.381 5.409 5.411 5.431 5.436 5.451 5.441 5.469 5.498 5.516 5.486 5.519 5.536 5.559 5.579 5.556 5.566 5.561 5.576 5.616 5.619 5.624 5.626 5.649 5.666 5.679 5.661 5.656 5.681 5.706 5.774 5.751 5.771 5.766 5.791 5.814 5.834 5.809 5.829 5.839 5.876 5.861 5.859 5.881 5.821 5.804 5.811 5.836 5.853 5.868 5.856 5.851 5.896 5.863 5.848 5.881 5.881 5.868 5.881 5.891 5.898 5.903 5.913 5.888 5.963 5.978 5.971 6.023 6.013 6.001 6.011 6.018 6.026 6.073 6.016 6.013 6.203 6.241 6.246 6.246 6.293 6.331 6.363 6.428 6.448 6.448 6.476 6.481 6.503 6.498 6.501 6.521 6.568 6.616 6.623 6.661 6.688 6.728 6.723 6.738 6.758 6.791 6.801 6.848 6.851 6.866 6.868 6.943 6.963 6.986 7.021 7.056 7.088 7.096 7.111 7.141 7.173 7.158 7.211 7.226 7.256 7.257 7.267 7.296 7.322 7.342 7.367 7.386 7.422 7.448 7.465 7.483 7.491 7.537 7.551 7.581 7.611 7.621 7.633 7.663 7.678 7.703 7.723 7.736 7.743 7.791 7.791 7.786 7.808 7.811 7.831 7.876 7.891 7.868 7.916 7.906 7.936 7.943 7.973 7.958 7.988 7.996 8.001 8.018 8.038 8.058 8.056 8.066 8.098 8.083 8.101 8.128 8.128 8.161 8.161 8.188 8.193 8.221 8.201 8.233 8.283 8.363 8.398 8.426 8.488 8.558 8.668 8.731 8.701 8.513 8.471 8.493 8.483 8.493 8.446 8.446 8.481 8.463 8.431 8.441 8.461 8.461 8.486 8.466 8.471 8.466 8.496 8.496 8.516 8.571 8.553 8.548 8.566 8.538 8.583 8.571 8.526 8.566 8.583 8.613 8.621 8.621 8.623 8.638 8.663 8.703 8.678 8.668 8.693 8.696 8.721 8.698 8.741 8.761 8.768 8.763 8.778 8.803 8.821 8.813 8.843 8.843 8.838 8.871 8.888 8.898 8.948 8.966 9.003 9.078 9.136 9.151 9.208 9.236 9.268 9.376 9.383 9.278 9.238 9.253 9.231 9.198 9.121 9.076 9.066 9.023 9.011 9.056 9.083 9.018 9.038 9.036 9.018 9.043 9.008 8.983 9.011 8.986 8.981 8.951 9.001 9.051 9.013 9.001 9.011 9.008 8.991 8.946 9.016 8.948 8.956 8.903 8.931 8.931 8.926 8.956 8.978 8.983 8.983 9.001 9.001 9.018 9.013 9.016 9.026 9.028 9.043 9.038 9.063 9.061 9.078 9.083 9.081 9.088 9.091 9.093 9.108 9.128 9.121 9.146 9.161 9.161 9.203 9.236 9.411 9.293 9.398 9.401 9.436 9.451 9.458 9.473 9.506 9.563 9.568 9.558 9.581 9.611 9.641 9.646 9.616 9.653 9.676 9.726 9.783 9.781 9.796 9.826 9.856 9.886 9.896 9.933 9.973 10.026 10.051 10.033 10.068 10.113 10.148 10.171 10.153 10.201 10.241 10.278 10.281 10.293 10.318 10.358 10.403 10.421 10.448 10.483 10.506 10.518 10.533 10.526 10.548 10.586 10.641 10.758 10.841 10.916 10.976 11.001 11.038 11.071 11.186 11.238 11.028 10.998 11.038 11.048 11.051 11.031 10.988 10.923
5.63 5.629 5.611 5.601 5.604 5.596 5.581 5.569 5.571 5.576 5.579 5.584 5.559 5.571 5.544 5.564 5.556 5.556 5.569 5.561 5.581 5.571 5.569 5.561 5.561 5.586 5.571 5.539 5.534 5.521 5.574 5.606 5.574 5.456 5.044 4.634 5.081 5.524 5.649 5.674 5.714 5.734 5.866 6.009 6.181 5.669 5.656 5.544 5.534 5.559 5.536 5.509 5.464 5.579 5.574 5.584 5.579 5.606 5.596 5.651 5.674 5.646 5.641 5.706 5.709 5.589 5.506 5.186 4.931 4.646 4.541 5.084 5.194 5.269 5.251 5.306 5.339 5.271 5.214 5.181 5.188 5.189 5.192 5.237 5.207 5.223 5.239 5.255 5.257 5.281 5.292 5.317 5.3 5.319 5.31 5.319 5.326 5.326 5.336 5.339 5.354 5.361 5.374 5.369 5.366 5.351 5.389 5.411 5.441 5.411 5.429 5.444 5.451 5.506 5.484 5.496 5.494 5.524 5.511 5.521 5.556 5.579 5.574 5.581 5.624 5.649 5.651 5.631 5.646 5.671 5.681 5.696 5.701 5.734 5.764 5.748 5.776 5.781 5.769 5.801 5.826 5.809 5.866 5.856 5.899 5.836 5.859 5.851 5.836 5.859 5.823 5.873 5.836 5.876 5.873 5.908 5.918 5.913 5.923 5.921 5.911 5.906 5.906 5.916 5.906 5.901 5.943 5.913 5.943 5.941 5.963 5.971 5.983 6.001 6.058 6.043 6.076 6.098 6.116 6.108 6.106 6.128 6.136 6.153 6.156 6.286 6.356 6.428 6.476 6.441 6.463 6.503 6.548 6.538 6.566 6.583 6.603 6.616 6.641 6.663 6.686 6.706 6.706 6.746 6.783 6.821 6.858 6.846 6.876 6.863 6.913 6.921 6.946 6.943 6.963 7.036 7.026 7.088 7.116 7.111 7.153 7.163 7.188 7.228 7.247 7.283 7.281 7.292 7.329 7.346 7.358 7.379 7.393 7.429 7.46 7.481 7.493 7.529 7.561 7.554 7.616 7.611 7.636 7.648 7.671 7.701 7.731 7.726 7.748 7.753 7.773 7.808 7.843 7.846 7.838 7.871 7.881 7.903 7.891 7.903 7.916 7.943 7.978 7.971 8.006 8.003 8.016 8.036 8.036 8.056 8.033 8.078 8.058 8.096 8.121 8.143 8.113 8.128 8.158 8.178 8.153 8.216 8.213 8.268 8.321 8.366 8.406 8.481 8.543 8.658 8.708 8.733 8.531 8.471 8.473 8.498 8.481 8.448 8.458 8.446 8.421 8.416 8.431 8.468 8.436 8.453 8.446 8.491 8.471 8.511 8.506 8.526 8.523 8.536 8.536 8.533 8.561 8.538 8.551 8.521 8.538 8.553 8.581 8.593 8.621 8.611 8.626 8.628 8.698 8.678 8.653 8.678 8.686 8.701 8.718 8.733 8.738 8.746 8.751 8.753 8.766 8.786 8.783 8.808 8.843 8.848 8.831 8.856 8.861 8.893 8.901 8.913 9.001 9.031 9.073 9.123 9.196 9.263 9.276 9.286 9.396 9.421 9.271 9.221 9.233 9.256 9.186 9.131 9.106 9.088 9.016 9.011 9.021 9.026 9.038 9.036 9.013 9.051 9.003 9.006 8.996 8.976 8.968 8.978 9.081 8.983 8.988 8.988 8.996 9.016 8.948 9.048 8.901 8.933 8.923 8.918 8.933 8.941 8.963 8.953 8.973 8.963 8.996 8.986 9.003 9.008 9.023 9.031 9.016 9.031 9.026 9.036 9.043 9.076 9.051 9.051 9.073 9.078 9.083 9.096 9.103 9.116 9.128 9.153 9.123 9.171 9.216 9.311 9.286 9.361 9.381 9.403 9.418 9.423 9.453 9.486 9.518 9.523 9.543 9.558 9.603 9.631 9.671 9.591 9.631 9.638 9.696 9.713 9.738 9.768 9.793 9.823 9.861 9.878 9.911 9.943 9.983 9.991 10.018 10.051 10.063 10.121 10.251 10.116 10.188 10.223 10.251 10.243 10.271 10.291 10.323 10.333 10.386 10.408 10.428 10.461 10.501 10.516 10.541 10.571 10.581 10.608 10.633 10.683 10.743 10.868 10.911 10.961 11.013 11.073 11.091 11.218 11.193 10.986 11.011 11.041 11.028 11.038 11.003 10.933
5.614 5.62 5.614 5.621 5.626 5.601 5.581 5.549 5.524 5.511 5.529 5.541 5.506 5.481 5.524 5.521 5.531 5.506 5.509 5.524 5.509 5.516 5.519 5.534 5.541 5.526 5.526 5.516 5.539 5.526 5.531 5.536 5.549 5.584 5.539 5.376 5.134 4.739 4.944 5.446 5.679 5.736 5.919 6.181 5.889 5.374 5.531 5.519 5.524 5.526 5.566 5.514 5.524 5.571 5.591 5.644 5.641 5.671 5.729 5.709 5.779 5.774 5.649 5.481 5.226 4.924 4.651 4.586 4.476 4.569 5.016 5.024 5.144 5.244 5.234 5.231 5.211 5.211 5.171 5.154 5.154 5.153 5.177 5.198 5.206 5.224 5.229 5.257 5.261 5.284 5.265 5.289 5.281 5.319 5.301 5.311 5.339 5.314 5.304 5.341 5.354 5.349 5.346 5.351 5.356 5.359 5.399 5.396 5.416 5.429 5.424 5.401 5.446 5.446 5.453 5.449 5.474 5.546 5.536 5.516 5.529 5.556 5.531 5.549 5.561 5.591 5.624 5.626 5.644 5.656 5.639 5.671 5.716 5.736 5.748 5.761 5.781 5.796 5.816 5.821 5.859 5.849 5.879 5.866 5.871 5.891 5.856 5.849 5.846 5.836 5.846 5.868 5.873 5.858 5.861 5.866 5.893 5.931 5.916 5.911 5.918 5.898 5.893 5.886 5.893 5.866 5.881 5.891 5.931 5.926 5.936 5.976 5.983 5.998 6.038 6.038 6.071 6.118 6.098 6.123 6.146 6.188 6.233 6.236 6.238 6.231 6.296 6.273 6.368 6.353 6.463 6.491 6.536 6.558 6.581 6.591 6.616 6.633 6.631 6.673 6.708 6.698 6.723 6.751 6.771 6.788 6.806 6.853 6.881 6.891 6.886 6.938 6.968 6.976 7.011 7.031 7.051 7.076 7.086 7.096 7.146 7.176 7.181 7.203 7.218 7.245 7.264 7.291 7.315 7.363 7.358 7.392 7.391 7.423 7.433 7.462 7.491 7.522 7.543 7.561 7.601 7.623 7.633 7.666 7.668 7.681 7.728 7.738 7.753 7.761 7.791 7.786 7.786 7.821 7.818 7.866 7.883 7.916 7.863 7.911 7.923 7.933 7.948 7.978 7.973 7.973 7.991 8.026 8.038 8.041 8.068 8.078 8.073 8.106 8.113 8.136 8.128 8.138 8.168 8.158 8.166 8.201 8.243 8.316 8.378 8.391 8.453 8.526 8.611 8.726 8.651 8.556 8.491 8.456 8.458 8.471 8.443 8.446 8.466 8.428 8.416 8.408 8.443 8.448 8.458 8.458 8.431 8.481 8.473 8.506 8.508 8.511 8.526 8.508 8.531 8.521 8.521 8.533 8.528 8.533 8.563 8.573 8.561 8.573 8.608 8.606 8.646 8.641 8.636 8.661 8.658 8.668 8.663 8.681 8.701 8.686 8.731 8.733 8.758 8.746 8.753 8.766 8.788 8.816 8.831 8.841 8.843 8.848 8.826 8.853 8.878 8.908 8.916 8.978 9.058 9.151 9.228 9.223 9.248 9.233 9.286 9.441 9.421 9.286 9.233 9.253 9.246 9.176 9.126 9.071 9.048 9.043 9.041 9.058 9.018 9.023 9.023 9.021 8.991 8.996 8.961 8.948 9.001 9.063 8.996 8.981 8.968 9.001 9.003 8.926 8.988 8.921 8.921 8.933 8.931 8.921 8.936 8.936 8.963 8.958 8.953 8.988 9.003 8.986 9.001 9.008 9.023 9.016 9.001 9.026 9.021 9.046 9.063 9.066 9.048 9.056 9.071 9.068 9.068 9.071 9.081 9.101 9.111 9.111 9.156 9.183 9.243 9.266 9.361 9.358 9.373 9.396 9.423 9.438 9.463 9.496 9.493 9.501 9.508 9.591 9.676 9.588 9.581 9.603 9.633 9.638 9.688 9.706 9.743 9.786 9.816 9.818 9.821 9.896 9.916 9.938 9.938 9.983 9.996 10.043 10.043 10.151 10.083 10.163 10.178 10.218 10.218 10.226 10.246 10.286 10.316 10.346 10.361 10.398 10.418 10.458 10.473 10.503 10.521 10.556 10.603 10.608 10.618 10.626 10.683 10.798 10.871 10.916 10.976 11.036 11.056 11.108 11.233 11.108 10.981 11.006 11.031 11.036 11.018 10.951
5.563 5.58 5.589 5.604 5.581 5.569 5.581 5.549 5.539 5.546 5.499 5.509 5.509 5.466 5.444 5.476 5.506 5.486 5.461 5.466 5.469 5.476 5.474 5.486 5.474 5.459 5.466 5.476 5.499 5.474 5.469 5.459 5.504 5.494 5.494 5.561 5.529 5.154 4.689 4.934 5.011 5.376 5.744 6.016 5.319 5.431 5.481 5.481 5.499 5.506 5.589 5.516 5.601 5.619 5.664 5.721 5.739 5.789 5.744 5.516 5.646 5.734 5.301 4.746 4.396 4.431 4.549 4.536 4.861 4.906 4.984 5.024 5.131 5.194 5.221 5.219 5.156 5.119 5.136 5.144 5.142 5.161 5.184 5.188 5.204 5.197 5.222 5.222 5.232 5.279 5.272 5.265 5.295 5.301 5.289 5.314 5.309 5.321 5.326 5.321 5.324 5.311 5.364 5.351 5.331 5.371 5.364 5.361 5.349 5.378 5.394 5.409 5.426 5.409 5.419 5.456 5.451 5.486 5.464 5.506 5.529 5.529 5.546 5.571 5.571 5.586 5.621 5.636 5.666 5.689 5.721 5.721 5.734 5.761 5.791 5.819 5.824 5.829 5.824 5.844 5.849 5.876 5.871 5.891 5.878 5.859 5.861 5.831 5.826 5.849 5.838 5.866 5.863 5.856 5.841 5.838 5.841 5.838 5.893 5.858 5.866 5.853 5.868 5.863 5.871 5.886 5.891 5.911 5.936 5.971 5.971 5.991 6.003 6.013 6.038 6.028 6.041 6.078 6.133 6.128 6.143 6.183 6.221 6.266 6.281 6.311 6.323 6.318 6.373 6.391 6.408 6.408 6.406 6.438 6.491 6.496 6.593 6.638 6.656 6.678 6.706 6.696 6.738 6.781 6.798 6.816 6.833 6.868 6.876 6.868 6.883 6.926 6.963 6.991 7.021 7.051 7.073 7.068 7.113 7.116 7.148 7.148 7.161 7.191 7.201 7.21 7.249 7.273 7.289 7.342 7.342 7.384 7.393 7.429 7.439 7.466 7.474 7.508 7.526 7.553 7.578 7.628 7.621 7.663 7.686 7.701 7.711 7.741 7.741 7.763 7.786 7.791 7.821 7.823 7.843 7.881 7.883 7.906 7.888 7.911 7.938 7.943 7.933 7.971 7.963 7.991 8.048 8.028 8.036 8.043 8.043 8.058 8.076 8.083 8.121 8.123 8.143 8.146 8.148 8.153 8.178 8.206 8.283 8.378 8.378 8.443 8.496 8.548 8.741 8.718 8.523 8.466 8.456 8.441 8.451 8.458 8.436 8.431 8.443 8.403 8.411 8.456 8.431 8.423 8.443 8.441 8.436 8.443 8.461 8.493 8.501 8.506 8.523 8.516 8.516 8.528 8.523 8.483 8.503 8.541 8.556 8.593 8.573 8.581 8.576 8.616 8.638 8.641 8.616 8.633 8.636 8.673 8.656 8.676 8.661 8.668 8.718 8.701 8.741 8.753 8.786 8.768 8.788 8.798 8.841 8.831 8.871 8.876 8.871 8.838 8.878 8.928 8.898 8.951 9.058 9.133 9.228 9.206 9.206 9.213 9.233 9.281 9.451 9.438 9.253 9.221 9.221 9.228 9.176 9.121 9.113 9.118 9.098 9.058 9.056 9.043 9.033 9.026 8.991 8.946 8.953 8.971 9.068 8.986 9.003 8.973 8.973 8.988 8.921 9.061 8.913 8.933 8.903 8.911 8.943 8.956 8.933 8.941 8.963 8.951 8.968 8.963 8.968 8.998 9.003 9.011 9.008 9.031 9.016 8.993 9.028 9.046 9.046 9.041 9.053 9.038 9.066 9.071 9.061 9.081 9.103 9.088 9.096 9.138 9.181 9.261 9.241 9.301 9.318 9.346 9.361 9.401 9.413 9.436 9.488 9.466 9.471 9.478 9.516 9.591 9.593 9.558 9.601 9.593 9.623 9.673 9.673 9.718 9.753 9.773 9.813 9.788 9.841 9.871 9.923 9.921 9.966 9.986 10.016 10.076 10.053 10.083 10.141 10.166 10.171 10.221 10.206 10.223 10.243 10.283 10.323 10.336 10.333 10.396 10.423 10.458 10.466 10.501 10.526 10.566 10.608 10.601 10.591 10.628 10.658 10.713 10.806 10.883 10.978 10.991 11.016 11.058 11.081 11.186 11.053 10.998 10.993 11.008 10.998 10.988
5.543 5.536 5.561 5.546 5.544 5.529 5.539 5.549 5.534 5.519 5.526 5.524 5.496 5.494 5.444 5.419 5.479 5.461 5.434 5.426 5.454 5.451 5.426 5.434 5.426 5.416 5.416 5.409 5.409 5.414 5.414 5.431 5.464 5.461 5.459 5.481 5.524 5.471 5.504 5.126 4.534 4.691 5.179 5.186 5.149 5.514 5.469 5.449 5.484 5.526 5.529 5.534 5.631 5.689 5.766 5.764 5.506 5.156 5.051 4.759 4.886 5.646 5.326 4.759 4.376 4.699 5.104 5.209 5.066 4.916 4.949 5.046 5.091 5.196 5.189 5.206 5.149 5.106 5.101 5.169 5.121 5.15 5.144 5.172 5.178 5.191 5.207 5.214 5.218 5.244 5.266 5.279 5.279 5.277 5.309 5.329 5.324 5.296 5.321 5.309 5.324 5.324 5.331 5.339 5.351 5.346 5.341 5.351 5.374 5.381 5.384 5.389 5.386 5.356 5.386 5.424 5.429 5.464 5.464 5.469 5.494 5.498 5.494 5.519 5.516 5.564 5.609 5.641 5.681 5.681 5.706 5.741 5.781 5.806 5.829 5.824 5.829 5.846 5.839 5.886 5.886 5.871 5.871 5.859 5.844 5.831 5.826 5.839 5.806 5.809 5.803 5.816 5.826 5.821 5.833 5.851 5.798 5.806 5.828 5.828 5.856 5.871 5.863 5.843 5.878 5.886 5.908 5.916 5.926 5.971 5.978 6.003 6.016 6.038 6.058 6.063 6.061 6.073 6.096 6.108 6.121 6.171 6.191 6.241 6.261 6.311 6.306 6.331 6.376 6.381 6.408 6.401 6.448 6.461 6.491 6.508 6.491 6.538 6.516 6.546 6.538 6.618 6.698 6.758 6.738 6.731 6.811 6.848 6.886 6.906 6.928 6.968 6.993 7.003 7.003 7.036 7.041 7.076 7.103 7.131 7.158 7.198 7.216 7.241 7.248 7.265 7.276 7.296 7.313 7.344 7.367 7.363 7.379 7.392 7.428 7.458 7.47 7.501 7.543 7.567 7.578 7.596 7.608 7.626 7.658 7.676 7.726 7.738 7.726 7.756 7.776 7.801 7.816 7.853 7.831 7.878 7.886 7.896 7.901 7.928 7.921 7.943 7.973 7.968 7.973 7.983 8.011 8.003 8.033 8.063 8.078 8.106 8.088 8.106 8.106 8.106 8.136 8.143 8.136 8.141 8.171 8.221 8.316 8.393 8.396 8.483 8.518 8.663 8.741 8.618 8.466 8.433 8.396 8.426 8.421 8.401 8.426 8.418 8.386 8.391 8.423 8.426 8.426 8.403 8.431 8.441 8.426 8.446 8.473 8.506 8.488 8.476 8.501 8.528 8.523 8.528 8.516 8.491 8.503 8.526 8.561 8.568 8.578 8.588 8.586 8.593 8.608 8.621 8.618 8.611 8.646 8.648 8.656 8.661 8.666 8.676 8.673 8.711 8.711 8.733 8.741 8.751 8.766 8.771 8.826 8.823 8.848 8.836 8.866 8.876 8.881 8.886 8.901 8.923 8.941 9.028 9.038 9.096 9.146 9.196 9.228 9.223 9.238 9.441 9.443 9.291 9.201 9.201 9.201 9.171 9.156 9.168 9.161 9.136 9.068 9.038 9.006 8.983 8.986 8.946 8.991 9.068 9.038 8.993 8.983 8.986 8.981 8.948 8.998 8.933 8.943 8.923 8.926 8.951 8.948 8.961 8.923 8.951 8.931 8.946 8.946 8.976 8.981 9.018 9.011 9.008 9.003 8.998 9.001 9.023 9.016 9.021 9.018 9.051 9.021 9.028 9.048 9.046 9.041 9.076 9.076 9.086 9.121 9.171 9.203 9.236 9.293 9.306 9.321 9.353 9.371 9.393 9.403 9.446 9.446 9.441 9.443 9.493 9.561 9.543 9.541 9.576 9.573 9.631 9.626 9.656 9.708 9.738 9.741 9.778 9.791 9.818 9.848 9.883 9.888 9.921 9.946 9.986 10.061 10.011 10.038 10.093 10.123 10.156 10.156 10.166 10.203 10.238 10.246 10.283 10.296 10.311 10.308 10.398 10.416 10.431 10.471 10.501 10.531 10.566 10.576 10.593 10.616 10.626 10.643 10.673 10.753 10.838 10.901 10.936 10.986 11.026 11.046 11.091 11.198 11.021 11.011 11.001 10.996 10.981
5.581 5.553 5.545 5.508 5.486 5.514 5.501 5.504 5.476 5.491 5.489 5.494 5.474 5.471 5.456 5.454 5.449 5.454 5.421 5.406 5.399 5.424 5.391 5.399 5.416 5.409 5.376 5.356 5.356 5.361 5.359 5.376 5.396 5.396 5.396 5.411 5.439 5.396 5.401 5.424 5.419 5.261 5.064 5.219 5.391 5.491 5.476 5.459 5.469 5.476 5.559 5.571 5.674 5.584 5.379 4.994 4.831 4.404 4.491 4.664 4.569 5.611 5.511 5.361 5.284 5.146 5.131 5.106 5.041 4.986 4.996 5.014 5.051 5.141 5.191 5.136 5.086 5.101 5.101 5.134 5.101 5.133 5.16 5.148 5.161 5.186 5.207 5.2 5.198 5.21 5.217 5.242 5.277 5.292 5.284 5.274 5.294 5.301 5.306 5.309 5.334 5.319 5.351 5.336 5.344 5.364 5.359 5.389 5.359 5.378 5.371 5.381 5.374 5.371 5.369 5.396 5.409 5.394 5.436 5.441 5.456 5.486 5.519 5.551 5.564 5.594 5.596 5.614 5.651 5.696 5.726 5.761 5.766 5.791 5.814 5.839 5.846 5.849 5.851 5.849 5.861 5.854 5.869 5.826 5.826 5.816 5.831 5.821 5.806 5.819 5.848 5.843 5.828 5.803 5.823 5.838 5.808 5.833 5.836 5.843 5.856 5.858 5.873 5.866 5.903 5.896 5.888 5.896 5.941 5.951 5.953 5.988 5.988 6.026 6.033 6.068 6.098 6.131 6.123 6.116 6.181 6.191 6.226 6.238 6.231 6.248 6.281 6.296 6.353 6.393 6.418 6.421 6.428 6.468 6.478 6.521 6.561 6.581 6.588 6.611 6.616 6.646 6.626 6.646 6.648 6.663 6.686 6.808 6.853 6.911 6.913 6.938 6.991 6.996 7.026 7.056 7.073 7.098 7.111 7.123 7.163 7.176 7.181 7.223 7.241 7.261 7.295 7.3 7.323 7.337 7.354 7.377 7.393 7.406 7.424 7.433 7.473 7.482 7.527 7.519 7.584 7.606 7.621 7.631 7.668 7.668 7.718 7.701 7.736 7.781 7.771 7.788 7.816 7.833 7.841 7.868 7.886 7.898 7.911 7.938 7.948 7.953 7.976 7.978 7.973 8.003 8.001 8.006 8.023 8.058 8.066 8.068 8.093 8.133 8.113 8.141 8.138 8.141 8.156 8.141 8.203 8.286 8.343 8.368 8.451 8.496 8.603 8.683 8.711 8.473 8.423 8.411 8.401 8.403 8.398 8.408 8.413 8.406 8.361 8.391 8.393 8.408 8.443 8.428 8.416 8.423 8.446 8.428 8.461 8.483 8.486 8.493 8.473 8.493 8.488 8.491 8.486 8.493 8.523 8.513 8.541 8.528 8.576 8.581 8.596 8.623 8.631 8.616 8.606 8.613 8.598 8.616 8.638 8.646 8.661 8.648 8.668 8.681 8.711 8.703 8.713 8.713 8.773 8.761 8.786 8.821 8.823 8.853 8.853 8.868 8.853 8.846 8.878 8.878 8.893 8.928 8.968 9.043 9.166 9.158 9.216 9.213 9.193 9.241 9.368 9.406 9.261 9.183 9.201 9.186 9.181 9.196 9.176 9.168 9.068 9.031 9.001 8.953 8.923 8.986 9.111 9.026 9.003 9.001 8.971 8.993 8.971 9.006 8.916 8.933 8.908 8.908 8.916 8.946 8.928 8.946 8.923 8.921 8.931 8.946 8.968 8.981 8.986 8.968 8.991 9.001 8.991 9.006 9.008 9.011 9.016 9.018 9.031 9.006 9.043 9.026 9.018 9.048 9.063 9.068 9.076 9.111 9.128 9.221 9.208 9.266 9.296 9.293 9.323 9.341 9.376 9.398 9.433 9.441 9.441 9.436 9.468 9.546 9.493 9.506 9.513 9.571 9.576 9.603 9.618 9.686 9.708 9.733 9.763 9.776 9.793 9.826 9.853 9.873 9.893 9.938 9.946 9.973 9.993 10.028 10.068 10.076 10.113 10.131 10.143 10.171 10.193 10.208 10.233 10.278 10.283 10.308 10.348 10.353 10.378 10.418 10.453 10.498 10.521 10.531 10.546 10.603 10.601 10.646 10.673 10.681 10.731 10.778 10.828 10.881 10.931 10.993 11.028 11.046 11.111 11.118 11.011 10.948 10.988 10.988
5.56 5.533 5.535 5.527 5.53 5.519 5.479 5.514 5.496 5.454 5.431 5.464 5.459 5.426 5.424 5.461 5.449 5.441 5.409 5.389 5.389 5.416 5.391 5.361 5.391 5.381 5.339 5.346 5.349 5.339 5.304 5.326 5.344 5.364 5.374 5.396 5.381 5.386 5.374 5.404 5.409 5.341 5.376 5.379 5.439 5.474 5.449 5.429 5.434 5.494 5.449 5.494 5.381 4.869 4.364 4.281 4.554 4.509 4.531 4.824 5.234 5.629 5.594 5.446 5.309 5.226 5.204 5.159 5.171 5.189 5.189 5.101 5.096 5.134 5.099 5.026 4.986 5.029 5.019 5.056 5.094 5.123 5.16 5.151 5.174 5.139 5.182 5.188 5.19 5.194 5.202 5.238 5.253 5.232 5.241 5.276 5.301 5.299 5.304 5.336 5.319 5.311 5.311 5.289 5.329 5.314 5.326 5.334 5.354 5.336 5.316 5.326 5.364 5.361 5.364 5.366 5.421 5.431 5.444 5.479 5.458 5.476 5.498 5.519 5.556 5.571 5.626 5.628 5.641 5.681 5.711 5.739 5.759 5.781 5.809 5.806 5.849 5.844 5.866 5.871 5.874 5.869 5.854 5.851 5.884 5.849 5.849 5.854 5.844 5.819 5.846 5.838 5.866 5.833 5.846 5.831 5.851 5.831 5.838 5.826 5.838 5.873 5.888 5.886 5.881 5.871 5.888 5.911 5.916 5.953 5.951 5.966 5.993 6.031 6.051 6.078 6.108 6.128 6.133 6.146 6.148 6.196 6.201 6.231 6.246 6.288 6.326 6.346 6.373 6.363 6.373 6.383 6.453 6.498 6.473 6.528 6.538 6.573 6.583 6.588 6.606 6.676 6.683 6.718 6.723 6.731 6.721 6.731 6.731 6.728 6.751 6.826 6.851 6.958 6.976 6.976 7.038 7.083 7.128 7.121 7.161 7.211 7.196 7.228 7.241 7.256 7.279 7.278 7.278 7.292 7.315 7.342 7.369 7.409 7.434 7.474 7.475 7.517 7.523 7.568 7.586 7.583 7.628 7.648 7.648 7.681 7.676 7.711 7.713 7.743 7.771 7.796 7.813 7.821 7.846 7.846 7.868 7.881 7.936 7.923 7.961 7.963 7.981 8.001 8.026 8.011 8.001 8.001 8.036 8.036 8.058 8.051 8.086 8.076 8.088 8.133 8.121 8.151 8.131 8.156 8.223 8.313 8.348 8.403 8.461 8.546 8.666 8.698 8.503 8.413 8.426 8.436 8.426 8.378 8.396 8.441 8.401 8.368 8.373 8.363 8.388 8.388 8.398 8.388 8.416 8.441 8.436 8.433 8.446 8.481 8.478 8.501 8.508 8.483 8.473 8.468 8.476 8.523 8.501 8.556 8.528 8.543 8.576 8.578 8.586 8.596 8.631 8.581 8.581 8.606 8.596 8.628 8.618 8.628 8.648 8.663 8.708 8.678 8.698 8.701 8.741 8.733 8.768 8.761 8.776 8.818 8.828 8.846 8.841 8.836 8.853 8.851 8.841 8.846 8.828 8.843 8.898 9.001 9.158 9.161 9.171 9.178 9.198 9.211 9.238 9.331 9.416 9.288 9.176 9.183 9.201 9.203 9.193 9.163 9.096 9.038 8.981 8.928 8.948 9.063 9.041 8.998 8.998 9.003 8.996 8.968 9.011 8.988 8.923 8.896 8.896 8.916 8.903 8.951 8.918 8.923 8.938 8.941 8.946 8.936 8.978 8.988 8.991 8.996 8.968 8.983 8.968 8.976 8.996 9.003 8.971 9.011 9.016 8.996 9.021 9.023 9.021 9.046 9.043 9.041 9.091 9.138 9.183 9.196 9.256 9.258 9.283 9.296 9.313 9.353 9.401 9.426 9.396 9.388 9.413 9.456 9.508 9.456 9.506 9.513 9.518 9.531 9.601 9.618 9.651 9.683 9.683 9.733 9.756 9.773 9.791 9.811 9.838 9.846 9.888 9.916 10.003 9.998 10.008 10.061 10.061 10.078 10.108 10.101 10.126 10.183 10.181 10.203 10.253 10.243 10.321 10.308 10.318 10.348 10.376 10.426 10.456 10.506 10.501 10.548 10.551 10.571 10.588 10.613 10.636 10.658 10.666 10.703 10.738 10.793 10.881 10.926 10.963 11.051 11.043 11.121 11.096 10.951 10.923 10.951
5.54 5.536 5.506 5.509 5.518 5.533 5.519 5.499 5.491 5.454 5.434 5.441 5.446 5.396 5.394 5.426 5.441 5.414 5.384 5.404 5.409 5.416 5.406 5.366 5.384 5.401 5.344 5.339 5.326 5.319 5.296 5.301 5.284 5.299 5.321 5.341 5.354 5.354 5.344 5.344 5.349 5.324 5.351 5.336 5.396 5.399 5.371 5.364 5.384 5.399 5.381 5.214 4.541 4.294 4.391 4.521 4.761 5.079 5.204 5.141 5.234 5.401 5.511 5.421 5.306 5.276 5.326 5.314 5.251 5.236 5.186 5.144 5.159 5.166 5.149 5.074 4.986 4.969 4.929 5.036 5.085 5.114 5.148 5.139 5.184 5.159 5.211 5.188 5.198 5.186 5.198 5.22 5.214 5.225 5.241 5.261 5.246 5.276 5.256 5.296 5.284 5.279 5.306 5.324 5.336 5.334 5.331 5.329 5.341 5.344 5.346 5.364 5.378 5.418 5.409 5.404 5.404 5.434 5.441 5.436 5.491 5.486 5.494 5.523 5.544 5.579 5.599 5.616 5.621 5.668 5.684 5.711 5.756 5.779 5.814 5.854 5.871 5.846 5.856 5.844 5.854 5.894 5.881 5.866 5.884 5.896 5.869 5.846 5.826 5.861 5.868 5.863 5.848 5.861 5.841 5.838 5.853 5.863 5.831 5.878 5.863 5.883 5.886 5.881 5.866 5.886 5.893 5.931 5.946 5.956 5.963 5.986 6.011 6.028 6.026 6.043 6.068 6.078 6.101 6.131 6.141 6.198 6.216 6.236 6.248 6.281 6.318 6.336 6.358 6.401 6.396 6.438 6.451 6.443 6.488 6.506 6.523 6.556 6.588 6.606 6.618 6.643 6.681 6.701 6.708 6.743 6.753 6.786 6.823 6.818 6.846 6.836 6.838 6.838 6.861 6.861 6.898 6.911 6.951 6.968 7.106 7.211 7.158 7.173 7.221 7.193 7.251 7.277 7.294 7.337 7.351 7.381 7.387 7.426 7.448 7.469 7.501 7.517 7.534 7.554 7.571 7.591 7.628 7.643 7.663 7.706 7.723 7.701 7.726 7.738 7.753 7.763 7.788 7.808 7.841 7.858 7.881 7.881 7.916 7.911 7.928 7.961 7.973 7.993 8.013 8.008 8.041 8.036 8.056 8.043 8.053 8.071 8.086 8.093 8.118 8.118 8.106 8.126 8.168 8.183 8.273 8.343 8.376 8.416 8.503 8.641 8.646 8.581 8.463 8.413 8.393 8.401 8.396 8.408 8.401 8.381 8.363 8.361 8.351 8.398 8.366 8.368 8.403 8.406 8.416 8.451 8.446 8.438 8.471 8.468 8.481 8.491 8.493 8.458 8.431 8.468 8.466 8.503 8.531 8.548 8.551 8.558 8.573 8.586 8.573 8.561 8.561 8.556 8.596 8.611 8.606 8.606 8.643 8.623 8.633 8.661 8.673 8.683 8.686 8.693 8.696 8.738 8.733 8.763 8.781 8.776 8.813 8.821 8.828 8.798 8.838 8.803 8.818 8.816 8.793 8.806 8.873 9.038 9.093 9.131 9.141 9.156 9.173 9.186 9.206 9.211 9.336 9.401 9.256 9.176 9.198 9.233 9.208 9.158 9.086 9.036 8.966 8.953 9.066 9.036 9.001 9.001 8.998 9.006 8.963 9.026 8.926 8.923 8.923 8.898 8.913 8.931 8.931 8.911 8.908 8.936 8.943 8.933 8.923 8.951 8.981 8.988 8.971 8.966 8.981 8.986 8.981 8.993 9.001 8.998 8.976 9.003 9.013 9.031 8.998 9.006 9.026 9.041 9.031 9.043 9.101 9.216 9.168 9.233 9.241 9.243 9.291 9.306 9.336 9.356 9.391 9.376 9.353 9.371 9.456 9.531 9.441 9.458 9.478 9.483 9.538 9.586 9.621 9.603 9.641 9.683 9.686 9.726 9.721 9.766 9.781 9.806 9.816 9.833 9.876 9.973 9.961 9.961 10.013 10.043 10.058 10.061 10.073 10.126 10.141 10.156 10.201 10.221 10.236 10.263 10.296 10.303 10.323 10.358 10.381 10.411 10.453 10.461 10.511 10.523 10.541 10.553 10.581 10.618 10.616 10.608 10.616 10.646 10.701 10.678 10.818 10.866 10.896 10.966 10.998 11.023 11.086 11.026 10.916 10.936
5.538 5.525 5.506 5.509 5.519 5.518 5.498 5.489 5.516 5.506 5.466 5.449 5.444 5.414 5.389 5.399 5.411 5.414 5.369 5.396 5.406 5.381 5.364 5.374 5.381 5.374 5.354 5.306 5.299 5.281 5.261 5.304 5.294 5.301 5.286 5.264 5.304 5.321 5.334 5.326 5.336 5.301 5.336 5.326 5.331 5.294 5.281 5.319 5.261 5.261 5.224 4.714 4.449 4.234 4.681 5.191 5.301 5.201 5.139 5.159 5.159 5.239 5.326 5.404 5.361 5.341 5.394 5.286 5.234 5.179 5.129 5.174 5.141 5.166 5.199 5.181 5.106 5.024 4.941 4.976 4.97 5.066 5.08 5.093 5.133 5.127 5.165 5.173 5.205 5.187 5.189 5.213 5.213 5.197 5.211 5.224 5.229 5.214 5.236 5.266 5.271 5.291 5.311 5.334 5.329 5.384 5.369 5.349 5.378 5.361 5.381 5.366 5.374 5.394 5.411 5.418 5.414 5.434 5.446 5.446 5.474 5.481 5.519 5.511 5.516 5.521 5.549 5.591 5.606 5.649 5.681 5.706 5.774 5.806 5.809 5.831 5.859 5.856 5.861 5.849 5.894 5.881 5.874 5.861 5.849 5.834 5.861 5.841 5.831 5.841 5.848 5.873 5.846 5.853 5.888 5.881 5.856 5.873 5.863 5.868 5.883 5.866 5.881 5.881 5.911 5.896 5.883 5.911 5.938 5.951 5.951 5.966 5.981 5.983 5.996 6.036 6.058 6.096 6.131 6.126 6.171 6.173 6.203 6.248 6.273 6.286 6.328 6.343 6.373 6.408 6.428 6.443 6.478 6.488 6.508 6.526 6.556 6.558 6.573 6.628 6.628 6.631 6.678 6.701 6.723 6.711 6.751 6.781 6.796 6.801 6.856 6.883 6.876 6.901 6.911 6.913 6.936 6.936 6.963 6.983 6.988 6.988 6.998 7.008 7.093 7.191 7.217 7.267 7.335 7.292 7.311 7.337 7.4 7.432 7.484 7.466 7.488 7.513 7.541 7.564 7.59 7.596 7.623 7.641 7.658 7.693 7.716 7.731 7.748 7.753 7.778 7.781 7.786 7.808 7.816 7.828 7.833 7.866 7.896 7.946 7.928 7.983 7.958 7.986 7.983 8.033 8.021 8.041 8.048 8.063 8.068 8.086 8.081 8.108 8.116 8.111 8.118 8.158 8.173 8.236 8.281 8.343 8.406 8.466 8.596 8.688 8.548 8.473 8.433 8.431 8.421 8.398 8.373 8.408 8.391 8.368 8.371 8.378 8.378 8.386 8.416 8.368 8.413 8.421 8.428 8.463 8.448 8.451 8.488 8.473 8.446 8.446 8.463 8.446 8.481 8.466 8.476 8.528 8.528 8.521 8.538 8.548 8.581 8.561 8.568 8.546 8.528 8.543 8.593 8.598 8.586 8.596 8.611 8.613 8.623 8.618 8.618 8.671 8.686 8.698 8.696 8.711 8.711 8.751 8.746 8.783 8.781 8.806 8.793 8.796 8.841 8.816 8.808 8.783 8.781 8.828 8.933 8.986 8.998 9.038 9.121 9.148 9.156 9.166 9.191 9.193 9.206 9.273 9.338 9.231 9.178 9.166 9.213 9.181 9.123 9.081 9.056 9.061 9.023 8.996 8.996 8.998 8.993 8.956 8.961 8.971 8.926 8.891 8.896 8.921 8.931 8.961 8.931 8.933 8.951 8.941 8.943 8.928 8.928 8.956 8.973 8.963 8.961 8.963 8.973 8.961 8.998 8.971 8.968 8.981 8.998 8.986 9.011 9.016 9.001 9.008 9.006 9.028 9.058 9.111 9.148 9.163 9.216 9.233 9.223 9.256 9.273 9.291 9.346 9.378 9.361 9.363 9.378 9.393 9.501 9.401 9.466 9.461 9.478 9.518 9.558 9.583 9.611 9.621 9.653 9.656 9.676 9.708 9.738 9.748 9.786 9.796 9.838 9.881 9.933 9.878 9.948 10.001 10.006 10.013 10.043 10.066 10.091 10.113 10.133 10.156 10.188 10.188 10.231 10.256 10.278 10.296 10.316 10.383 10.393 10.398 10.431 10.456 10.471 10.481 10.506 10.553 10.561 10.556 10.583 10.591 10.593 10.611 10.628 10.648 10.703 10.816 10.851 10.921 10.971 10.981 11.018 11.068 10.941 10.921
5.533 5.504 5.49 5.491 5.504 5.509 5.506 5.511 5.494 5.496 5.496 5.461 5.454 5.451 5.431 5.409 5.409 5.416 5.409 5.351 5.376 5.379 5.369 5.341 5.349 5.364 5.351 5.341 5.334 5.299 5.234 5.259 5.259 5.286 5.306 5.299 5.279 5.289 5.304 5.299 5.291 5.316 5.339 5.354 5.304 5.246 5.246 5.251 5.201 5.234 5.056 4.459 4.251 4.361 5.131 5.264 5.229 5.149 5.054 5.129 5.126 5.271 5.331 5.336 5.339 5.271 5.246 5.256 5.196 5.216 5.164 5.151 5.196 5.126 5.184 5.221 5.211 5.171 5.076 5.038 4.941 4.986 4.992 5.065 5.116 5.136 5.162 5.131 5.131 5.145 5.164 5.162 5.192 5.211 5.206 5.211 5.244 5.249 5.251 5.274 5.291 5.294 5.339 5.314 5.356 5.349 5.404 5.351 5.356 5.389 5.356 5.378 5.361 5.381 5.364 5.386 5.416 5.421 5.441 5.434 5.446 5.421 5.458 5.491 5.531 5.529 5.561 5.586 5.628 5.636 5.701 5.753 5.759 5.801 5.819 5.829 5.831 5.839 5.864 5.869 5.849 5.831 5.826 5.831 5.844 5.841 5.854 5.844 5.831 5.839 5.846 5.853 5.876 5.843 5.871 5.873 5.858 5.886 5.871 5.866 5.878 5.881 5.873 5.898 5.888 5.908 5.878 5.906 5.896 5.916 5.928 5.936 5.958 6.013 6.051 6.051 6.033 6.076 6.118 6.153 6.188 6.171 6.208 6.246 6.291 6.296 6.308 6.356 6.358 6.408 6.436 6.446 6.463 6.508 6.513 6.543 6.573 6.583 6.606 6.631 6.631 6.641 6.681 6.708 6.698 6.703 6.761 6.753 6.791 6.776 6.798 6.826 6.851 6.853 6.898 6.908 6.946 6.976 7.003 7.043 7.086 7.076 7.106 7.123 7.101 7.091 7.127 7.148 7.17 7.227 7.273 7.342 7.347 7.407 7.483 7.469 7.469 7.467 7.486 7.52 7.558 7.597 7.623 7.631 7.668 7.711 7.718 7.713 7.736 7.748 7.786 7.793 7.808 7.838 7.856 7.851 7.881 7.893 7.906 7.896 7.928 7.946 7.986 8.003 8.003 8.023 8.031 8.043 8.058 8.068 8.068 8.078 8.088 8.126 8.116 8.126 8.136 8.188 8.221 8.278 8.296 8.368 8.421 8.498 8.641 8.606 8.456 8.441 8.391 8.383 8.396 8.386 8.363 8.378 8.341 8.346 8.361 8.371 8.346 8.363 8.378 8.356 8.358 8.401 8.436 8.413 8.416 8.406 8.433 8.446 8.438 8.451 8.456 8.441 8.463 8.481 8.513 8.528 8.508 8.538 8.533 8.543 8.551 8.546 8.551 8.578 8.563 8.568 8.578 8.591 8.576 8.633 8.641 8.623 8.631 8.608 8.638 8.646 8.661 8.663 8.686 8.721 8.718 8.736 8.746 8.753 8.753 8.776 8.753 8.771 8.793 8.821 8.776 8.768 8.791 8.896 8.931 8.943 8.901 8.943 9.031 9.091 9.096 9.146 9.183 9.191 9.221 9.208 9.296 9.368 9.233 9.163 9.181 9.196 9.153 9.123 9.091 9.083 9.066 9.021 9.008 9.008 8.976 8.983 8.936 8.948 8.923 8.918 8.926 8.951 8.931 8.923 8.931 8.923 8.946 8.933 8.956 8.946 8.963 8.958 8.938 8.941 8.956 8.958 8.941 8.988 8.958 8.971 8.983 8.983 8.978 8.998 8.988 8.986 9.001 9.006 9.023 9.038 9.056 9.163 9.126 9.193 9.218 9.211 9.231 9.251 9.256 9.308 9.348 9.351 9.338 9.371 9.418 9.438 9.388 9.423 9.438 9.446 9.476 9.533 9.553 9.591 9.588 9.638 9.636 9.651 9.688 9.713 9.736 9.741 9.781 9.818 9.851 9.953 9.946 9.936 9.973 9.991 9.998 10.016 10.033 10.061 10.096 10.083 10.128 10.153 10.176 10.188 10.233 10.258 10.266 10.296 10.323 10.366 10.363 10.391 10.401 10.426 10.466 10.478 10.521 10.546 10.551 10.563 10.568 10.573 10.583 10.581 10.611 10.603 10.638 10.741 10.831 10.883 10.896 10.953 10.961 10.986 11.053 10.938
5.499 5.496 5.465 5.478 5.501 5.505 5.491 5.494 5.476 5.489 5.491 5.466 5.444 5.459 5.446 5.424 5.394 5.404 5.416 5.396 5.359 5.371 5.381 5.369 5.331 5.329 5.334 5.321 5.329 5.329 5.296 5.266 5.231 5.256 5.251 5.301 5.314 5.299 5.296 5.276 5.309 5.336 5.329 5.329 5.311 5.244 5.201 5.196 5.204 5.169 4.901 4.416 4.389 4.751 5.179 5.211 5.176 5.136 5.164 5.201 5.224 5.234 5.239 5.241 5.216 5.156 5.224 5.179 5.224 5.224 5.229 5.221 5.226 5.194 5.229 5.184 5.181 5.171 5.181 5.153 5.071 4.975 4.914 4.969 5.025 5.105 5.123 5.128 5.145 5.173 5.162 5.177 5.214 5.219 5.209 5.224 5.234 5.249 5.264 5.276 5.284 5.261 5.289 5.326 5.339 5.311 5.349 5.351 5.356 5.376 5.366 5.374 5.359 5.364 5.361 5.374 5.374 5.389 5.411 5.436 5.436 5.459 5.469 5.494 5.491 5.521 5.546 5.576 5.644 5.651 5.711 5.736 5.759 5.771 5.824 5.836 5.826 5.849 5.844 5.856 5.851 5.851 5.841 5.861 5.829 5.826 5.836 5.859 5.839 5.846 5.856 5.846 5.846 5.836 5.839 5.851 5.876 5.881 5.876 5.849 5.884 5.866 5.884 5.904 5.899 5.899 5.901 5.881 5.914 5.934 5.954 5.986 5.981 5.986 6.014 6.009 6.066 6.079 6.101 6.141 6.141 6.151 6.216 6.246 6.296 6.289 6.311 6.356 6.356 6.399 6.396 6.429 6.469 6.466 6.496 6.544 6.556 6.586 6.561 6.586 6.624 6.641 6.644 6.649 6.671 6.714 6.724 6.734 6.749 6.764 6.786 6.811 6.834 6.859 6.876 6.911 6.946 6.944 6.984 6.999 7.039 7.086 7.119 7.124 7.161 7.156 7.224 7.234 7.23 7.247 7.268 7.301 7.344 7.346 7.385 7.408 7.465 7.476 7.535 7.54 7.581 7.56 7.606 7.616 7.646 7.666 7.694 7.739 7.744 7.761 7.764 7.796 7.809 7.806 7.831 7.879 7.889 7.901 7.914 7.901 7.934 7.941 7.954 7.959 7.961 8.001 8.031 8.014 8.071 8.084 8.089 8.086 8.104 8.114 8.134 8.114 8.186 8.239 8.256 8.266 8.324 8.381 8.481 8.586 8.689 8.484 8.461 8.401 8.406 8.364 8.371 8.366 8.374 8.354 8.336 8.349 8.371 8.381 8.361 8.356 8.361 8.366 8.386 8.408 8.421 8.433 8.403 8.411 8.436 8.438 8.461 8.453 8.456 8.458 8.486 8.483 8.501 8.518 8.516 8.511 8.543 8.538 8.543 8.548 8.561 8.553 8.561 8.568 8.581 8.593 8.613 8.593 8.618 8.618 8.603 8.593 8.623 8.633 8.653 8.678 8.688 8.696 8.703 8.721 8.706 8.713 8.726 8.756 8.758 8.738 8.726 8.741 8.756 8.753 8.876 8.931 8.916 8.893 8.881 8.936 8.926 8.971 9.038 9.101 9.151 9.186 9.206 9.201 9.221 9.336 9.371 9.241 9.121 9.206 9.206 9.183 9.111 9.078 9.106 9.071 9.026 8.993 8.948 8.971 8.951 8.948 8.901 8.923 8.926 8.926 8.943 8.953 8.933 8.916 8.921 8.931 8.956 8.946 8.976 8.958 8.941 8.948 8.963 8.941 8.968 8.981 8.973 8.953 8.978 8.973 8.968 8.993 8.983 8.983 9.001 9.001 9.023 9.058 9.086 9.101 9.156 9.213 9.198 9.231 9.231 9.238 9.296 9.318 9.303 9.333 9.336 9.363 9.416 9.343 9.416 9.413 9.426 9.473 9.473 9.511 9.546 9.551 9.606 9.616 9.633 9.658 9.691 9.738 9.731 9.768 9.813 9.841 9.953 9.843 9.928 9.938 9.946 9.946 9.988 10.008 10.038 10.083 10.078 10.116 10.123 10.143 10.178 10.211 10.208 10.248 10.246 10.306 10.326 10.336 10.363 10.378 10.403 10.433 10.436 10.461 10.488 10.531 10.526 10.543 10.541 10.523 10.548 10.566 10.591 10.558 10.598 10.681 10.776 10.853 10.843 10.888 10.941 10.948 11.018 11.078
