ncols 499
nrows 32
xllcorner    248000
yllcorner    134670
cellsize     2
NODATA_value -9999
2.525 2.503 2.495 2.453 2.41 2.38 2.368 2.592 2.875 2.57 2.32 2.335 2.372 2.305 2.307 2.3 2.347 2.378 2.332 2.358 2.347 2.38 2.413 2.37 2.365 2.37 2.4 2.283 2.245 2.217 2.23 2.215 2.23 2.277 2.277 2.305 2.31 2.295 2.29 2.27 2.233 2.227 2.2 2.195 2.22 2.19 2.21 2.234 2.234 2.265 2.272 2.256 2.275 2.281 2.304 2.305 2.322 2.317 2.28 2.262 2.277 2.271 2.305 2.366 2.429 2.49 2.563 2.582 2.563 2.512 2.464 2.463 2.391 2.292 2.175 1.973 1.908 1.964 1.84 1.9 2.336 3.118 3.337 3.431 3.87 4.681 5.478 5.702 5.299 4.764 4.28 3.986 3.83 3.768 3.721 3.711 3.689 3.704 3.679 3.426 3.139 2.576 2.299 2.189 2.041 2.034 2.141 2.194 2.169 2.081 2.011 1.964 1.906 1.878 1.814 1.741 1.663 1.604 1.517 1.427 1.326 1.237 1.124 0.979 0.84 0.707 0.548 0.377 0.105 -0.347 -0.46 -0.493 -0.488 -0.498 -0.521 -0.494 -0.392 0.021 0.445 0.72 0.949 1.089 1.247 1.372 1.498 1.617 1.741 1.868 2.123 2.438 2.993 3.611 4.036 4.454 4.959 5.374 5.039 4.194 3.641 3.531 3.456 2.661 2.281 2.531 2.959 2.899 2.886 2.894 2.904 2.939 3.044 3.161 3.304 3.341 3.286 3.254 3.221 3.191 3.164 3.116 3.094 3.099 3.049 3.019 3.026 3.046 3.069 3.059 3.076 3.079 3.089 3.071 3.094 3.109 3.126 3.136 3.156 3.171 3.199 3.174 3.211 3.214 3.219 3.219 3.239 3.231 3.231 3.224 3.229 3.231 3.249 3.294 3.314 3.346 3.339 3.376 3.381 3.304 3.154 2.969 2.771 2.581 2.389 2.276 2.189 2.156 2.171 2.166 2.209 2.286 2.331 2.394 2.442 2.52 2.585 2.632 2.67 2.704 2.764 2.809 2.82 2.793 2.763 2.712 2.637 2.533 2.412 2.312 2.259 2.236 2.231 2.213 2.232 2.274 2.279 2.284 2.291 2.216 2.244 2.204 2.239 2.126 2.234 2.031 1.736 1.761 2.011 1.976 1.964 1.804 1.776 1.649 1.886 1.836 2.006 2.144 2.161 2.204 2.264 2.306 2.299 2.254 2.221 2.171 2.131 2.124 2.134 2.184 2.154 2.129 2.171 2.154 2.186 2.196 2.239 2.241 2.259 2.279 2.286 2.281 2.316 2.321 2.341 2.376 2.424 2.416 2.464 2.469 2.504 2.486 2.509 2.521 2.554 2.544 2.566 2.569 2.569 2.576 2.614 2.646 2.689 2.774 2.841 2.899 2.936 2.961 2.989 2.954 2.921 2.836 2.744 2.401 2.316 2.464 2.509 2.549 2.541 2.481 2.531 2.524 2.521 2.524 2.496 2.469 2.426 2.344 2.249 2.216 2.271 2.334 2.384 2.314 2.331 2.346 2.351 2.344 2.383 2.35 2.397 2.476 2.512 2.648 2.826 3.127 3.977 5.076 5.885 5.766 5.986 5.317 5.285 5.859 6.406 6.484 6.501 6.451 6.479 6.556 6.604 6.554 6.476 6.401 6.396 6.409 6.381 6.441 6.441 6.484 6.479 6.456 6.474 6.554 6.569 6.616 6.656 6.694 6.724 6.746 6.739 6.711 6.699 6.646 6.524 6.539 6.176 5.851 5.229 4.821 4.804 4.781 4.896 5.459 5.604 5.749 5.889 5.966 6.009 6.154 6.436 6.756 6.366 5.881 5.839 5.886 5.766 5.774 5.646 5.451 5.276 5.206 5.259 5.341 5.249 5.244 5.269 5.236 5.374 5.529 4.811 3.871 3.916 3.904 3.856 3.889 3.944 3.884 3.846 3.881 3.786 3.829 3.894 3.839 3.811 4.121 4.214 4.289 4.394 4.754 4.299 3.809 3.731 3.844 3.904 3.934 3.884 5.539 5.571 3.829 3.751 4.736 5.101 5.674 4.734 5.489 5.324 4.636 4.771 4.706 4.671 4.674 4.696 4.689 4.756 5.604 4.936 4.811 4.804 4.831 4.824 4.806 4.791 4.776 4.791 4.781 4.716 4.721 4.774 4.794 4.829
2.71 2.652 2.615 2.595 2.545 2.537 2.525 2.48 2.74 2.855 2.418 2.382 2.433 2.375 2.315 2.337 2.35 2.352 2.332 2.35 2.347 2.332 2.375 2.385 2.372 2.392 2.435 2.34 2.352 2.34 2.303 2.29 2.322 2.39 2.327 2.347 2.307 2.287 2.287 2.267 2.283 2.25 2.225 2.218 2.233 2.238 2.252 2.263 2.287 2.298 2.296 2.298 2.321 2.385 2.426 2.438 2.416 2.389 2.386 2.384 2.399 2.366 2.418 2.506 2.579 2.65 2.743 2.771 2.734 2.648 2.58 2.517 2.451 2.336 2.214 2.05 1.921 1.927 1.835 1.898 2.465 3.149 3.385 3.5 3.997 4.792 5.585 5.631 5.166 4.694 4.251 3.951 3.837 3.779 3.706 3.676 3.659 3.621 3.691 3.671 3.661 2.894 2.261 2.139 2.041 2.076 2.224 2.334 2.284 2.141 2.054 2.019 1.956 1.88 1.861 1.78 1.751 1.663 1.592 1.51 1.415 1.315 1.213 1.062 0.919 0.785 0.649 0.482 0.17 -0.417 -0.476 -0.462 -0.474 -0.485 -0.497 -0.477 -0.398 -0.188 0.291 0.628 0.836 1.002 1.151 1.285 1.434 1.553 1.691 1.814 1.984 2.28 2.793 3.291 3.821 4.289 4.796 5.316 5.236 4.471 3.776 3.579 3.564 2.896 2.304 2.451 2.929 2.881 2.851 2.836 2.829 2.869 2.959 3.096 3.241 3.314 3.284 3.274 3.239 3.211 3.179 3.149 3.131 3.119 3.091 3.071 3.031 3.064 3.069 3.084 3.101 3.101 3.086 3.114 3.111 3.141 3.124 3.161 3.186 3.194 3.206 3.216 3.209 3.231 3.231 3.236 3.239 3.266 3.246 3.231 3.216 3.219 3.244 3.286 3.311 3.306 3.336 3.331 3.359 3.296 3.201 3.021 2.821 2.609 2.459 2.286 2.189 2.166 2.169 2.176 2.211 2.256 2.301 2.359 2.426 2.496 2.534 2.539 2.619 2.659 2.686 2.721 2.736 2.729 2.675 2.618 2.528 2.419 2.321 2.263 2.215 2.19 2.199 2.211 2.224 2.219 2.221 2.226 2.244 2.261 2.206 2.206 2.074 2.136 2.211 1.844 1.696 1.889 1.731 1.771 1.784 1.719 1.844 1.634 1.776 1.816 1.886 2.081 2.096 2.084 2.134 2.064 2.054 2.051 2.041 2.054 2.036 2.049 2.041 2.076 2.131 2.184 2.224 2.219 2.264 2.259 2.261 2.294 2.299 2.314 2.309 2.341 2.386 2.374 2.386 2.421 2.454 2.494 2.531 2.514 2.551 2.574 2.564 2.576 2.611 2.636 2.649 2.681 2.719 2.774 2.821 2.869 2.904 2.971 2.984 3.029 3.084 3.081 3.099 3.061 3.001 2.899 2.806 2.456 2.339 2.506 2.559 2.624 2.614 2.631 2.624 2.636 2.609 2.606 2.579 2.521 2.481 2.501 2.451 2.294 2.241 2.221 2.294 2.459 2.596 2.429 2.319 2.301 2.297 2.314 2.323 2.356 2.415 2.503 2.614 2.863 4.29 5.043 6.159 5.983 5.9 5.484 5.243 5.854 6.381 6.461 6.486 6.479 6.486 6.541 6.584 6.571 6.511 6.471 6.376 6.414 6.464 6.481 6.486 6.489 6.516 6.486 6.509 6.581 6.601 6.616 6.679 6.694 6.751 6.756 6.764 6.761 6.721 6.664 6.536 6.371 5.991 5.374 4.996 4.899 4.801 4.876 5.304 5.639 5.884 5.849 5.884 5.984 6.081 6.606 6.889 7.089 6.334 5.876 5.961 5.851 5.856 5.859 5.674 5.526 5.329 5.231 5.166 5.136 5.039 5.099 5.161 5.521 6.004 5.991 5.464 4.026 3.899 4.056 3.914 3.921 3.846 3.821 3.881 3.911 3.796 3.854 3.931 3.886 3.986 4.439 4.331 4.371 4.309 4.536 4.331 3.946 3.854 3.896 3.941 3.794 3.834 5.519 6.546 3.949 3.861 4.436 7.049 5.781 4.831 5.336 4.791 4.664 4.834 4.709 4.696 4.701 4.694 4.691 4.834 5.634 4.904 4.834 4.854 4.806 4.811 4.794 4.761 4.766 5.124 5.394 4.724 4.744 4.781 4.804 4.816
2.812 2.753 2.743 2.773 2.663 2.652 2.673 2.68 2.65 2.577 2.553 2.46 2.505 2.465 2.418 2.428 2.415 2.415 2.412 2.415 2.43 2.415 2.46 2.497 2.443 2.473 2.495 2.43 2.4 2.388 2.368 2.385 2.362 2.385 2.385 2.37 2.357 2.35 2.335 2.337 2.327 2.35 2.345 2.328 2.337 2.33 2.307 2.343 2.363 2.372 2.384 2.398 2.446 2.505 2.548 2.559 2.53 2.5 2.488 2.491 2.523 2.546 2.601 2.681 2.758 2.91 2.99 2.99 2.912 2.747 2.658 2.597 2.512 2.375 2.229 2.179 2.001 1.921 1.861 1.901 2.39 3.198 3.424 3.569 4.124 4.906 5.657 5.542 5.057 4.607 4.196 3.915 3.855 3.771 3.734 3.676 3.521 3.459 3.589 3.234 2.876 2.359 2.196 2.124 2.031 2.181 2.349 2.781 2.484 2.206 2.099 2.069 1.994 1.943 1.884 1.859 1.813 1.741 1.654 1.57 1.488 1.398 1.258 1.108 0.993 0.841 0.715 0.563 0.307 -0.285 -0.493 -0.476 -0.541 -0.489 -0.499 -0.523 -0.436 -0.275 0.11 0.491 0.727 0.926 1.058 1.22 1.362 1.511 1.628 1.738 1.861 2.126 2.715 3.198 3.788 4.134 4.559 5.304 5.331 4.616 3.941 3.581 3.596 3.091 2.361 2.454 2.861 2.826 2.824 2.819 2.776 2.769 2.861 3.006 3.171 3.291 3.324 3.296 3.294 3.251 3.219 3.174 3.186 3.154 3.146 3.096 3.081 3.064 3.079 3.089 3.099 3.114 3.101 3.116 3.134 3.154 3.159 3.186 3.199 3.206 3.249 3.216 3.221 3.246 3.244 3.244 3.256 3.254 3.264 3.239 3.211 3.206 3.249 3.271 3.316 3.306 3.304 3.336 3.316 3.284 3.201 3.066 2.846 2.641 2.469 2.296 2.196 2.159 2.164 2.159 2.201 2.194 2.246 2.309 2.371 2.424 2.476 2.521 2.576 2.614 2.606 2.619 2.649 2.641 2.569 2.491 2.406 2.306 2.231 2.171 2.144 2.136 2.191 2.161 2.254 2.194 2.164 2.189 2.126 2.194 2.211 2.184 2.191 2.189 1.856 1.819 1.829 1.741 1.924 2.019 1.784 2.051 1.824 1.686 1.699 1.791 1.791 1.936 1.944 1.914 1.941 1.926 1.926 1.934 1.934 1.971 2.034 2.069 2.136 2.186 2.231 2.251 2.286 2.286 2.314 2.326 2.329 2.349 2.361 2.376 2.394 2.391 2.456 2.429 2.474 2.499 2.489 2.499 2.531 2.566 2.579 2.639 2.601 2.631 2.679 2.726 2.804 2.861 2.931 2.946 2.961 2.971 3.011 3.051 3.151 3.169 3.216 3.259 3.169 3.126 3.061 2.951 2.856 2.456 2.441 2.676 2.686 2.716 2.764 2.761 2.751 2.729 2.724 2.709 2.709 2.636 2.566 2.521 2.509 2.461 2.451 2.276 2.229 2.261 2.504 2.519 2.534 2.559 2.35 2.375 2.347 2.346 2.36 2.422 2.499 2.563 3.896 4.974 5.957 5.787 6.017 5.536 5.23 5.826 6.316 6.361 6.429 6.469 6.506 6.576 6.609 6.611 6.504 6.494 6.446 6.459 6.506 6.496 6.506 6.534 6.489 6.539 6.576 6.609 6.609 6.661 6.686 6.716 6.761 6.756 6.774 6.809 6.751 6.686 6.541 6.229 5.836 5.194 5.549 5.744 5.179 5.169 5.879 6.289 6.229 6.086 5.971 5.966 6.176 6.446 6.511 6.329 6.011 5.939 5.939 5.864 5.814 5.749 5.544 5.534 5.399 5.284 5.106 5.026 4.896 4.809 4.871 5.796 6.361 5.941 4.971 3.826 3.926 3.921 3.994 3.861 3.921 3.846 3.854 3.889 3.871 3.879 3.991 3.921 4.059 4.226 4.154 4.066 4.084 3.991 3.929 3.986 3.894 3.819 3.784 3.776 3.839 5.601 4.909 4.061 3.914 4.139 5.786 5.666 4.831 5.954 4.621 4.634 4.829 4.744 4.696 4.706 4.689 4.689 4.931 5.554 4.871 4.839 4.824 4.794 4.791 4.779 4.771 4.759 5.286 5.329 4.734 4.774 4.799 4.804 4.804
3.065 2.975 2.9 2.845 2.763 2.75 2.727 2.775 2.688 2.673 2.697 2.682 2.615 2.65 2.635 2.588 2.585 2.562 2.6 2.585 2.59 2.618 2.64 2.65 2.688 2.645 2.635 2.628 2.467 2.45 2.457 2.46 2.457 2.483 2.487 2.477 2.485 2.483 2.46 2.45 2.45 2.438 2.447 2.407 2.386 2.427 2.417 2.479 2.507 2.526 2.568 2.581 2.607 2.644 2.679 2.706 2.657 2.61 2.621 2.661 2.714 2.79 2.865 2.992 3.061 3.19 3.25 3.246 3.136 2.93 2.755 2.649 2.527 2.449 2.306 2.239 2.108 1.966 1.933 1.911 2.511 3.273 3.476 3.659 4.269 5.099 5.719 5.505 4.958 4.515 4.155 3.932 3.841 3.764 3.714 3.636 3.119 3.199 2.839 2.574 2.519 2.341 2.201 2.116 2.101 2.261 2.646 3.414 2.729 2.324 2.169 2.096 2.011 1.963 1.928 1.884 1.844 1.778 1.727 1.677 1.554 1.459 1.32 1.195 1.101 0.956 0.798 0.642 0.43 0.104 -0.343 -0.491 -0.561 -0.542 -0.525 -0.498 -0.468 -0.352 -0.017 0.404 0.628 0.821 0.976 1.113 1.258 1.417 1.536 1.658 1.813 2.088 2.524 3.076 3.624 4.053 4.446 5.044 5.339 4.779 4.096 3.646 3.591 3.424 2.589 2.326 2.739 2.856 2.784 2.776 2.749 2.736 2.799 2.936 3.089 3.281 3.351 3.349 3.299 3.274 3.264 3.226 3.201 3.196 3.169 3.149 3.101 3.096 3.111 3.101 3.109 3.114 3.134 3.141 3.154 3.149 3.191 3.209 3.201 3.206 3.221 3.224 3.234 3.226 3.236 3.254 3.256 3.256 3.241 3.226 3.221 3.214 3.234 3.266 3.274 3.301 3.309 3.304 3.306 3.304 3.236 3.096 2.906 2.696 2.519 2.359 2.239 2.174 2.154 2.161 2.174 2.186 2.229 2.249 2.319 2.346 2.424 2.461 2.516 2.531 2.561 2.559 2.554 2.504 2.424 2.346 2.259 2.201 2.141 2.101 2.074 2.071 2.064 2.086 2.161 2.119 2.094 2.141 2.224 2.279 2.171 1.959 1.766 1.689 1.799 1.781 1.856 1.674 1.666 1.654 1.774 1.861 1.844 1.671 1.641 1.674 1.751 1.789 1.839 1.849 1.881 1.891 1.969 2.049 2.079 2.106 2.119 2.179 2.176 2.256 2.306 2.316 2.311 2.354 2.376 2.386 2.411 2.404 2.441 2.496 2.439 2.454 2.474 2.491 2.489 2.561 2.546 2.546 2.586 2.599 2.611 2.629 2.681 2.741 2.791 2.889 2.971 2.984 3.064 3.121 3.136 3.129 3.156 3.171 3.219 3.281 3.304 3.336 3.249 3.144 3.079 2.986 2.789 2.564 2.674 2.779 2.784 2.796 2.821 2.854 2.844 2.844 2.824 2.829 2.804 2.751 2.689 2.599 2.571 2.476 2.489 2.419 2.274 2.264 2.259 2.279 2.256 2.284 2.347 2.271 2.351 2.302 2.31 2.327 2.341 2.429 3.432 4.94 5.801 5.694 5.841 5.47 5.299 5.814 6.269 6.311 6.414 6.491 6.566 6.559 6.564 6.596 6.546 6.539 6.514 6.514 6.546 6.586 6.551 6.601 6.579 6.621 6.666 6.639 6.629 6.661 6.744 6.771 6.789 6.806 6.816 6.854 6.831 6.659 6.471 6.161 5.684 5.184 5.259 4.944 5.279 5.666 6.331 6.619 6.694 6.389 6.084 5.981 6.104 6.086 6.094 5.866 5.839 5.921 5.996 5.866 5.871 5.716 5.526 5.434 5.366 5.266 5.226 5.051 4.884 4.709 4.584 4.601 5.084 4.666 4.206 3.896 3.954 4.034 3.951 3.936 3.979 3.856 3.899 4.014 3.954 3.871 3.911 3.959 3.864 4.001 3.956 3.909 3.959 3.891 3.886 3.846 3.901 3.881 3.974 3.884 5.116 5.769 6.129 3.876 3.841 3.804 4.019 4.479 5.041 5.521 4.589 4.609 4.764 4.789 4.701 4.701 4.686 4.669 5.039 5.619 5.114 4.979 4.859 4.809 4.779 4.759 4.731 4.731 5.359 5.199 4.749 4.771 4.796 4.794 4.796
3.307 3.245 3.16 3.098 3.065 3.025 2.97 2.922 2.865 2.815 2.83 2.807 2.75 2.747 2.737 2.703 2.693 2.74 2.705 2.705 2.783 2.75 2.745 2.797 2.775 2.71 2.737 2.81 2.505 2.557 2.567 2.602 2.608 2.622 2.635 2.605 2.587 2.592 2.612 2.64 2.595 2.59 2.592 2.569 2.592 2.591 2.634 2.68 2.713 2.737 2.786 2.811 2.832 2.874 2.888 2.898 2.887 2.872 2.859 2.909 2.971 3.056 3.07 3.187 3.284 3.378 3.404 3.324 3.248 3.049 2.865 2.718 2.586 2.527 2.485 2.361 2.248 2.012 1.895 1.954 2.658 3.339 3.528 3.749 4.411 5.26 5.745 5.425 4.903 4.492 4.127 3.939 3.829 3.751 3.706 3.624 3.104 2.766 2.901 3.351 3.361 2.689 2.191 2.096 2.216 2.499 3.279 3.736 3.261 2.519 2.336 2.149 2.084 2.029 1.954 1.902 1.889 1.842 1.786 1.7 1.616 1.517 1.407 1.291 1.163 1.052 0.899 0.722 0.522 0.329 -0.096 -0.541 -0.541 -0.521 -0.545 -0.538 -0.495 -0.419 -0.153 0.237 0.521 0.716 0.881 0.995 1.146 1.277 1.421 1.588 1.737 1.894 2.336 2.888 3.371 3.899 4.292 4.759 5.299 5.174 4.334 3.684 3.586 3.514 2.694 2.381 2.546 2.824 2.731 2.711 2.711 2.719 2.759 2.864 3.029 3.256 3.334 3.336 3.336 3.321 3.301 3.261 3.239 3.224 3.211 3.171 3.164 3.121 3.114 3.134 3.114 3.126 3.144 3.144 3.159 3.191 3.191 3.201 3.221 3.226 3.231 3.239 3.249 3.229 3.226 3.234 3.256 3.239 3.236 3.246 3.236 3.194 3.219 3.236 3.244 3.286 3.294 3.304 3.309 3.311 3.256 3.146 2.969 2.769 2.569 2.426 2.271 2.174 2.159 2.156 2.149 2.161 2.171 2.214 2.269 2.299 2.366 2.416 2.436 2.471 2.471 2.486 2.446 2.389 2.321 2.241 2.169 2.131 2.061 2.031 2.016 2.021 2.016 2.036 2.044 2.169 2.201 2.146 1.984 1.686 1.704 1.734 1.714 1.681 1.661 1.731 1.849 1.709 2.039 1.944 1.764 1.839 1.666 1.646 1.709 1.699 1.744 1.794 1.881 1.951 2.011 2.079 2.111 2.149 2.174 2.191 2.251 2.261 2.301 2.346 2.386 2.379 2.364 2.439 2.429 2.409 2.434 2.454 2.499 2.491 2.491 2.514 2.526 2.516 2.546 2.556 2.589 2.609 2.631 2.666 2.699 2.741 2.819 2.889 2.914 2.994 3.061 3.181 3.176 3.231 3.221 3.201 3.201 3.219 3.259 3.336 3.354 3.319 3.219 3.141 3.064 2.994 2.779 2.769 2.911 2.894 2.859 2.834 2.886 2.929 2.921 2.926 2.956 2.971 3.009 2.966 2.811 2.714 2.604 2.534 2.444 2.466 2.464 2.339 2.209 2.229 2.246 2.236 2.226 2.236 2.24 2.239 2.254 2.268 2.308 2.35 2.959 4.745 5.922 5.671 5.752 5.418 5.345 5.889 6.299 6.329 6.374 6.511 6.564 6.566 6.519 6.571 6.524 6.539 6.541 6.581 6.559 6.619 6.569 6.586 6.629 6.691 6.716 6.686 6.644 6.709 6.789 6.831 6.846 6.836 6.886 6.899 6.866 6.656 6.481 6.141 5.461 5.364 4.946 4.831 5.316 6.016 6.401 6.616 6.756 6.571 6.184 6.014 6.009 5.974 5.931 5.881 5.824 5.911 5.884 5.936 5.806 5.769 5.659 5.476 5.376 5.211 5.046 4.949 4.861 4.681 4.559 4.494 4.421 4.261 4.044 3.874 3.806 3.751 3.746 3.741 3.724 3.724 3.721 3.979 4.009 3.874 3.869 3.786 3.819 3.941 4.026 3.996 4.064 3.944 3.864 3.751 3.859 3.864 3.886 4.064 5.481 5.659 6.721 7.684 4.299 4.264 4.714 4.864 5.049 5.724 4.541 4.599 4.711 4.809 4.726 4.701 4.711 4.699 4.921 5.346 5.499 5.584 5.626 5.601 5.551 5.436 5.314 5.164 5.571 5.046 4.771 4.799 4.829 4.771 4.789
3.37 3.337 3.3 3.25 3.213 3.2 3.193 3.185 3.168 3.132 3.115 3.068 3.075 3.04 2.94 2.9 2.858 2.852 2.84 2.832 2.858 2.892 2.902 2.902 2.81 2.81 2.765 2.595 2.707 2.755 2.763 2.795 2.797 2.785 2.783 2.785 2.803 2.805 2.8 2.807 2.77 2.757 2.743 2.755 2.806 2.808 2.836 2.88 2.915 2.954 2.997 3.039 3.097 3.125 3.131 3.149 3.16 3.135 3.147 3.175 3.211 3.214 3.175 3.265 3.342 3.375 3.349 3.265 3.209 3.08 2.912 2.732 2.654 2.609 2.55 2.452 2.275 2.076 1.898 2.025 2.835 3.433 3.575 3.882 4.546 5.384 5.787 5.427 4.931 4.464 4.108 3.926 3.799 3.731 3.681 3.669 3.499 3.266 3.661 3.654 3.294 2.441 2.124 2.121 2.231 2.896 3.684 3.751 3.604 2.711 2.349 2.201 2.109 2.049 1.992 1.986 1.933 1.871 1.832 1.762 1.695 1.574 1.487 1.362 1.259 1.147 0.986 0.848 0.641 0.456 0.196 -0.273 -0.507 -0.495 -0.512 -0.521 -0.48 -0.447 -0.259 0.086 0.358 0.594 0.76 0.887 1.028 1.173 1.316 1.487 1.642 1.827 2.183 2.757 3.153 3.636 4.119 4.455 5.231 5.286 4.521 3.859 3.649 3.604 2.979 2.331 2.404 2.686 2.699 2.681 2.704 2.691 2.724 2.801 2.964 3.164 3.306 3.364 3.356 3.339 3.339 3.311 3.276 3.246 3.229 3.201 3.176 3.156 3.136 3.134 3.119 3.139 3.154 3.189 3.181 3.196 3.221 3.229 3.224 3.224 3.234 3.239 3.226 3.224 3.211 3.216 3.256 3.246 3.216 3.246 3.224 3.206 3.196 3.246 3.254 3.266 3.301 3.306 3.306 3.311 3.296 3.189 3.044 2.866 2.666 2.486 2.324 2.209 2.164 2.159 2.154 2.149 2.146 2.166 2.189 2.256 2.296 2.336 2.351 2.384 2.389 2.381 2.324 2.259 2.204 2.151 2.114 2.061 2.031 2.021 1.991 1.994 1.939 2.116 2.111 2.099 1.904 1.641 1.689 1.699 1.726 1.719 1.976 1.894 1.844 1.914 1.841 1.756 1.729 1.734 1.719 1.646 1.669 1.781 1.944 1.824 1.766 1.889 2.086 2.156 2.171 2.201 2.239 2.259 2.289 2.311 2.346 2.399 2.386 2.411 2.419 2.441 2.459 2.434 2.461 2.471 2.494 2.491 2.514 2.526 2.536 2.556 2.569 2.586 2.641 2.619 2.636 2.671 2.716 2.781 2.859 2.909 2.976 3.019 3.016 3.129 3.226 3.259 3.264 3.284 3.269 3.259 3.249 3.251 3.279 3.294 3.271 3.236 3.136 3.114 3.061 2.866 2.824 2.949 2.944 2.904 2.924 2.939 2.961 3.031 3.071 3.091 3.094 3.131 3.129 3.099 2.986 2.809 2.681 2.586 2.494 2.436 2.456 2.491 2.231 2.251 2.264 2.269 2.234 2.231 2.234 2.267 2.269 2.283 2.304 2.435 3.045 4.806 5.795 5.667 5.618 5.632 5.634 5.986 6.361 6.409 6.419 6.541 6.594 6.586 6.581 6.564 6.544 6.529 6.549 6.534 6.586 6.586 6.571 6.569 6.691 6.726 6.719 6.661 6.689 6.766 6.844 6.876 6.909 6.916 6.911 6.864 6.836 6.704 6.496 6.311 5.486 4.816 4.816 5.126 5.451 5.879 6.451 6.709 6.991 6.846 6.361 6.029 6.096 6.059 5.984 5.966 5.899 5.834 5.866 5.894 5.826 5.774 5.626 5.554 5.509 5.364 5.146 4.931 4.831 4.681 4.536 4.401 4.294 4.149 3.849 3.844 3.901 3.736 3.734 3.726 3.771 3.729 3.814 4.059 4.071 3.844 3.814 3.844 3.796 3.969 4.034 4.009 3.989 3.884 3.886 3.899 3.994 3.906 3.836 3.831 3.911 4.571 5.844 5.334 5.299 5.851 5.824 5.236 5.244 5.639 4.474 4.554 4.681 4.841 4.791 4.736 4.721 4.686 4.691 4.674 4.684 4.709 4.754 4.816 4.934 5.121 5.296 5.449 5.554 4.991 4.801 4.809 4.779 5.136 5.209
3.22 3.19 3.173 3.152 3.13 3.132 3.14 3.185 3.21 3.225 3.223 3.195 3.195 3.195 3.193 3.162 3.1 3.092 3.095 3.102 3.142 3.192 3.197 3.192 3.165 3.162 3.138 3.108 3.12 3.092 3.062 3.048 3.045 3.045 3.048 3.072 3.09 3.08 3.072 3.06 3.015 2.973 2.96 2.983 3.008 3.043 3.084 3.106 3.13 3.187 3.222 3.271 3.307 3.344 3.396 3.371 3.389 3.396 3.39 3.406 3.378 3.268 3.2 3.182 3.148 3.137 3.169 3.18 3.132 3.044 2.932 2.795 2.726 2.662 2.567 2.455 2.277 2.118 1.92 2.114 2.986 3.51 3.614 3.947 4.694 5.484 5.792 5.4 4.875 4.378 4.099 3.921 3.779 3.729 3.699 3.644 3.584 3.609 3.561 3.556 2.584 2.166 2.141 2.184 2.351 2.864 3.711 3.664 3.659 3.106 2.471 2.284 2.174 2.131 2.054 1.984 1.942 1.938 1.854 1.802 1.725 1.65 1.545 1.433 1.332 1.223 1.106 0.968 0.774 0.574 0.322 0.057 -0.37 -0.465 -0.479 -0.528 -0.516 -0.462 -0.293 -0.057 0.213 0.45 0.618 0.778 0.916 1.065 1.202 1.351 1.534 1.716 1.968 2.58 3.014 3.424 3.998 4.416 4.949 5.336 4.894 4.131 3.686 3.554 3.269 2.534 2.349 2.529 2.661 2.654 2.674 2.676 2.696 2.764 2.896 3.056 3.249 3.356 3.379 3.351 3.341 3.336 3.304 3.281 3.256 3.229 3.231 3.191 3.154 3.151 3.149 3.154 3.164 3.189 3.206 3.226 3.221 3.244 3.254 3.269 3.231 3.234 3.231 3.219 3.196 3.201 3.236 3.254 3.214 3.234 3.236 3.199 3.209 3.264 3.251 3.271 3.284 3.311 3.304 3.324 3.314 3.259 3.114 2.949 2.741 2.569 2.454 2.266 2.166 2.166 2.164 2.151 2.149 2.151 2.169 2.191 2.244 2.261 2.299 2.284 2.254 2.246 2.204 2.166 2.114 2.059 2.029 1.994 2.004 2.001 1.941 1.854 2.066 2.506 1.886 1.681 1.776 1.754 1.764 1.929 1.884 1.846 1.954 1.859 1.906 2.316 1.901 1.781 1.731 1.696 1.751 2.009 2.104 2.036 2.011 2.029 2.124 2.211 2.286 2.326 2.341 2.349 2.364 2.391 2.414 2.394 2.416 2.434 2.459 2.411 2.464 2.519 2.501 2.504 2.509 2.531 2.569 2.551 2.561 2.569 2.589 2.631 2.621 2.629 2.646 2.706 2.776 2.801 2.879 2.936 2.976 3.011 3.074 3.171 3.139 3.226 3.301 3.344 3.341 3.331 3.309 3.309 3.279 3.246 3.249 3.241 3.209 3.139 3.144 3.069 2.996 2.879 2.954 2.999 3.004 2.994 3.021 3.059 3.071 3.136 3.179 3.199 3.209 3.239 3.246 3.171 3.014 2.891 2.806 2.676 2.556 2.449 2.466 2.579 2.224 2.286 2.539 2.361 2.309 2.3 2.321 2.366 2.401 2.368 2.377 2.465 3.092 4.725 5.669 5.881 5.629 5.91 6.033 6.072 6.394 6.434 6.474 6.601 6.649 6.659 6.609 6.579 6.536 6.511 6.501 6.491 6.526 6.529 6.571 6.549 6.661 6.711 6.761 6.691 6.769 6.851 6.879 6.939 6.961 6.989 7.001 6.909 6.854 6.761 6.439 6.006 5.351 4.809 4.894 5.491 5.931 5.974 6.449 6.826 7.236 6.889 6.451 6.209 6.079 6.054 6.021 5.956 5.871 5.811 5.866 5.854 5.749 5.719 5.626 5.604 5.491 5.421 5.379 5.259 5.089 4.939 4.871 4.709 4.459 4.079 3.844 3.909 3.924 3.894 3.891 3.774 3.821 3.806 3.954 4.066 4.029 3.899 3.879 3.939 3.794 3.786 3.944 4.114 3.956 3.776 3.884 3.954 4.041 4.009 3.994 3.969 4.094 6.339 5.226 6.729 5.694 6.271 5.871 5.626 5.519 5.516 4.496 4.534 4.581 4.726 4.849 4.746 4.704 4.714 4.696 4.691 4.674 4.676 4.656 4.651 4.641 4.646 4.674 4.731 4.774 4.824 4.801 4.791 4.784 5.039 4.849
2.885 2.88 2.878 2.855 2.84 2.86 2.9 2.935 2.96 3.017 3.08 3.122 3.128 3.245 3.287 3.297 3.285 3.295 3.322 3.345 3.38 3.445 3.457 3.453 3.447 3.402 3.412 3.402 3.398 3.375 3.35 3.35 3.348 3.36 3.395 3.385 3.382 3.362 3.345 3.31 3.28 3.237 3.207 3.234 3.257 3.286 3.315 3.33 3.341 3.375 3.402 3.436 3.46 3.495 3.493 3.471 3.491 3.491 3.466 3.419 3.294 3.101 3.041 2.986 2.954 2.966 3.026 2.994 2.928 2.87 2.912 2.871 2.793 2.714 2.625 2.486 2.276 2.168 1.95 2.268 3.131 3.549 3.673 4.033 4.75 5.566 5.807 5.369 4.821 4.349 4.119 3.924 3.799 3.704 3.694 3.661 3.666 3.641 3.514 3.014 2.311 2.166 2.189 2.331 2.576 3.326 3.719 3.661 3.741 3.444 2.646 2.346 2.239 2.166 2.109 2.052 2.005 1.962 1.895 1.823 1.763 1.685 1.599 1.517 1.425 1.32 1.164 1.057 0.89 0.679 0.461 0.24 -0.139 -0.452 -0.559 -0.529 -0.526 -0.49 -0.377 -0.172 0.05 0.297 0.509 0.65 0.783 0.94 1.057 1.233 1.377 1.606 1.843 2.42 2.899 3.291 3.845 4.28 4.781 5.324 5.251 4.411 3.761 3.644 3.474 2.751 2.241 2.496 2.704 2.679 2.651 2.646 2.664 2.716 2.791 2.976 3.184 3.306 3.349 3.389 3.359 3.336 3.329 3.294 3.274 3.269 3.219 3.219 3.179 3.176 3.151 3.184 3.194 3.209 3.269 3.241 3.249 3.239 3.254 3.234 3.236 3.239 3.226 3.211 3.191 3.196 3.204 3.226 3.226 3.214 3.226 3.219 3.189 3.239 3.259 3.276 3.286 3.321 3.316 3.321 3.326 3.279 3.161 3.009 2.836 2.631 2.474 2.329 2.199 2.156 2.146 2.154 2.151 2.166 2.166 2.169 2.179 2.226 2.214 2.171 2.146 2.116 2.101 2.074 2.036 1.989 1.936 1.949 2.001 1.921 1.899 1.951 1.876 1.891 1.679 1.759 1.709 2.004 1.854 2.011 1.916 1.876 1.879 1.954 1.806 1.804 1.791 1.744 1.804 1.959 2.026 2.084 2.119 2.149 2.201 2.279 2.324 2.389 2.409 2.424 2.466 2.444 2.469 2.434 2.466 2.459 2.449 2.464 2.499 2.456 2.476 2.519 2.524 2.539 2.559 2.564 2.586 2.604 2.606 2.629 2.626 2.654 2.689 2.759 2.841 2.899 2.926 2.969 3.009 3.084 3.189 3.211 3.264 3.249 3.211 3.246 3.349 3.391 3.381 3.356 3.341 3.329 3.301 3.261 3.241 3.221 3.164 3.121 3.109 3.019 2.911 2.964 3.016 3.071 3.066 3.099 3.144 3.171 3.209 3.239 3.249 3.296 3.306 3.304 3.289 3.241 3.161 3.006 2.911 2.781 2.599 2.456 2.456 2.441 2.221 2.421 2.456 2.374 2.321 2.304 2.325 2.342 2.347 2.372 2.409 2.409 3.664 4.689 5.492 5.787 5.813 5.898 5.96 6.198 6.389 6.414 6.516 6.611 6.649 6.671 6.654 6.621 6.504 6.501 6.504 6.524 6.549 6.571 6.541 6.556 6.629 6.716 6.764 6.771 6.804 6.866 6.931 6.991 7.011 7.039 7.009 6.974 6.834 6.764 6.526 6.066 5.284 4.799 4.991 5.624 5.784 6.096 6.326 6.666 6.734 6.424 6.256 6.104 6.126 6.054 6.006 5.954 5.909 5.881 5.911 5.871 5.831 5.764 5.659 5.639 5.689 5.619 5.449 5.436 5.496 5.419 5.289 4.799 4.456 4.444 4.209 3.796 3.761 3.821 3.809 3.834 4.084 4.401 3.836 3.896 3.956 3.934 3.944 3.969 3.871 3.834 3.941 3.934 4.001 3.879 3.921 4.036 3.951 4.004 4.024 3.986 3.869 4.236 5.234 5.759 5.434 4.706 4.789 5.126 5.404 5.129 4.519 4.574 4.566 4.611 4.764 4.846 4.761 4.744 4.731 4.719 4.676 4.649 4.631 4.619 4.634 4.679 4.741 4.764 4.796 4.781 4.796 4.961 4.999 4.861 4.799
2.655 2.638 2.638 2.645 2.642 2.645 2.68 2.678 2.707 2.74 2.803 2.888 2.945 3.025 3.125 3.243 3.312 3.365 3.425 3.48 3.537 3.618 3.628 3.645 3.653 3.622 3.618 3.618 3.622 3.638 3.62 3.612 3.592 3.608 3.62 3.642 3.64 3.6 3.59 3.565 3.54 3.497 3.493 3.46 3.457 3.46 3.487 3.477 3.461 3.47 3.461 3.461 3.458 3.429 3.404 3.404 3.341 3.281 3.234 3.169 3.004 2.809 2.734 2.714 2.781 2.821 2.754 2.691 2.676 2.776 2.865 2.875 2.798 2.749 2.68 2.519 2.323 2.071 1.94 2.407 3.23 3.619 3.701 4.068 4.822 5.677 5.766 5.336 4.786 4.326 4.099 3.949 3.829 3.731 3.676 3.679 3.686 3.639 3.274 2.449 2.224 2.189 2.261 2.569 3.584 3.706 3.711 3.769 3.746 3.676 2.836 2.434 2.291 2.184 2.136 2.051 2.023 1.953 1.918 1.857 1.801 1.744 1.664 1.581 1.492 1.387 1.274 1.145 0.989 0.833 0.606 0.418 0.079 -0.311 -0.498 -0.552 -0.519 -0.492 -0.428 -0.273 -0.104 0.133 0.342 0.513 0.656 0.783 0.924 1.074 1.222 1.422 1.687 2.252 2.746 3.128 3.553 4.115 4.582 5.241 5.339 4.566 3.946 3.671 3.526 2.994 2.344 2.306 2.579 2.659 2.654 2.646 2.654 2.691 2.736 2.871 3.064 3.241 3.341 3.386 3.379 3.351 3.351 3.326 3.319 3.264 3.239 3.224 3.186 3.184 3.146 3.151 3.181 3.226 3.246 3.246 3.254 3.249 3.266 3.254 3.236 3.236 3.234 3.214 3.211 3.204 3.219 3.211 3.216 3.239 3.229 3.229 3.219 3.231 3.231 3.269 3.306 3.306 3.339 3.311 3.339 3.306 3.201 3.039 2.871 2.686 2.516 2.381 2.231 2.161 2.151 2.146 2.159 2.164 2.161 2.176 2.194 2.161 2.126 2.096 2.074 2.004 1.979 1.929 1.911 1.886 1.979 1.911 1.934 1.866 1.784 1.934 1.721 1.751 1.714 1.766 1.711 1.656 1.809 1.939 1.729 1.844 1.816 2.064 1.816 1.751 1.809 1.886 1.911 2.014 2.101 2.144 2.246 2.339 2.316 2.366 2.391 2.434 2.426 2.471 2.499 2.484 2.491 2.489 2.501 2.514 2.481 2.476 2.486 2.499 2.529 2.516 2.569 2.589 2.601 2.611 2.646 2.649 2.669 2.694 2.714 2.761 2.834 2.974 3.024 3.024 3.049 3.109 3.256 3.311 3.314 3.304 3.349 3.349 3.289 3.274 3.354 3.384 3.376 3.374 3.336 3.296 3.289 3.261 3.236 3.206 3.121 3.126 2.981 2.929 2.996 3.059 3.079 3.084 3.129 3.146 3.239 3.321 3.276 3.374 3.369 3.391 3.409 3.434 3.406 3.291 3.234 3.136 3.006 2.851 2.681 2.544 2.446 2.336 2.211 2.401 2.576 2.341 2.306 2.362 2.333 2.313 2.349 2.368 2.385 2.425 3.441 4.747 5.386 5.587 5.85 5.787 5.873 6.267 6.406 6.431 6.456 6.546 6.639 6.676 6.669 6.671 6.551 6.501 6.481 6.546 6.586 6.594 6.589 6.621 6.644 6.711 6.779 6.806 6.849 6.894 7.009 7.021 7.091 7.074 7.041 7.001 6.904 6.821 6.664 6.249 5.501 4.834 5.096 5.471 5.541 5.771 6.176 6.191 6.191 6.076 6.119 6.326 6.164 6.151 5.986 5.934 5.931 5.939 5.901 5.934 5.909 5.876 5.864 5.711 5.669 5.631 5.531 5.384 6.069 6.104 4.814 4.974 4.676 5.286 5.571 4.394 4.389 3.744 3.911 3.906 4.594 4.674 4.991 3.904 3.964 3.961 4.079 4.044 3.906 3.876 3.921 3.931 3.854 3.859 3.934 3.786 3.954 4.069 4.061 3.931 3.934 3.854 3.896 3.979 4.699 4.661 4.924 4.844 4.926 5.269 4.526 4.561 4.494 4.546 4.626 4.771 4.881 4.784 4.764 4.746 4.691 4.679 4.674 4.669 4.701 4.709 4.731 4.771 4.801 4.796 4.824 4.976 4.831 4.779 4.716
2.513 2.545 2.513 2.527 2.545 2.535 2.533 2.553 2.58 2.6 2.638 2.673 2.71 2.743 2.835 2.967 3.11 3.247 3.332 3.425 3.505 3.557 3.64 3.683 3.705 3.683 3.685 3.77 3.8 3.787 3.78 3.8 3.797 3.787 3.81 3.825 3.797 3.785 3.757 3.725 3.673 3.638 3.587 3.552 3.523 3.483 3.452 3.426 3.4 3.377 3.34 3.301 3.272 3.212 3.156 3.119 3.047 2.991 2.919 2.914 2.851 2.694 2.551 2.516 2.516 2.534 2.551 2.536 2.561 2.694 2.759 2.791 2.797 2.786 2.591 2.555 2.28 2.025 1.971 2.556 3.281 3.631 3.719 4.142 4.92 5.694 5.721 5.264 4.714 4.279 4.061 4.254 4.116 4.174 3.791 3.691 3.661 3.404 2.504 2.269 2.254 2.329 2.409 2.494 2.899 3.601 3.666 3.694 3.736 3.744 3.166 2.559 2.349 2.256 2.141 2.091 2.06 1.984 1.947 1.898 1.823 1.767 1.733 1.63 1.557 1.457 1.346 1.243 1.128 0.953 0.747 0.525 0.283 -0.092 -0.392 -0.539 -0.508 -0.461 -0.486 -0.384 -0.237 0.001 0.2 0.37 0.518 0.656 0.784 0.932 1.075 1.267 1.533 2.034 2.515 2.908 3.367 3.928 4.374 4.859 5.336 4.944 4.166 3.679 3.516 3.264 2.599 2.304 2.471 2.614 2.659 2.674 2.654 2.661 2.674 2.776 2.939 3.151 3.321 3.369 3.399 3.364 3.334 3.341 3.319 3.281 3.251 3.224 3.211 3.181 3.174 3.144 3.176 3.221 3.246 3.259 3.274 3.274 3.264 3.266 3.256 3.234 3.241 3.241 3.216 3.211 3.221 3.209 3.209 3.224 3.236 3.246 3.239 3.226 3.231 3.241 3.279 3.309 3.324 3.319 3.319 3.274 3.191 3.061 2.884 2.706 2.539 2.404 2.286 2.166 2.161 2.159 2.154 2.156 2.184 2.179 2.159 2.134 2.076 2.024 1.974 1.894 1.876 1.836 1.826 1.861 1.869 1.921 1.926 1.914 1.884 1.804 1.774 1.759 1.816 1.706 1.724 1.784 1.909 1.894 1.934 1.861 1.834 1.769 1.786 1.819 1.894 1.951 1.994 2.089 2.206 2.289 2.321 2.354 2.394 2.389 2.401 2.411 2.446 2.486 2.524 2.524 2.521 2.519 2.541 2.519 2.506 2.511 2.516 2.521 2.531 2.576 2.611 2.621 2.661 2.669 2.689 2.709 2.721 2.756 2.861 2.944 3.006 3.064 3.166 3.269 3.304 3.349 3.361 3.366 3.371 3.339 3.404 3.411 3.344 3.304 3.361 3.384 3.364 3.354 3.326 3.289 3.271 3.249 3.204 3.124 3.104 3.049 2.979 3.029 3.091 3.104 3.099 3.136 3.174 3.311 3.424 3.449 3.401 3.469 3.476 3.489 3.494 3.489 3.424 3.309 3.246 3.144 2.999 2.881 2.714 2.536 2.401 2.326 2.219 2.286 2.456 2.329 2.314 2.314 2.349 2.336 2.383 2.402 2.477 2.483 2.949 4.442 5.28 5.722 5.786 5.785 5.885 6.306 6.439 6.449 6.461 6.534 6.624 6.664 6.636 6.666 6.584 6.546 6.544 6.596 6.646 6.629 6.621 6.639 6.674 6.741 6.806 6.849 6.904 6.979 7.029 7.104 7.139 7.079 7.061 7.056 6.971 6.881 6.781 6.389 6.116 5.309 5.469 5.594 5.451 5.489 6.044 6.009 6.016 6.146 6.356 6.681 6.409 6.311 6.081 6.056 5.969 5.951 5.924 6.004 6.036 5.969 5.954 5.836 5.739 5.711 5.664 5.519 6.061 5.379 4.971 4.879 4.646 4.684 5.899 6.251 5.026 3.736 3.756 3.764 5.591 5.504 4.016 3.939 4.029 4.136 4.304 4.114 3.876 3.831 4.734 4.599 3.859 3.804 3.801 3.894 3.991 3.966 3.926 3.979 3.971 3.831 3.904 4.024 4.654 4.486 4.966 4.866 4.736 5.039 4.561 4.569 4.504 4.554 4.571 4.646 4.754 4.914 4.904 4.814 4.764 4.721 4.749 4.744 4.741 4.764 4.804 4.799 4.826 4.861 4.901 4.841 4.744 4.706 4.704
2.487 2.48 2.493 2.51 2.487 2.487 2.497 2.49 2.52 2.525 2.545 2.565 2.557 2.572 2.612 2.682 2.798 2.94 3.053 3.162 3.28 3.358 3.402 3.447 3.53 3.575 3.622 3.7 3.737 3.785 3.817 3.822 3.812 3.815 3.81 3.765 3.72 3.703 3.668 3.622 3.582 3.537 3.475 3.411 3.323 3.219 3.146 3.098 3.076 3.045 3.003 2.961 2.928 2.869 2.828 2.803 2.765 2.756 2.781 2.741 2.701 2.639 2.564 2.514 2.491 2.499 2.491 2.501 2.536 2.576 2.591 2.564 2.539 2.509 2.266 2.279 2.221 1.986 2.011 2.651 3.344 3.664 3.769 4.191 4.984 5.744 5.679 5.204 4.681 4.264 4.041 5.084 5.476 5.254 5.316 3.836 3.039 2.716 2.341 2.236 2.359 2.904 3.334 3.409 3.239 3.141 3.456 3.599 3.674 3.714 3.406 2.659 2.409 2.319 2.204 2.099 2.094 2.014 1.969 1.945 1.9 1.83 1.753 1.661 1.619 1.525 1.448 1.328 1.232 1.085 0.881 0.669 0.429 0.138 -0.263 -0.48 -0.518 -0.456 -0.492 -0.457 -0.376 -0.184 0.049 0.236 0.39 0.521 0.658 0.803 0.944 1.109 1.348 1.781 2.317 2.76 3.127 3.724 4.202 4.689 5.301 5.291 4.519 3.781 3.559 3.389 2.894 2.264 2.321 2.651 2.669 2.661 2.629 2.649 2.644 2.696 2.841 3.059 3.244 3.331 3.374 3.369 3.346 3.316 3.324 3.314 3.291 3.229 3.194 3.186 3.204 3.179 3.159 3.201 3.239 3.289 3.279 3.281 3.279 3.254 3.246 3.254 3.256 3.256 3.234 3.226 3.219 3.251 3.221 3.209 3.254 3.251 3.249 3.234 3.231 3.249 3.271 3.291 3.289 3.291 3.279 3.251 3.174 3.026 2.871 2.689 2.531 2.424 2.289 2.236 2.206 2.159 2.159 2.171 2.201 2.174 2.139 2.104 2.046 1.976 1.906 1.844 1.846 1.784 1.871 1.809 1.851 1.969 1.901 1.804 1.756 1.784 1.716 1.761 1.711 1.721 1.781 1.789 1.831 1.806 1.831 1.899 1.816 1.946 1.869 1.894 1.969 2.006 2.159 2.241 2.319 2.369 2.404 2.389 2.399 2.406 2.381 2.384 2.409 2.479 2.536 2.564 2.569 2.564 2.551 2.559 2.576 2.581 2.591 2.541 2.574 2.604 2.644 2.659 2.691 2.716 2.736 2.761 2.769 2.891 2.966 3.049 3.211 3.309 3.371 3.394 3.401 3.434 3.434 3.414 3.406 3.341 3.379 3.366 3.379 3.364 3.364 3.339 3.296 3.291 3.294 3.256 3.221 3.211 3.186 3.111 3.101 3.049 3.089 3.099 3.144 3.144 3.154 3.171 3.294 3.371 3.394 3.429 3.474 3.511 3.529 3.556 3.551 3.571 3.486 3.321 3.224 3.084 2.961 2.831 2.646 2.466 2.331 2.234 2.244 2.501 2.511 2.321 2.334 2.354 2.376 2.398 2.44 2.447 2.53 2.573 3.555 4.802 5.405 5.886 5.835 5.721 5.913 6.279 6.469 6.506 6.511 6.541 6.626 6.684 6.664 6.641 6.624 6.564 6.569 6.626 6.701 6.721 6.706 6.711 6.721 6.741 6.811 6.904 6.956 7.021 7.086 7.146 7.156 7.139 7.074 7.131 7.011 6.976 6.974 6.756 6.571 6.049 6.179 5.791 5.426 5.346 5.721 5.924 5.991 5.991 6.154 6.354 6.486 6.506 6.121 6.114 6.044 5.996 5.986 6.021 5.944 6.001 6.096 6.136 5.901 5.856 5.831 5.876 5.809 5.736 6.031 5.926 5.179 4.381 4.259 4.846 4.341 3.754 3.736 4.646 7.551 6.296 5.071 3.909 4.239 5.051 4.746 4.174 3.906 3.954 4.566 3.954 3.881 3.846 3.821 3.904 3.961 4.049 3.936 3.896 4.209 4.021 3.964 4.229 4.936 4.821 4.894 4.849 4.841 5.196 4.601 4.601 4.539 4.564 4.549 4.626 4.669 4.736 4.811 4.851 4.874 4.889 4.889 4.861 4.849 4.789 4.879 4.886 4.874 4.851 4.829 4.759 4.691 4.686 4.711
2.48 2.49 2.487 2.517 2.497 2.487 2.497 2.503 2.495 2.505 2.52 2.555 2.523 2.527 2.565 2.567 2.585 2.662 2.74 2.862 3 3.098 3.15 3.185 3.26 3.352 3.443 3.513 3.537 3.56 3.568 3.58 3.585 3.57 3.55 3.53 3.473 3.452 3.398 3.34 3.303 3.237 3.145 3.072 2.973 2.908 2.819 2.745 2.727 2.697 2.691 2.659 2.634 2.654 2.605 2.6 2.59 2.596 2.641 2.596 2.594 2.579 2.534 2.531 2.546 2.531 2.521 2.501 2.499 2.461 2.441 2.411 2.391 2.291 2.219 2.171 2.184 1.896 1.979 2.774 3.356 3.696 3.746 4.264 5.079 5.744 5.589 5.101 4.604 4.174 4.001 3.899 3.979 4.049 4.071 3.871 3.041 2.356 2.309 2.331 2.791 3.711 3.754 3.754 3.749 3.666 3.449 3.731 3.626 3.729 3.664 2.836 2.506 2.364 2.239 2.166 2.099 2.048 1.977 1.946 1.917 1.855 1.764 1.728 1.663 1.595 1.531 1.415 1.331 1.194 1.037 0.83 0.588 0.331 -0.019 -0.36 -0.501 -0.496 -0.502 -0.369 -0.455 -0.307 -0.14 0.061 0.226 0.395 0.532 0.673 0.808 0.956 1.212 1.547 2.117 2.591 3.015 3.48 4.047 4.501 5.086 5.314 4.669 4.061 3.536 3.376 3.104 2.444 2.199 2.476 2.666 2.646 2.654 2.619 2.634 2.661 2.781 2.961 3.149 3.291 3.359 3.371 3.376 3.334 3.329 3.314 3.299 3.251 3.211 3.189 3.191 3.206 3.154 3.186 3.239 3.279 3.291 3.279 3.269 3.279 3.264 3.261 3.244 3.261 3.251 3.221 3.229 3.236 3.236 3.236 3.224 3.246 3.259 3.241 3.244 3.254 3.249 3.294 3.279 3.264 3.261 3.224 3.126 2.989 2.814 2.651 2.524 2.409 2.336 2.284 2.254 2.226 2.181 2.176 2.189 2.179 2.139 2.084 2.029 1.956 1.879 1.841 1.779 1.821 1.831 1.786 1.881 2.076 1.881 1.726 1.644 1.679 1.634 1.684 1.721 1.726 1.749 1.846 1.886 1.816 1.874 1.926 1.914 2.241 1.991 2.029 2.111 2.176 2.251 2.331 2.379 2.384 2.419 2.476 2.546 2.556 2.504 2.414 2.386 2.444 2.506 2.556 2.569 2.611 2.594 2.644 2.666 2.649 2.626 2.639 2.591 2.639 2.696 2.696 2.749 2.771 2.816 2.879 2.966 3.021 3.131 3.261 3.331 3.391 3.444 3.471 3.459 3.451 3.439 3.451 3.404 3.374 3.376 3.371 3.384 3.369 3.359 3.319 3.271 3.244 3.259 3.241 3.254 3.279 3.236 3.151 3.134 3.146 3.171 3.146 3.139 3.126 3.151 3.259 3.294 3.349 3.369 3.416 3.454 3.489 3.501 3.516 3.576 3.591 3.479 3.274 3.164 3.004 2.891 2.689 2.506 2.449 2.346 2.224 2.291 2.521 2.454 2.361 2.374 2.404 2.416 2.456 2.528 2.547 2.662 3.142 4.293 5.003 6.229 6.001 6.091 5.903 5.864 6.238 6.471 6.546 6.569 6.574 6.701 6.741 6.704 6.654 6.581 6.581 6.584 6.671 6.764 6.759 6.761 6.774 6.766 6.796 6.854 6.924 6.959 7.066 7.119 7.139 7.149 7.151 7.109 7.089 7.059 7.004 6.954 6.384 6.446 6.591 6.419 5.934 5.581 5.686 5.816 5.904 6.014 6.024 6.026 6.321 6.434 6.254 6.124 6.126 6.091 6.084 6.056 6.061 5.954 6.081 6.041 6.144 6.119 6.101 6.029 6.179 6.361 6.391 6.341 6.339 6.036 5.526 4.241 4.379 4.071 3.701 3.714 4.631 7.154 5.979 4.404 3.986 4.049 4.696 4.461 3.929 3.891 4.236 4.884 4.004 3.854 3.844 3.806 3.921 3.829 3.824 3.836 3.871 4.094 3.791 3.774 4.696 5.186 5.141 4.874 5.529 5.374 4.896 4.556 4.579 4.531 4.546 4.586 4.629 4.616 4.641 4.674 4.654 4.694 4.756 4.779 4.804 4.801 4.766 4.841 4.774 4.731 4.721 4.749 4.704 4.686 4.731 4.701
2.525 2.56 2.562 2.595 2.6 2.557 2.537 2.567 2.543 2.493 2.47 2.475 2.483 2.47 2.485 2.483 2.497 2.515 2.572 2.64 2.735 2.83 2.895 2.967 3.05 3.155 3.195 3.22 3.247 3.283 3.3 3.293 3.3 3.297 3.277 3.233 3.175 3.15 3.12 3.043 2.967 2.888 2.778 2.719 2.674 2.635 2.583 2.554 2.533 2.533 2.538 2.51 2.517 2.516 2.507 2.505 2.494 2.506 2.491 2.506 2.499 2.496 2.489 2.499 2.504 2.494 2.496 2.474 2.504 2.519 2.579 2.626 2.631 2.666 2.619 2.734 2.424 2.074 2.004 2.876 3.491 3.711 3.779 4.344 5.144 5.739 5.529 5.011 4.501 4.149 3.956 3.884 3.804 3.741 3.724 3.696 3.474 2.536 2.329 2.376 3.454 3.721 3.754 3.761 3.759 3.729 3.521 3.646 3.616 3.744 3.846 3.199 2.571 2.396 2.291 2.176 2.121 2.078 2.011 1.964 1.915 1.844 1.834 1.766 1.709 1.65 1.56 1.493 1.426 1.291 1.171 1.012 0.808 0.541 0.2 -0.202 -0.426 -0.42 -0.384 -0.401 -0.42 -0.343 -0.31 -0.11 0.082 0.228 0.418 0.551 0.679 0.834 1.011 1.355 1.893 2.384 2.815 3.224 3.751 4.304 4.761 5.289 5.089 4.299 3.709 3.384 3.384 2.759 2.219 2.371 2.619 2.651 2.656 2.634 2.631 2.641 2.716 2.856 3.081 3.241 3.344 3.394 3.356 3.344 3.356 3.339 3.304 3.259 3.224 3.211 3.211 3.224 3.184 3.176 3.219 3.284 3.304 3.294 3.304 3.281 3.266 3.266 3.254 3.236 3.229 3.239 3.224 3.231 3.254 3.249 3.224 3.239 3.246 3.254 3.269 3.276 3.271 3.276 3.261 3.249 3.224 3.169 3.054 2.904 2.749 2.606 2.484 2.426 2.359 2.334 2.344 2.274 2.214 2.191 2.166 2.159 2.114 2.074 1.999 1.896 1.824 1.851 1.851 1.816 1.844 1.799 1.949 1.984 1.749 1.769 1.701 1.646 1.659 1.686 1.789 1.824 1.859 1.854 1.869 1.911 1.926 1.986 1.969 2.149 2.511 2.171 2.211 2.284 2.316 2.354 2.451 2.519 2.514 2.536 2.541 2.596 2.466 2.449 2.476 2.539 2.579 2.579 2.589 2.631 2.686 2.704 2.716 2.689 2.691 2.711 2.654 2.696 2.739 2.756 2.841 2.874 2.946 3.019 3.109 3.221 3.316 3.376 3.401 3.434 3.466 3.481 3.459 3.454 3.451 3.446 3.411 3.404 3.371 3.376 3.359 3.329 3.291 3.281 3.299 3.324 3.356 3.326 3.329 3.261 3.196 3.129 3.179 3.184 3.216 3.166 3.184 3.166 3.259 3.324 3.326 3.351 3.391 3.406 3.429 3.446 3.506 3.511 3.554 3.611 3.466 3.176 3.049 2.909 2.696 2.519 2.469 2.484 2.336 2.219 2.276 2.519 2.441 2.394 2.391 2.444 2.473 2.532 2.625 2.656 2.785 3.648 4.995 5.608 6.981 5.79 6.043 6.106 5.978 6.285 6.423 6.509 6.579 6.614 6.739 6.789 6.739 6.694 6.626 6.611 6.586 6.711 6.796 6.821 6.799 6.781 6.796 6.841 6.936 6.944 6.941 7.011 7.119 7.121 7.164 7.131 7.136 7.094 7.069 7.061 6.986 6.529 6.444 6.566 6.349 6.164 6.094 6.094 5.989 6.064 6.026 6.146 6.044 6.051 6.151 6.141 6.144 6.206 6.124 6.129 6.164 6.061 6.029 6.114 6.091 6.144 6.191 6.136 6.156 6.281 6.401 6.434 6.379 6.339 6.251 5.806 5.034 7.594 6.809 3.926 3.706 4.681 5.456 4.404 3.924 3.954 3.956 4.149 4.021 3.851 3.849 4.404 5.046 4.139 3.939 4.099 4.241 4.099 5.031 5.001 3.761 4.064 4.259 3.759 3.889 4.786 5.026 5.244 5.601 6.551 6.119 4.581 4.599 4.576 4.526 4.511 4.554 4.611 4.621 4.654 4.624 4.616 4.626 4.661 4.681 4.639 4.619 4.639 4.634 4.649 4.661 4.701 4.716 4.711 4.741 4.729 4.699
2.678 2.705 2.755 2.77 2.753 2.75 2.737 2.71 2.678 2.605 2.537 2.51 2.475 2.447 2.47 2.445 2.44 2.45 2.465 2.525 2.562 2.615 2.697 2.77 2.835 2.908 2.97 2.957 2.997 3.02 3.053 3.058 3.062 3.043 3 2.955 2.892 2.838 2.778 2.707 2.655 2.612 2.538 2.505 2.493 2.474 2.454 2.452 2.464 2.46 2.458 2.455 2.464 2.472 2.472 2.47 2.465 2.481 2.484 2.466 2.494 2.509 2.534 2.554 2.579 2.616 2.631 2.646 2.666 2.676 2.699 2.771 2.829 2.809 2.874 3.116 2.256 1.926 2.174 3.046 3.579 3.709 3.811 4.399 5.189 5.751 5.464 4.949 4.466 4.094 3.941 3.839 3.784 3.734 3.706 3.766 3.749 2.861 2.344 2.406 3.251 3.736 3.744 3.774 3.761 3.689 3.651 3.551 3.694 3.804 3.861 3.694 2.809 2.479 2.334 2.226 2.166 2.093 2.035 1.998 1.942 1.899 1.849 1.819 1.726 1.696 1.633 1.567 1.48 1.384 1.255 1.136 0.962 0.72 0.446 0.038 -0.308 -0.491 -0.386 -0.406 -0.404 -0.406 -0.318 -0.306 -0.077 0.087 0.265 0.443 0.577 0.697 0.845 1.099 1.689 2.169 2.619 3.056 3.539 4.119 4.546 5.194 5.286 4.524 3.894 3.426 3.386 2.981 2.429 2.274 2.614 2.641 2.656 2.634 2.639 2.636 2.681 2.821 2.999 3.179 3.301 3.386 3.371 3.354 3.351 3.346 3.321 3.291 3.246 3.226 3.219 3.229 3.194 3.176 3.224 3.294 3.319 3.309 3.304 3.314 3.274 3.266 3.241 3.256 3.266 3.246 3.249 3.254 3.239 3.244 3.234 3.241 3.259 3.256 3.266 3.259 3.274 3.284 3.256 3.216 3.179 3.101 2.986 2.831 2.666 2.546 2.471 2.396 2.354 2.371 2.336 2.286 2.241 2.169 2.149 2.116 2.079 2.019 1.969 1.884 1.904 1.829 1.844 1.839 1.889 1.769 1.799 1.619 1.704 1.646 1.704 1.744 1.771 1.839 1.819 1.851 1.916 1.906 1.916 2.006 1.994 2.024 2.031 2.239 3.654 2.274 2.374 2.344 2.371 2.409 2.459 2.504 2.496 2.461 2.484 2.526 2.499 2.469 2.659 2.706 2.706 2.691 2.691 2.719 2.744 2.751 2.749 2.766 2.784 2.819 2.771 2.834 2.889 2.914 2.969 3.004 3.111 3.216 3.304 3.341 3.401 3.434 3.444 3.439 3.476 3.491 3.496 3.471 3.469 3.466 3.436 3.396 3.379 3.361 3.341 3.361 3.366 3.376 3.419 3.409 3.401 3.346 3.311 3.226 3.174 3.206 3.269 3.261 3.226 3.201 3.236 3.219 3.234 3.309 3.301 3.321 3.349 3.391 3.451 3.461 3.509 3.539 3.586 3.586 3.374 3.124 2.919 2.706 2.561 2.536 2.446 2.479 2.441 2.244 2.276 2.581 2.451 2.409 2.424 2.506 2.545 2.587 2.685 2.83 2.963 3.115 4.826 5.691 6.392 5.933 6.221 6.402 6.459 6.368 6.391 6.509 6.586 6.659 6.726 6.766 6.766 6.689 6.696 6.651 6.666 6.759 6.814 6.826 6.791 6.816 6.829 6.861 6.941 6.954 6.934 6.951 7.086 7.146 7.171 7.139 7.124 7.054 7.101 7.034 6.851 6.944 6.529 6.699 6.564 6.531 6.464 6.441 6.459 6.644 6.491 6.044 5.996 6.061 6.074 5.979 6.119 6.164 6.224 6.224 6.164 6.099 6.061 6.046 6.006 6.064 6.151 6.149 6.216 6.241 6.569 6.866 6.716 6.381 6.241 6.004 5.431 6.481 7.969 4.471 4.566 7.469 7.116 3.961 3.939 3.881 3.911 3.949 3.944 3.791 3.836 3.846 3.966 3.869 3.869 4.461 4.779 4.651 6.299 5.971 5.246 4.081 3.829 3.719 3.866 5.581 7.211 5.561 5.276 5.301 5.736 4.571 4.634 4.571 4.531 4.524 4.519 4.569 4.624 4.669 4.641 4.604 4.619 4.649 4.636 4.641 4.634 4.611 4.596 4.624 4.686 4.674 4.666 4.736 4.726 4.746 4.731
2.852 2.858 2.868 2.898 2.915 2.915 2.9 2.885 2.86 2.773 2.713 2.74 2.642 2.54 2.525 2.47 2.46 2.44 2.433 2.445 2.51 2.51 2.572 2.6 2.64 2.668 2.682 2.69 2.717 2.74 2.753 2.777 2.765 2.735 2.68 2.632 2.592 2.56 2.523 2.513 2.497 2.465 2.442 2.434 2.428 2.423 2.434 2.427 2.425 2.436 2.438 2.443 2.446 2.457 2.474 2.49 2.493 2.529 2.576 2.589 2.651 2.669 2.666 2.731 2.774 2.816 2.856 2.774 2.921 2.951 2.849 2.961 3.024 3.226 3.321 3.386 2.454 2.266 2.706 3.311 3.619 3.721 3.856 4.489 5.256 5.749 5.369 4.891 4.429 4.104 3.949 3.859 3.809 3.779 3.739 3.694 3.319 2.821 2.361 2.394 2.789 3.441 3.699 3.761 3.731 3.706 3.721 3.694 3.754 3.831 3.854 3.821 3.509 2.674 2.439 2.266 2.204 2.096 2.038 2.008 1.996 1.941 1.873 1.831 1.78 1.745 1.674 1.624 1.55 1.447 1.349 1.245 1.093 0.935 0.694 0.33 -0.142 -0.436 -0.409 -0.414 -0.416 -0.419 -0.366 -0.374 -0.298 -0.066 0.095 0.288 0.424 0.559 0.711 0.92 1.366 1.887 2.424 2.884 3.323 3.841 4.404 4.899 5.264 4.789 4.066 3.466 3.386 3.289 2.669 2.216 2.534 2.629 2.656 2.644 2.641 2.646 2.669 2.746 2.911 3.084 3.246 3.344 3.381 3.366 3.361 3.359 3.336 3.304 3.266 3.236 3.254 3.224 3.204 3.169 3.211 3.276 3.329 3.331 3.309 3.314 3.274 3.259 3.246 3.249 3.244 3.254 3.259 3.251 3.249 3.254 3.256 3.241 3.239 3.254 3.249 3.251 3.256 3.261 3.234 3.201 3.106 3.014 2.894 2.739 2.599 2.481 2.406 2.374 2.356 2.341 2.331 2.269 2.211 2.159 2.116 2.071 2.029 2.004 1.924 1.884 1.894 1.809 1.841 1.916 1.869 1.839 1.861 1.641 1.661 1.759 1.809 1.846 1.839 1.851 1.956 1.944 1.946 1.976 1.996 2.034 2.081 2.111 2.211 2.351 3.454 2.351 2.316 2.334 2.351 2.416 2.519 2.541 2.761 4.319 4.556 4.501 4.924 5.109 4.994 3.801 2.811 2.876 2.821 2.736 2.819 2.794 2.819 2.854 2.894 2.946 3.014 3.051 3.129 3.184 3.234 3.294 3.359 3.399 3.446 3.441 3.476 3.494 3.469 3.466 3.481 3.501 3.494 3.481 3.481 3.451 3.379 3.369 3.384 3.406 3.409 3.396 3.419 3.416 3.409 3.416 3.396 3.339 3.261 3.216 3.244 3.289 3.296 3.254 3.226 3.204 3.236 3.239 3.266 3.281 3.334 3.366 3.359 3.414 3.454 3.449 3.511 3.569 3.576 3.509 3.209 2.999 2.754 2.611 2.494 2.486 2.469 2.504 2.536 2.289 2.294 2.609 2.406 2.444 2.486 2.526 2.594 2.662 2.776 2.95 3.124 3.334 4.217 5.221 5.765 5.207 5.822 6.2 6.419 6.365 6.55 6.636 6.679 6.696 6.654 6.671 6.666 6.706 6.754 6.736 6.776 6.826 6.834 6.796 6.796 6.806 6.836 6.884 6.921 6.919 6.916 7.001 7.096 7.184 7.181 7.139 7.141 7.134 7.131 7.099 6.889 6.771 6.689 6.939 6.931 7.149 7.336 7.264 7.204 7.294 7.334 6.586 6.019 6.079 6.069 6.079 6.079 6.114 6.169 6.166 6.046 6.026 6.086 6.059 5.936 5.964 6.049 6.094 6.186 6.254 6.514 6.994 6.914 6.781 6.484 5.994 5.524 6.641 6.436 6.819 4.971 7.444 8.576 4.451 4.536 3.811 4.026 3.971 4.011 3.816 3.779 3.761 3.786 3.799 3.739 3.936 4.119 4.466 4.566 5.416 5.184 4.784 4.319 3.764 3.924 5.051 5.119 5.289 5.279 4.894 5.636 4.584 4.616 4.604 4.556 4.541 4.519 4.546 4.591 4.646 4.604 4.576 4.609 4.611 4.619 4.641 4.649 4.621 4.626 4.646 4.654 4.656 4.669 4.706 4.706 4.719 4.701
3.005 2.985 2.97 2.975 2.993 3.017 3.02 2.995 2.923 2.817 2.882 2.918 2.855 2.737 2.61 2.543 2.533 2.483 2.463 2.443 2.44 2.43 2.445 2.473 2.513 2.533 2.515 2.562 2.577 2.577 2.557 2.567 2.545 2.537 2.52 2.487 2.465 2.45 2.438 2.423 2.418 2.413 2.403 2.409 2.419 2.416 2.441 2.432 2.46 2.47 2.478 2.518 2.565 2.592 2.617 2.645 2.689 2.744 2.759 2.804 2.861 2.886 2.866 2.861 2.901 2.944 3.009 2.941 2.884 2.989 2.929 2.944 2.974 2.956 3.006 3.056 3.241 3.276 3.386 3.434 3.626 3.699 3.846 4.559 5.361 5.734 5.339 4.844 4.364 4.099 3.984 3.881 3.804 3.704 3.386 2.839 2.596 2.439 2.406 2.531 3.214 3.661 3.626 3.646 3.721 3.746 3.724 3.721 3.766 3.851 3.856 3.839 3.761 3.241 2.551 2.364 2.221 2.144 2.087 2.032 1.984 1.949 1.887 1.869 1.82 1.758 1.708 1.66 1.584 1.531 1.429 1.326 1.217 1.065 0.874 0.603 0.179 -0.308 -0.416 -0.511 -0.399 -0.401 -0.441 -0.432 -0.462 -0.259 -0.039 0.134 0.275 0.439 0.58 0.751 1.142 1.707 2.23 2.708 3.102 3.639 4.209 4.594 5.231 5.261 4.406 3.741 3.409 3.414 2.941 2.379 2.321 2.509 2.666 2.666 2.649 2.644 2.654 2.696 2.819 3.016 3.176 3.304 3.374 3.381 3.379 3.369 3.349 3.316 3.279 3.266 3.276 3.241 3.194 3.189 3.214 3.284 3.331 3.341 3.331 3.326 3.286 3.269 3.231 3.246 3.244 3.251 3.269 3.281 3.236 3.276 3.264 3.244 3.259 3.256 3.244 3.246 3.221 3.221 3.184 3.109 3.021 2.924 2.781 2.654 2.504 2.406 2.381 2.339 2.314 2.314 2.274 2.236 2.186 2.146 2.056 2.001 1.961 1.889 1.861 1.844 1.819 1.864 1.906 2.066 1.811 1.826 1.746 1.711 1.716 1.841 1.901 1.876 1.901 1.974 1.934 2.016 2.006 1.971 2.051 2.119 2.239 2.289 2.389 2.381 2.349 2.324 2.311 2.406 2.524 2.541 2.711 3.554 3.701 4.176 3.811 3.751 5.636 4.121 4.049 4.421 4.359 4.104 3.294 2.854 2.866 2.866 2.886 2.919 2.956 3.009 3.046 3.109 3.181 3.276 3.364 3.419 3.486 3.504 3.521 3.526 3.516 3.494 3.506 3.504 3.496 3.506 3.494 3.496 3.479 3.446 3.421 3.429 3.424 3.434 3.434 3.416 3.404 3.376 3.381 3.376 3.356 3.271 3.236 3.311 3.346 3.326 3.291 3.234 3.211 3.224 3.234 3.251 3.284 3.341 3.334 3.409 3.399 3.429 3.474 3.496 3.516 3.569 3.576 3.406 3.149 2.891 2.664 2.556 2.491 2.504 2.456 2.509 2.479 2.234 2.461 2.599 2.421 2.434 2.469 2.539 2.627 2.725 2.852 3.082 3.264 3.539 5.06 5.436 6.011 5.135 5.409 5.835 6.284 6.365 6.579 6.634 6.724 6.736 6.679 6.621 6.644 6.679 6.751 6.759 6.839 6.894 6.806 6.791 6.789 6.801 6.826 6.899 6.934 6.949 6.961 6.999 7.081 7.146 7.176 7.136 7.171 7.224 7.224 7.189 7.009 6.901 7.229 7.581 7.506 7.574 7.611 7.654 7.584 7.519 7.464 7.249 6.409 6.046 6.054 6.199 6.146 6.141 6.124 6.144 6.104 6.086 6.069 6.066 6.126 6.101 6.151 6.159 6.214 6.254 6.434 6.726 7.001 6.711 6.094 5.679 5.726 5.789 5.854 7.459 6.221 7.279 7.216 5.136 4.766 4.281 4.234 3.994 3.924 3.781 3.836 3.846 3.856 3.806 3.756 3.749 3.806 4.139 4.199 5.176 6.204 4.584 4.534 3.816 4.026 5.654 5.391 5.434 5.246 4.886 5.306 4.556 4.621 4.619 4.576 4.561 4.544 4.549 4.566 4.604 4.589 4.614 4.619 4.631 4.651 4.661 4.666 4.649 4.664 4.699 4.646 4.639 4.646 4.656 4.671 4.656 4.666
3.135 3.118 3.085 3.062 3.06 3.062 3.075 3.047 2.952 2.862 3.023 3.033 3.003 2.943 2.827 2.705 2.62 2.567 2.557 2.507 2.475 2.453 2.44 2.433 2.433 2.445 2.443 2.445 2.477 2.487 2.447 2.477 2.44 2.43 2.423 2.42 2.403 2.405 2.41 2.41 2.408 2.41 2.422 2.426 2.446 2.479 2.5 2.544 2.592 2.651 2.696 2.751 2.798 2.835 2.863 2.895 2.943 3.009 3.064 3.131 3.181 3.176 3.094 3.021 3.106 3.124 3.174 3.126 3.164 3.134 2.986 3.011 3.016 2.961 3.151 3.579 2.931 2.954 3.459 3.481 3.634 3.734 3.879 4.596 5.404 5.741 5.306 4.841 4.361 4.079 3.961 3.874 3.796 3.539 3.006 2.654 2.461 2.469 2.649 3.069 3.634 3.731 3.659 3.689 3.769 3.726 3.731 3.764 3.791 3.834 3.596 3.849 3.766 3.696 2.889 2.434 2.289 2.191 2.124 2.083 2.032 1.988 1.928 1.904 1.842 1.815 1.747 1.701 1.648 1.596 1.507 1.393 1.306 1.192 1.054 0.826 0.489 -0.002 -0.364 -0.462 -0.401 -0.411 -0.439 -0.447 -0.43 -0.449 -0.206 -0.003 0.145 0.303 0.439 0.608 0.904 1.447 1.958 2.469 2.966 3.394 4.114 4.556 5.111 5.299 4.639 4.021 3.476 3.466 3.254 2.581 2.229 2.491 2.626 2.661 2.644 2.656 2.669 2.694 2.774 2.954 3.099 3.231 3.336 3.374 3.384 3.374 3.349 3.344 3.324 3.291 3.281 3.251 3.204 3.204 3.229 3.281 3.334 3.349 3.331 3.319 3.301 3.256 3.236 3.254 3.256 3.259 3.266 3.249 3.266 3.279 3.284 3.276 3.259 3.251 3.236 3.204 3.194 3.169 3.091 3.016 2.904 2.786 2.676 2.561 2.444 2.366 2.304 2.279 2.266 2.231 2.201 2.174 2.126 2.064 1.989 1.941 1.891 1.871 1.809 1.904 1.879 1.936 1.959 1.856 1.799 1.761 1.656 1.734 1.756 1.769 1.879 1.884 1.946 1.929 1.951 1.979 2.034 2.086 2.199 2.306 2.366 2.341 2.399 2.394 2.389 2.366 2.391 2.771 2.724 2.914 2.836 2.969 3.104 3.944 3.851 4.119 4.169 3.946 3.916 4.039 3.496 3.014 3.024 3.001 3.026 3.026 3.061 3.126 3.214 3.291 3.294 3.361 3.391 3.451 3.481 3.536 3.549 3.486 3.471 3.486 3.456 3.446 3.459 3.451 3.429 3.444 3.451 3.459 3.449 3.449 3.456 3.481 3.521 3.459 3.436 3.409 3.386 3.419 3.384 3.346 3.331 3.271 3.329 3.364 3.364 3.321 3.241 3.216 3.224 3.224 3.244 3.251 3.299 3.334 3.329 3.391 3.419 3.436 3.449 3.519 3.534 3.539 3.526 3.299 3.084 2.819 2.706 2.526 2.489 2.476 2.501 2.466 2.501 2.226 2.564 2.561 2.431 2.456 2.464 2.556 2.589 2.744 2.956 3.236 3.43 3.758 5.886 6.435 7.244 5.835 5.85 5.919 6.298 6.364 6.489 6.624 6.596 6.661 6.641 6.651 6.696 6.686 6.741 6.786 6.839 6.896 6.851 6.834 6.854 6.869 6.859 6.959 6.931 6.996 7.056 7.061 7.119 7.186 7.154 7.154 7.224 7.286 7.246 7.264 7.109 7.176 7.554 7.731 7.724 7.724 7.726 7.716 7.696 7.614 7.511 7.424 7.221 6.291 6.124 6.146 6.174 6.156 6.124 6.146 6.211 6.129 6.139 6.176 6.136 6.184 6.146 6.094 6.161 6.231 6.314 6.474 6.464 6.064 5.631 5.361 5.554 5.499 4.769 4.176 3.704 3.724 5.766 6.634 6.939 4.954 4.109 4.849 3.789 3.814 4.231 3.804 3.811 4.306 3.796 3.741 4.016 3.869 3.926 3.846 4.861 4.424 4.394 3.856 4.281 5.621 5.666 5.871 5.326 5.386 4.839 4.504 4.531 4.584 4.574 4.566 4.566 4.571 4.566 4.606 4.599 4.634 4.616 4.641 4.654 4.676 4.684 4.664 4.644 4.634 4.591 4.576 4.619 4.616 4.629 4.656 4.716
3.235 3.215 3.2 3.193 3.18 3.173 3.155 3.138 3.085 2.913 3.065 3.142 3.11 3.08 3.007 2.93 2.838 2.723 2.612 2.557 2.515 2.477 2.467 2.467 2.49 2.495 2.495 2.447 2.44 2.44 2.43 2.413 2.42 2.418 2.418 2.418 2.423 2.45 2.435 2.443 2.44 2.465 2.497 2.524 2.552 2.601 2.636 2.667 2.779 2.896 2.959 3.005 3.057 3.099 3.148 3.174 3.224 3.279 3.331 3.404 3.429 3.436 3.396 3.346 3.414 3.416 3.381 3.274 3.181 3.114 3.066 3.031 3.021 2.954 3.154 3.441 2.219 2.091 2.964 3.514 3.644 3.769 3.871 4.641 5.526 5.719 5.294 4.844 4.344 4.044 3.944 3.841 3.794 3.764 3.599 2.679 2.514 2.934 3.521 3.799 3.774 3.699 3.784 3.771 3.764 3.771 3.789 3.784 3.841 3.709 3.796 3.821 3.789 3.724 3.479 2.711 2.389 2.251 2.196 2.089 2.042 2.03 1.927 1.935 1.871 1.833 1.766 1.723 1.673 1.633 1.568 1.489 1.403 1.308 1.195 1.014 0.758 0.352 -0.208 -0.421 -0.426 -0.406 -0.416 -0.447 -0.469 -0.45 -0.391 -0.179 -0.001 0.172 0.314 0.448 0.676 1.214 1.744 2.26 2.834 3.294 3.739 4.421 4.904 5.354 5.021 4.214 3.571 3.504 3.554 2.929 2.299 2.361 2.611 2.651 2.686 2.661 2.666 2.686 2.729 2.884 3.009 3.146 3.284 3.351 3.371 3.364 3.406 3.361 3.319 3.304 3.284 3.251 3.216 3.201 3.251 3.301 3.344 3.369 3.361 3.321 3.296 3.266 3.239 3.229 3.241 3.269 3.269 3.256 3.266 3.266 3.271 3.271 3.254 3.236 3.224 3.179 3.134 3.064 2.986 2.906 2.801 2.681 2.551 2.454 2.371 2.279 2.241 2.214 2.184 2.164 2.136 2.096 2.024 1.976 1.919 1.876 1.831 1.809 1.854 1.859 2.019 2.014 1.834 1.749 1.699 1.631 1.659 1.701 1.769 1.754 1.916 1.984 2.016 2.029 2.066 2.091 2.134 2.221 2.224 2.234 2.306 2.389 2.479 2.479 2.576 3.724 3.071 2.829 3.026 3.074 2.886 3.061 3.309 3.166 3.474 3.706 3.796 3.711 3.539 3.771 3.111 3.146 3.139 3.171 3.194 3.249 3.276 3.319 3.344 3.391 3.371 3.421 3.461 3.476 3.504 3.536 3.534 3.556 3.619 3.641 3.611 3.604 3.636 3.619 3.559 3.511 3.486 3.454 3.449 3.406 3.374 3.389 3.396 3.439 3.471 3.441 3.424 3.396 3.384 3.366 3.339 3.391 3.409 3.399 3.341 3.266 3.251 3.244 3.209 3.269 3.244 3.231 3.286 3.286 3.319 3.374 3.411 3.451 3.464 3.481 3.474 3.496 3.479 3.169 3.031 2.774 2.656 2.499 2.479 2.474 2.474 2.474 2.261 2.229 2.561 2.569 2.449 2.496 2.521 2.569 2.669 2.841 3.145 3.399 3.599 3.754 4.966 6.011 6.589 5.911 5.961 6.138 6.409 6.32 6.446 6.584 6.591 6.614 6.661 6.731 6.684 6.661 6.709 6.799 6.861 6.881 6.846 6.889 6.926 6.954 6.946 6.984 6.959 7.004 7.091 7.146 7.169 7.204 7.151 7.171 7.239 7.324 7.311 7.359 7.289 7.371 7.611 7.689 7.801 7.799 7.764 7.804 7.779 7.684 7.531 7.446 7.471 6.839 6.041 6.089 6.179 6.166 6.119 6.101 6.149 6.196 6.171 6.171 6.169 6.166 6.199 6.189 6.194 6.161 6.094 6.061 6.079 5.929 5.436 5.206 5.291 5.336 4.769 5.261 4.159 3.771 3.836 4.521 5.601 5.491 4.476 4.691 3.856 4.296 5.811 5.251 4.196 4.416 4.946 3.886 4.639 3.774 4.061 4.271 3.824 3.909 3.964 3.934 4.601 5.716 6.794 6.794 5.536 5.734 4.604 4.519 4.489 4.534 4.601 4.566 4.571 4.566 4.554 4.579 4.616 4.616 4.626 4.651 4.676 4.696 4.694 4.694 4.644 4.606 4.581 4.596 4.596 4.599 4.591 4.671 4.749
3.29 3.285 3.297 3.305 3.287 3.293 3.27 3.237 3.165 2.993 3.11 3.185 3.165 3.155 3.11 3.08 3.017 2.928 2.795 2.673 2.577 2.535 2.52 2.503 2.493 2.487 2.51 2.515 2.487 2.45 2.435 2.435 2.438 2.438 2.457 2.463 2.475 2.5 2.533 2.533 2.543 2.56 2.617 2.647 2.693 2.767 2.815 2.86 2.962 3.072 3.156 3.189 3.227 3.29 3.319 3.375 3.411 3.429 3.466 3.479 3.521 3.556 3.566 3.521 3.526 3.519 3.514 3.354 3.406 3.454 3.169 3.196 3.124 3.099 3.476 3.049 2.029 1.916 2.566 3.456 3.661 3.776 3.999 4.691 5.556 5.719 5.254 4.774 4.259 4.021 3.914 3.839 3.819 3.809 3.519 2.604 2.644 3.489 3.801 3.831 3.801 3.799 3.776 3.774 3.769 3.766 3.789 3.851 3.899 3.851 3.811 3.844 3.779 3.726 3.676 3.276 2.574 2.346 2.224 2.146 2.078 2.027 1.979 1.94 1.888 1.83 1.791 1.755 1.702 1.647 1.612 1.556 1.47 1.385 1.286 1.14 0.941 0.636 0.158 -0.352 -0.408 -0.404 -0.466 -0.467 -0.47 -0.478 -0.477 -0.364 -0.139 0.026 0.178 0.334 0.496 0.899 1.505 2.048 2.582 3.064 3.534 4.224 4.674 5.291 5.291 4.496 3.744 3.479 3.519 3.136 2.446 2.301 2.571 2.689 2.701 2.686 2.664 2.671 2.694 2.804 2.921 3.064 3.211 3.329 3.391 3.401 3.389 3.376 3.354 3.301 3.296 3.284 3.239 3.221 3.269 3.306 3.346 3.341 3.349 3.334 3.304 3.271 3.246 3.231 3.271 3.269 3.264 3.264 3.266 3.261 3.269 3.261 3.264 3.216 3.174 3.089 3.039 2.956 2.864 2.759 2.666 2.564 2.479 2.351 2.266 2.156 2.099 2.154 2.111 2.091 2.059 1.981 1.959 1.934 1.916 1.879 1.801 1.746 1.894 2.161 1.939 1.666 1.704 1.684 1.671 1.601 1.644 1.726 1.791 1.861 2.009 2.061 2.139 2.154 2.216 2.201 2.194 2.231 2.196 2.291 2.424 2.499 3.926 3.679 3.424 3.156 2.994 3.104 3.064 3.111 3.054 3.126 3.241 3.234 3.309 3.466 3.521 3.481 3.811 3.771 3.351 3.366 3.314 3.386 3.411 3.461 3.464 3.499 3.516 3.524 3.511 3.491 3.514 3.526 3.504 3.501 3.511 3.549 3.576 3.571 3.546 3.544 3.599 3.619 3.591 3.541 3.496 3.494 3.511 3.524 3.489 3.466 3.456 3.411 3.349 3.341 3.426 3.454 3.451 3.384 3.449 3.479 3.449 3.384 3.326 3.281 3.256 3.266 3.276 3.266 3.289 3.251 3.301 3.306 3.381 3.411 3.429 3.471 3.469 3.449 3.416 3.454 3.351 3.141 2.964 2.729 2.566 2.441 2.446 2.436 2.486 2.534 2.274 2.224 2.569 2.476 2.434 2.481 2.541 2.631 2.761 3.036 3.37 3.586 3.749 4.249 5.254 5.932 6.308 6.058 6.271 6.925 6.525 6.335 6.489 6.601 6.606 6.606 6.669 6.729 6.686 6.684 6.739 6.831 6.881 6.881 6.864 6.871 6.901 6.961 7.049 7.069 6.969 7.016 7.119 7.169 7.184 7.194 7.171 7.156 7.244 7.336 7.419 7.456 7.496 7.684 7.824 7.761 7.809 7.796 7.754 7.846 7.891 7.686 7.624 7.536 7.456 7.166 5.971 6.081 6.256 6.161 6.189 6.181 6.154 6.071 6.111 6.094 6.076 6.099 6.144 6.286 6.409 6.351 6.066 6.041 6.094 6.119 5.589 5.436 5.239 5.219 5.224 6.121 4.981 3.741 3.754 4.004 4.574 4.146 3.876 3.911 3.789 4.699 5.771 5.706 4.244 4.491 4.636 3.911 3.736 3.724 3.849 4.291 3.861 3.869 3.816 3.849 4.634 5.556 5.394 5.484 5.316 5.406 4.471 4.586 4.526 4.581 4.584 4.581 4.559 4.544 4.556 4.591 4.611 4.606 4.614 4.649 4.651 4.696 4.714 4.671 4.604 4.576 4.584 4.596 4.591 4.601 4.616 4.729 4.751
3.382 3.378 3.367 3.37 3.355 3.347 3.317 3.283 3.19 3.007 3.193 3.267 3.247 3.225 3.158 3.145 3.12 3.067 2.977 2.825 2.713 2.655 2.608 2.572 2.533 2.547 2.517 2.515 2.513 2.465 2.457 2.473 2.473 2.497 2.525 2.537 2.567 2.61 2.64 2.66 2.697 2.713 2.781 2.84 2.887 2.969 3.036 3.092 3.147 3.218 3.302 3.295 3.32 3.355 3.367 3.394 3.396 3.444 3.469 3.501 3.544 3.554 3.564 3.554 3.479 3.479 3.504 3.389 4.666 6.591 5.456 3.641 3.424 3.704 4.481 3.036 1.961 2.001 2.549 3.426 3.679 3.796 4.021 4.761 5.606 5.646 5.216 4.751 4.271 4.016 3.909 3.849 3.816 3.539 2.856 2.609 2.646 3.586 3.794 3.804 3.791 3.786 3.804 3.809 3.826 3.841 3.866 3.901 3.894 3.859 3.751 3.776 3.791 3.746 3.729 3.714 3.026 2.391 2.296 2.186 2.134 2.033 2.007 1.947 1.918 1.868 1.82 1.802 1.74 1.693 1.635 1.591 1.507 1.456 1.364 1.237 1.103 0.881 0.468 -0.028 -0.341 -0.442 -0.405 -0.357 -0.395 -0.418 -0.481 -0.446 -0.316 -0.111 0.045 0.207 0.37 0.596 1.255 1.667 2.268 2.826 3.29 3.721 4.444 4.971 5.286 4.746 3.931 3.471 3.464 3.394 2.674 2.249 2.594 2.679 2.699 2.689 2.676 2.661 2.664 2.739 2.829 2.971 3.116 3.279 3.361 3.396 3.391 3.364 3.336 3.324 3.324 3.279 3.236 3.244 3.271 3.304 3.336 3.349 3.341 3.331 3.291 3.279 3.259 3.239 3.244 3.274 3.256 3.256 3.279 3.256 3.269 3.259 3.221 3.174 3.094 3.006 2.919 2.824 2.739 2.641 2.536 2.451 2.349 2.246 2.136 2.106 2.049 2.049 2.031 1.974 1.991 2.014 1.981 1.979 1.889 1.841 1.861 1.774 1.766 1.811 1.641 1.786 1.699 1.606 1.606 1.639 1.854 1.921 1.954 2.114 2.164 2.209 2.196 2.226 2.169 2.241 2.259 2.309 2.464 2.829 4.296 4.181 3.714 3.046 3.176 3.649 3.354 3.149 3.211 3.396 3.349 3.376 3.506 3.409 3.486 3.559 3.564 3.586 3.576 3.641 3.534 3.526 3.416 3.529 3.559 3.599 3.624 3.654 3.671 3.631 3.599 3.579 3.591 3.589 3.549 3.569 3.604 3.586 3.554 3.531 3.501 3.531 3.574 3.581 3.584 3.539 3.526 3.574 3.576 3.514 3.486 3.404 3.469 3.491 3.486 3.436 3.376 3.321 3.366 3.434 3.496 3.549 3.509 3.389 3.321 3.306 3.281 3.274 3.254 3.324 3.329 3.316 3.336 3.279 3.381 3.421 3.441 3.434 3.456 3.454 3.406 3.419 3.224 3.111 2.874 2.676 2.531 2.441 2.444 2.444 2.501 2.549 2.296 2.311 2.651 2.499 2.476 2.529 2.559 2.729 2.859 3.24 3.516 3.75 3.87 4.384 5.657 6.086 6.907 6.107 6.167 7.045 6.543 6.372 6.536 6.625 6.666 6.691 6.654 6.739 6.736 6.719 6.764 6.836 6.911 6.916 6.874 6.891 6.914 6.941 7.046 7.084 7.081 7.121 7.119 7.164 7.189 7.226 7.219 7.174 7.216 7.339 7.476 7.524 7.621 7.741 7.746 7.781 7.776 7.754 7.759 7.751 7.721 7.719 7.596 7.346 7.086 6.541 6.156 6.356 6.581 6.314 6.121 6.139 6.089 6.084 6.074 6.089 6.156 6.174 6.189 6.579 7.091 6.916 6.419 6.056 6.114 6.206 6.146 6.021 6.004 5.629 6.266 7.201 7.296 6.006 3.769 3.934 3.896 3.906 3.864 3.856 3.786 3.801 3.814 4.299 5.476 4.671 3.991 3.816 3.779 3.891 3.809 3.796 3.836 3.791 3.884 3.956 5.751 6.609 5.806 5.326 5.554 5.309 4.519 4.611 4.644 4.651 4.581 4.596 4.579 4.531 4.564 4.586 4.614 4.614 4.619 4.646 4.679 4.706 4.714 4.696 4.649 4.636 4.636 4.621 4.594 4.636 4.691 4.729 4.779
3.428 3.423 3.413 3.423 3.408 3.395 3.358 3.32 3.265 3.047 3.15 3.295 3.312 3.28 3.243 3.215 3.185 3.148 3.09 2.997 2.892 2.807 2.747 2.68 2.648 2.635 2.608 2.575 2.553 2.55 2.54 2.547 2.55 2.58 2.625 2.658 2.71 2.78 2.812 2.852 2.903 2.847 2.946 3.019 3.068 3.133 3.198 3.261 3.328 3.36 3.389 3.389 3.391 3.395 3.402 3.402 3.404 3.414 3.479 3.539 3.549 3.591 3.546 3.516 3.464 3.484 3.504 3.434 5.106 7.049 5.639 3.034 3.131 3.369 4.969 3.144 1.944 2.004 2.736 3.474 3.699 3.806 4.106 4.806 5.641 5.629 5.171 4.674 4.254 4.029 3.934 3.831 3.761 3.201 3.186 2.824 2.621 2.986 3.764 3.799 3.799 3.806 3.861 3.879 3.909 3.879 3.926 3.906 3.901 3.871 3.824 3.824 3.796 3.744 3.706 3.734 3.576 2.629 2.361 2.224 2.144 2.066 2.028 1.997 1.919 1.89 1.858 1.8 1.75 1.718 1.673 1.637 1.544 1.51 1.412 1.337 1.192 1.014 0.773 0.415 -0.147 -0.414 -0.423 -0.383 -0.44 -0.468 -0.481 -0.459 -0.441 -0.274 -0.085 0.081 0.247 0.439 0.722 1.258 2.028 2.619 3.104 3.638 4.249 4.619 5.286 5.104 4.281 3.514 3.366 3.339 2.809 2.314 2.401 2.711 2.706 2.709 2.674 2.674 2.641 2.691 2.754 2.899 3.046 3.209 3.326 3.359 3.379 3.371 3.359 3.329 3.316 3.281 3.251 3.239 3.286 3.316 3.329 3.321 3.311 3.316 3.289 3.281 3.284 3.269 3.266 3.271 3.274 3.264 3.291 3.289 3.271 3.226 3.186 3.114 2.999 2.899 2.796 2.704 2.594 2.516 2.426 2.331 2.256 2.141 2.036 1.969 1.944 1.911 1.964 1.989 1.971 2.001 2.021 1.974 1.929 1.906 1.976 2.034 1.794 1.771 1.694 1.619 1.606 1.619 1.714 1.856 2.001 2.141 2.316 2.306 2.301 2.274 2.191 2.214 2.249 2.364 2.406 3.691 2.931 3.991 3.904 3.689 3.379 3.521 3.859 3.351 3.626 3.359 3.489 3.491 3.514 3.591 3.601 3.656 3.701 3.716 3.681 3.594 3.624 3.614 3.696 3.614 3.459 3.581 3.639 3.729 3.764 3.829 3.814 3.744 3.704 3.711 3.751 3.711 3.709 3.691 3.714 3.729 3.669 3.649 3.581 3.501 3.511 3.531 3.544 3.531 3.566 3.624 3.644 3.619 3.529 3.506 3.529 3.519 3.484 3.471 3.454 3.451 3.451 3.444 3.379 3.394 3.449 3.394 3.344 3.329 3.301 3.291 3.271 3.311 3.421 3.394 3.354 3.309 3.349 3.451 3.409 3.451 3.474 3.434 3.406 3.379 3.134 3.019 2.841 2.626 2.486 2.421 2.439 2.441 2.496 2.296 2.264 2.296 2.771 2.476 2.439 2.546 2.659 2.789 3.031 3.423 3.693 3.884 3.975 4.29 5.657 6.408 6.915 5.911 6.195 6.928 6.499 6.309 6.542 6.635 6.691 6.711 6.641 6.664 6.721 6.726 6.766 6.844 6.906 6.921 6.901 6.864 6.921 6.939 7.029 7.064 7.051 7.031 7.109 7.189 7.191 7.204 7.191 7.219 7.211 7.339 7.464 7.624 7.739 7.729 7.769 7.679 7.704 7.724 7.716 7.759 7.704 7.649 7.534 7.374 6.959 6.736 7.029 6.976 6.856 6.464 6.119 6.076 6.086 6.056 6.081 6.164 6.199 6.184 6.186 6.484 6.991 6.809 6.511 6.114 6.131 6.204 6.169 6.196 6.194 6.226 5.504 6.246 6.966 7.419 4.129 3.924 3.819 3.869 3.931 3.901 4.076 3.831 3.891 4.101 5.116 5.086 4.861 4.151 4.151 4.841 4.899 3.849 3.901 3.934 4.001 4.054 5.854 7.696 6.966 6.051 5.991 4.971 4.856 4.689 4.629 4.651 4.564 4.629 4.574 4.534 4.544 4.616 4.619 4.621 4.626 4.661 4.696 4.716 4.724 4.731 4.724 4.706 4.676 4.654 4.636 4.714 4.716 4.736 4.744
3.483 3.465 3.465 3.457 3.457 3.45 3.418 3.36 3.237 3.158 3.233 3.277 3.35 3.332 3.297 3.28 3.275 3.23 3.188 3.13 3.082 3.033 2.947 2.855 2.822 2.795 2.76 2.753 2.74 2.703 2.715 2.743 2.74 2.757 2.787 2.81 2.865 2.932 2.983 3.03 3.055 2.97 3.054 3.176 3.22 3.26 3.29 3.321 3.348 3.368 3.444 3.483 3.491 3.497 3.458 3.458 3.476 3.469 3.526 3.576 3.619 3.639 3.639 3.579 3.536 3.539 3.569 3.486 5.466 7.114 6.106 3.216 3.504 3.216 4.849 3.134 1.826 1.866 2.836 3.496 3.714 3.854 4.184 4.909 5.686 5.579 5.114 4.619 4.231 4.044 3.956 3.819 3.671 3.711 3.819 3.761 2.774 2.866 3.711 3.789 3.794 3.811 3.859 3.884 3.876 3.889 3.911 3.886 3.856 3.849 3.806 3.784 3.761 3.729 3.716 3.681 3.641 3.016 2.389 2.251 2.151 2.124 2.046 2.008 1.942 1.916 1.852 1.812 1.78 1.738 1.699 1.64 1.61 1.554 1.468 1.396 1.285 1.144 0.964 0.7 0.306 -0.259 -0.374 -0.463 -0.463 -0.476 -0.496 -0.475 -0.479 -0.426 -0.233 -0.051 0.129 0.326 0.595 1.193 1.818 2.387 2.861 3.397 3.866 4.522 5.169 5.249 4.561 3.724 3.391 3.264 3.179 2.526 2.289 2.634 2.751 2.721 2.684 2.659 2.641 2.654 2.686 2.814 2.959 3.131 3.276 3.354 3.364 3.346 3.376 3.344 3.319 3.254 3.206 3.251 3.281 3.291 3.319 3.319 3.309 3.289 3.299 3.259 3.284 3.284 3.261 3.271 3.271 3.279 3.296 3.314 3.259 3.201 3.129 3.039 2.934 2.801 2.716 2.579 2.486 2.381 2.306 2.226 2.181 2.071 1.954 1.891 1.879 1.901 1.951 1.969 2.004 2.014 1.986 1.969 1.991 2.014 1.891 1.881 1.711 1.634 1.601 1.631 1.716 1.804 2.099 2.261 2.301 2.336 2.279 2.241 2.281 2.234 2.264 2.336 2.566 3.066 3.286 3.529 3.584 3.384 3.444 3.756 3.859 4.246 3.849 3.571 3.674 3.596 3.586 3.594 3.739 3.754 3.734 3.709 3.794 3.786 3.666 3.626 3.689 3.729 3.674 3.706 3.556 3.681 3.731 3.851 3.981 4.071 4.019 3.949 3.969 3.996 3.996 3.941 3.949 3.939 3.931 3.936 3.929 3.836 3.709 3.619 3.624 3.581 3.571 3.599 3.631 3.694 3.666 3.596 3.541 3.491 3.521 3.509 3.474 3.439 3.506 3.549 3.524 3.489 3.434 3.379 3.339 3.269 3.269 3.271 3.289 3.291 3.311 3.361 3.426 3.409 3.371 3.366 3.381 3.439 3.446 3.449 3.476 3.461 3.406 3.286 3.109 2.926 2.721 2.559 2.434 2.414 2.471 2.444 2.369 2.276 2.209 2.411 2.776 2.479 2.476 2.546 2.676 2.884 3.219 3.571 3.813 3.991 4.013 4.289 5.683 6.5 6.5 5.828 6.289 6.719 6.5 6.372 6.505 6.613 6.696 6.701 6.634 6.576 6.669 6.711 6.751 6.806 6.899 6.984 6.891 6.866 6.916 6.944 6.964 6.971 6.976 7.041 7.064 7.194 7.186 7.266 7.214 7.214 7.166 7.364 7.566 7.611 7.659 7.666 7.609 7.599 7.626 7.666 7.686 7.694 7.634 7.591 7.504 7.401 7.464 7.596 7.761 7.471 7.151 6.314 5.984 6.034 6.114 6.129 6.091 6.191 6.229 6.271 6.204 6.304 6.456 6.249 6.246 6.131 6.246 6.201 6.296 6.546 6.629 6.909 6.766 7.281 7.096 5.041 4.164 4.166 4.066 4.124 4.041 4.004 4.224 4.464 3.839 4.136 5.896 5.411 6.406 4.394 4.286 5.166 5.291 3.851 3.856 4.051 4.106 4.281 5.609 6.844 6.479 5.879 6.271 5.126 4.874 4.679 4.624 4.639 4.584 4.634 4.606 4.619 4.614 4.616 4.654 4.656 4.659 4.681 4.719 4.776 4.729 4.771 4.759 4.761 4.734 4.696 4.701 4.731 4.711 4.759 4.759
3.58 3.575 3.592 3.61 3.608 3.585 3.497 3.37 3.293 3.332 3.33 3.263 3.337 3.33 3.32 3.33 3.327 3.303 3.265 3.227 3.207 3.17 3.122 3.088 3.05 3.025 2.985 2.95 2.928 2.9 2.915 2.935 2.943 2.947 2.96 2.99 3.047 3.095 3.122 3.15 3.15 3.06 3.148 3.277 3.287 3.297 3.3 3.35 3.378 3.418 3.486 3.516 3.534 3.524 3.505 3.512 3.536 3.576 3.616 3.691 3.764 3.806 3.771 3.746 3.679 3.651 3.606 3.426 5.441 7.069 5.274 3.229 3.476 2.966 5.119 3.046 1.884 1.981 2.869 3.496 3.744 3.894 4.234 5.016 5.709 5.541 5.114 4.611 4.201 4.046 3.974 3.811 3.799 3.866 3.866 3.524 2.704 3.074 3.744 3.766 3.774 3.781 3.824 3.826 3.851 3.884 3.864 3.831 3.806 3.786 3.756 3.764 3.706 3.716 3.709 3.719 3.749 3.196 2.489 2.321 2.211 2.134 2.064 2.029 1.941 1.916 1.887 1.837 1.798 1.76 1.72 1.677 1.622 1.574 1.497 1.433 1.34 1.227 1.065 0.87 0.614 0.214 -0.278 -0.403 -0.476 -0.414 -0.394 -0.515 -0.481 -0.473 -0.388 -0.207 -0.027 0.173 0.447 1.024 1.588 2.164 2.68 3.139 3.723 4.318 4.749 5.281 4.829 4.044 3.526 3.221 3.156 2.699 2.259 2.534 2.734 2.704 2.689 2.651 2.634 2.631 2.664 2.756 2.889 3.049 3.216 3.316 3.374 3.379 3.364 3.339 3.314 3.241 3.209 3.229 3.254 3.289 3.304 3.299 3.311 3.299 3.279 3.286 3.276 3.289 3.254 3.271 3.266 3.276 3.284 3.284 3.226 3.154 3.069 2.974 2.859 2.746 2.599 2.481 2.384 2.266 2.199 2.164 2.084 1.999 1.914 1.864 1.846 1.871 1.939 1.986 2.004 1.986 2.016 2.181 1.991 1.821 1.704 1.621 1.644 1.646 1.704 1.886 2.226 2.321 2.316 2.316 2.304 2.261 2.306 2.371 2.411 2.559 2.969 2.519 2.889 3.114 3.511 3.299 3.429 3.589 3.614 4.139 4.191 4.421 4.034 4.019 3.724 3.826 3.814 3.841 3.879 3.804 3.769 3.799 3.781 3.684 3.711 3.799 3.759 3.784 3.786 3.796 3.679 3.774 3.841 3.991 4.124 4.196 4.176 4.136 4.131 4.196 4.141 4.109 4.149 4.154 4.129 4.124 4.059 3.904 3.774 3.676 3.651 3.626 3.656 3.749 3.729 3.711 3.649 3.559 3.541 3.516 3.484 3.446 3.449 3.481 3.524 3.566 3.596 3.554 3.496 3.444 3.364 3.319 3.306 3.276 3.244 3.299 3.304 3.364 3.426 3.424 3.411 3.396 3.419 3.439 3.451 3.479 3.489 3.451 3.404 3.191 3.056 2.821 2.646 2.536 2.436 2.426 2.431 2.369 2.404 2.349 2.216 2.504 2.749 2.514 2.521 2.679 2.794 3.016 3.411 3.725 3.922 3.999 3.996 4.12 5.738 6.382 6.527 5.723 6.019 6.509 6.602 6.704 6.634 6.648 6.724 6.701 6.646 6.629 6.664 6.719 6.764 6.834 6.916 7.066 6.909 6.884 6.931 6.931 6.954 6.946 6.966 7.031 7.089 7.189 7.191 7.209 7.236 7.244 7.239 7.381 7.589 7.679 7.781 7.631 7.619 7.676 7.694 7.764 7.756 7.729 7.711 7.591 7.489 7.454 7.836 7.766 7.706 7.321 6.936 6.359 6.016 5.966 6.076 6.084 6.136 6.174 6.224 6.204 6.219 6.276 6.264 6.306 6.271 6.246 6.214 6.099 6.299 6.744 6.844 7.114 7.291 7.176 6.359 5.926 5.101 4.914 4.346 4.226 4.099 4.071 3.944 3.929 3.899 3.894 5.671 5.736 5.499 4.184 3.834 4.016 4.136 4.104 3.896 4.174 4.374 4.659 5.466 5.636 5.626 5.731 5.466 5.529 5.001 4.571 4.589 4.616 4.621 4.684 4.651 4.641 4.646 4.629 4.644 4.644 4.666 4.699 4.746 4.756 4.721 4.739 4.754 4.761 4.796 4.796 4.741 4.724 5.234 5.306 4.761
3.78 3.75 3.753 3.737 3.685 3.6 3.525 3.42 3.447 3.418 3.36 3.277 3.303 3.312 3.317 3.32 3.332 3.335 3.32 3.297 3.273 3.26 3.217 3.18 3.165 3.168 3.168 3.172 3.172 3.173 3.165 3.13 3.092 3.082 3.097 3.108 3.15 3.18 3.207 3.14 3.12 3.195 3.248 3.275 3.279 3.286 3.297 3.355 3.424 3.481 3.534 3.576 3.594 3.59 3.577 3.583 3.616 3.684 3.774 3.856 3.909 3.944 3.904 3.844 3.729 3.636 3.599 3.456 4.449 4.961 4.424 3.884 3.849 2.811 3.741 2.671 1.936 2.139 2.951 3.529 3.779 3.879 4.341 5.064 5.721 5.504 5.036 4.561 4.194 4.046 3.996 3.866 3.826 3.871 3.879 3.521 2.754 2.959 3.259 3.164 3.671 3.761 3.819 3.826 3.834 3.799 3.664 3.664 3.649 3.664 3.666 3.629 3.611 3.601 3.716 3.719 3.726 3.349 2.474 2.341 2.246 2.249 2.086 2.029 2.004 1.954 1.876 1.874 1.828 1.814 1.737 1.687 1.641 1.599 1.557 1.513 1.412 1.298 1.16 0.987 0.796 0.525 0.181 -0.3 -0.433 -0.436 -0.439 -0.406 -0.512 -0.477 -0.468 -0.333 -0.166 0.003 0.237 0.752 1.385 1.916 2.451 2.932 3.407 4.141 4.548 5.291 5.251 4.341 3.666 3.249 3.059 2.811 2.346 2.456 2.694 2.681 2.679 2.639 2.606 2.604 2.619 2.694 2.831 2.971 3.139 3.271 3.346 3.376 3.354 3.336 3.286 3.229 3.211 3.221 3.254 3.264 3.286 3.301 3.291 3.301 3.296 3.281 3.274 3.259 3.269 3.259 3.246 3.249 3.254 3.246 3.156 3.076 2.991 2.921 2.786 2.656 2.516 2.374 2.239 2.151 2.096 2.044 1.979 1.944 1.911 1.829 1.836 1.896 1.961 2.001 2.014 2.004 2.046 1.834 1.706 1.696 1.629 1.719 1.916 2.241 2.336 2.399 2.379 2.344 2.339 2.361 2.419 2.411 2.514 2.826 3.116 2.986 2.804 3.071 3.474 3.066 3.501 3.506 3.731 3.831 4.049 4.269 4.439 4.549 4.039 3.996 3.856 3.976 4.016 3.876 3.876 3.839 3.806 3.819 3.796 3.819 3.774 3.864 3.866 3.974 3.946 3.951 3.844 3.851 3.931 4.051 4.166 4.239 4.226 4.214 4.189 4.254 4.261 4.231 4.239 4.216 4.239 4.211 4.114 3.996 3.924 3.819 3.721 3.684 3.754 3.764 3.746 3.731 3.689 3.596 3.559 3.509 3.504 3.479 3.504 3.519 3.511 3.566 3.564 3.544 3.526 3.476 3.414 3.354 3.346 3.341 3.271 3.291 3.286 3.276 3.329 3.424 3.454 3.444 3.486 3.514 3.506 3.489 3.489 3.491 3.374 3.154 2.939 2.739 2.554 2.529 2.479 2.459 2.364 2.404 2.579 2.396 2.251 2.499 2.616 2.554 2.579 2.716 2.926 3.209 3.561 3.854 3.978 3.997 3.974 4.312 6.691 6.11 6.757 5.547 5.855 6.294 6.599 6.548 6.71 6.654 6.669 6.676 6.624 6.659 6.664 6.736 6.759 6.836 6.891 6.924 6.914 6.889 6.924 6.914 6.961 6.929 7.004 7.021 7.101 7.174 7.209 7.239 7.304 7.289 7.346 7.501 7.561 7.616 7.671 7.646 7.621 7.636 7.671 7.704 7.676 7.714 7.674 7.596 7.501 7.434 7.789 7.399 6.904 6.539 6.164 5.934 5.949 6.096 5.974 6.094 6.094 6.166 6.191 6.156 6.234 6.269 6.266 6.309 6.246 6.186 6.189 6.174 6.304 6.669 6.934 7.169 7.151 7.226 6.466 5.674 5.164 5.001 4.466 4.429 4.339 4.331 4.329 4.404 4.481 4.444 4.911 5.246 5.039 4.346 4.129 4.206 4.299 4.149 4.184 4.369 4.794 5.029 5.561 5.556 5.641 5.891 4.974 4.566 4.549 4.564 4.574 4.606 4.626 4.676 4.684 4.684 4.649 4.649 4.656 4.671 4.686 4.681 4.714 4.739 4.744 4.764 4.771 4.784 4.801 4.834 4.711 5.004 5.946 4.884 4.824
3.96 3.955 3.91 3.855 3.725 3.628 3.553 3.51 3.588 3.517 3.428 3.367 3.34 3.322 3.317 3.33 3.327 3.34 3.325 3.307 3.305 3.33 3.295 3.27 3.3 3.32 3.335 3.35 3.378 3.398 3.355 3.315 3.255 3.245 3.213 3.213 3.223 3.237 3.225 3.138 3.195 3.257 3.266 3.279 3.283 3.316 3.361 3.396 3.45 3.513 3.582 3.637 3.666 3.665 3.705 3.761 3.811 3.861 3.881 3.921 3.949 3.954 3.921 3.746 3.664 3.611 3.584 3.539 3.479 3.494 3.451 3.296 3.051 2.794 2.819 2.456 1.996 2.066 3.021 3.524 3.796 3.914 4.361 5.114 5.746 5.466 4.999 4.531 4.154 4.029 3.934 3.821 3.809 3.879 3.864 3.769 2.914 2.771 2.784 2.791 3.029 3.691 3.801 3.831 3.866 3.941 3.821 3.811 3.846 3.836 3.786 3.786 3.769 3.726 3.636 3.724 3.709 3.616 2.769 2.394 2.299 2.201 2.156 2.086 2.006 1.986 1.904 1.876 1.855 1.794 1.77 1.707 1.658 1.641 1.578 1.51 1.435 1.337 1.223 1.084 0.933 0.728 0.476 0.127 -0.304 -0.441 -0.436 -0.431 -0.441 -0.54 -0.506 -0.491 -0.326 -0.143 0.07 0.446 1.112 1.671 2.224 2.752 3.214 3.767 4.465 5.048 5.384 4.636 3.884 3.361 3.034 2.929 2.481 2.246 2.544 2.679 2.671 2.621 2.601 2.571 2.594 2.611 2.751 2.889 3.039 3.199 3.316 3.351 3.341 3.321 3.326 3.231 3.206 3.229 3.241 3.291 3.286 3.284 3.289 3.294 3.286 3.284 3.266 3.254 3.241 3.226 3.211 3.206 3.186 3.154 3.099 2.991 2.921 2.814 2.706 2.556 2.436 2.251 2.146 2.054 1.999 1.951 1.934 1.894 1.869 1.836 1.851 1.921 1.976 2.019 2.021 2.034 1.646 1.646 1.684 1.624 1.894 2.276 2.381 2.401 2.366 2.409 2.361 2.379 2.454 2.466 2.561 2.839 2.719 2.556 2.879 2.716 3.046 3.309 3.616 3.911 3.451 3.384 4.046 4.069 4.179 4.211 4.314 4.506 4.656 4.189 4.336 4.101 3.829 3.871 3.811 3.819 3.821 3.909 3.931 3.969 4.036 4.081 4.124 4.086 3.949 4.034 3.946 3.926 4.011 4.079 4.166 4.244 4.266 6.009 4.249 4.269 4.329 4.244 4.261 4.246 4.261 4.284 4.181 4.126 4.036 3.931 3.884 3.844 3.811 3.829 3.806 3.774 3.709 3.621 3.604 3.574 3.571 3.554 3.574 3.586 3.564 3.546 3.546 3.496 3.486 3.511 3.426 3.379 3.344 3.341 3.334 3.319 3.321 3.291 3.356 3.394 3.374 3.436 3.484 3.524 3.534 3.576 3.519 3.486 3.294 3.111 2.864 2.669 2.539 2.471 2.454 2.354 2.431 2.516 2.609 2.401 2.246 2.684 2.696 2.546 2.661 2.804 3.074 3.411 3.696 3.929 3.967 3.951 3.963 4.351 5.129 6.134 6.302 5.781 5.942 6.467 6.703 6.657 6.694 6.666 6.639 6.636 6.626 6.619 6.659 6.734 6.774 6.844 6.891 6.871 6.889 6.911 6.974 6.946 7.019 6.969 7.084 7.114 7.146 7.211 7.199 7.249 7.319 7.346 7.424 7.546 7.486 7.549 7.696 7.626 7.604 7.599 7.561 7.616 7.559 7.559 7.581 7.476 7.376 7.124 7.039 6.434 5.946 6.171 5.809 5.834 5.979 5.906 5.981 6.086 6.094 6.114 6.046 6.074 6.174 6.331 6.271 6.286 6.216 6.216 6.196 6.179 6.219 6.454 6.616 6.714 6.856 6.969 6.494 5.449 4.739 4.506 4.409 4.404 4.431 4.381 4.469 4.521 4.636 4.744 4.709 4.584 4.584 4.474 4.599 4.579 4.294 4.266 4.499 4.736 4.999 5.086 5.431 5.249 5.704 6.121 4.384 4.471 4.514 4.531 4.569 4.606 4.616 4.689 4.704 4.711 4.731 4.684 4.694 4.701 4.689 4.714 4.706 4.734 4.761 4.799 4.784 4.811 4.804 4.741 4.746 4.756 4.844 4.826 4.836
3.97 3.993 3.995 3.88 3.785 3.685 3.633 3.61 3.68 3.638 3.497 3.435 3.385 3.36 3.36 3.342 3.355 3.367 3.37 3.355 3.358 3.357 3.35 3.34 3.342 3.382 3.41 3.45 3.495 3.533 3.515 3.438 3.338 3.285 3.257 3.253 3.255 3.267 3.255 3.23 3.265 3.255 3.298 3.345 3.358 3.389 3.415 3.448 3.516 3.599 3.703 3.805 3.831 3.794 3.828 3.885 3.884 3.901 3.914 3.934 3.919 3.914 3.886 3.691 3.561 3.521 3.511 3.526 3.556 3.546 3.531 3.469 3.481 2.891 2.766 2.401 1.849 2.094 3.059 3.526 3.819 3.944 4.391 5.191 5.736 5.444 4.981 4.504 4.141 3.989 3.901 3.844 3.861 3.861 3.859 3.879 3.711 3.469 3.501 3.419 2.846 3.436 3.766 3.796 3.869 3.971 3.914 3.921 3.891 3.876 3.774 3.821 3.791 3.756 3.706 3.621 3.689 3.721 3.276 2.539 2.309 2.246 2.151 2.109 2.031 2.004 1.959 1.916 1.859 1.814 1.791 1.716 1.724 1.666 1.621 1.536 1.499 1.384 1.3 1.173 1.028 0.859 0.651 0.414 0.07 -0.324 -0.49 -0.421 -0.464 -0.454 -0.435 -0.534 -0.447 -0.271 -0.071 0.19 0.752 1.428 2.033 2.549 3.034 3.612 4.275 4.789 5.412 5.126 4.184 3.459 3.029 2.926 2.569 2.229 2.454 2.631 2.611 2.601 2.576 2.546 2.529 2.569 2.716 2.819 2.934 3.104 3.236 3.306 3.339 3.294 3.254 3.249 3.216 3.229 3.256 3.294 3.306 3.314 3.294 3.301 3.294 3.299 3.236 3.231 3.224 3.166 3.139 3.126 3.089 3.031 2.956 2.894 2.799 2.726 2.586 2.436 2.289 2.144 2.041 1.961 1.916 1.891 1.871 1.846 1.839 1.829 1.899 1.931 1.971 2.041 2.036 1.649 1.594 1.569 1.809 2.326 2.391 2.401 2.391 2.404 2.351 2.396 2.454 2.466 2.676 2.544 2.611 2.576 2.631 2.954 3.596 3.666 3.946 4.156 4.109 4.014 4.099 4.001 3.849 3.769 3.929 4.394 4.171 4.151 4.626 4.569 4.104 3.971 3.924 4.001 3.986 3.979 3.899 3.956 3.996 4.191 4.169 4.169 4.524 4.234 4.086 4.106 4.034 4.066 4.054 4.084 4.129 4.249 4.264 4.246 4.284 4.306 4.374 4.266 4.264 4.249 4.276 4.299 4.281 4.231 4.119 4.024 3.994 3.966 3.936 3.926 3.916 3.869 3.776 3.691 3.661 3.629 3.636 3.664 3.636 3.609 3.584 3.576 3.506 3.474 3.431 3.469 3.431 3.381 3.354 3.324 3.319 3.361 3.331 3.329 3.366 3.396 3.481 3.511 3.449 3.429 3.474 3.521 3.536 3.436 3.189 3.029 2.816 2.629 2.486 2.431 2.351 2.356 2.481 2.519 2.584 2.411 2.274 2.821 2.706 2.626 2.769 2.911 3.206 3.556 3.826 3.949 3.946 3.931 3.923 3.914 5.009 6.194 6.371 5.631 5.745 6.72 6.829 6.766 6.774 6.731 6.624 6.649 6.616 6.626 6.656 6.704 6.759 6.816 6.839 6.894 6.854 6.851 6.949 6.981 7.031 7.029 7.076 7.149 7.146 7.251 7.289 7.266 7.326 7.406 7.456 7.531 7.531 7.646 7.611 7.599 7.594 7.641 7.576 7.631 7.536 7.449 7.479 7.596 7.459 6.309 5.859 5.684 5.631 5.621 5.784 5.844 5.851 5.934 6.029 6.054 5.989 6.009 5.994 6.096 6.141 6.196 6.246 6.191 6.196 6.179 6.201 6.211 6.281 6.346 6.364 6.451 6.636 6.681 6.244 5.691 4.586 4.354 4.309 4.296 4.411 4.386 4.439 4.541 4.791 4.901 4.719 4.649 4.701 4.661 4.676 4.459 4.229 4.266 4.509 4.796 5.141 5.154 5.199 5.366 5.749 6.031 4.486 4.479 4.491 4.551 4.579 4.609 4.619 4.706 4.736 4.746 4.749 4.709 4.691 4.726 4.706 4.711 4.749 4.749 4.771 4.789 4.809 4.836 4.746 4.729 4.784 4.739 4.796 4.844 4.839
4.02 4.017 4.033 3.947 3.865 3.803 3.713 3.665 3.743 3.725 3.655 3.565 3.507 3.453 3.447 3.423 3.408 3.418 3.435 3.445 3.433 3.443 3.435 3.453 3.473 3.513 3.55 3.575 3.622 3.655 3.605 3.547 3.46 3.37 3.31 3.305 3.295 3.307 3.315 3.312 3.345 3.358 3.375 3.412 3.444 3.473 3.516 3.558 3.635 3.766 3.872 3.932 3.92 3.903 3.921 3.915 3.919 3.896 3.891 3.916 3.899 3.896 3.836 3.649 3.564 3.519 3.511 3.524 3.484 3.524 3.474 3.454 3.431 2.874 2.689 2.376 1.864 2.109 3.114 3.561 3.871 3.981 4.469 5.249 5.749 5.404 4.921 4.449 4.129 4.001 3.951 3.906 3.871 3.849 3.846 3.829 3.829 3.829 3.834 3.684 2.899 3.434 3.706 3.764 3.911 4.006 3.929 3.911 3.909 3.866 3.716 3.839 3.841 3.779 3.746 3.714 3.626 3.666 3.554 2.524 2.356 2.264 2.194 2.141 2.039 1.986 1.974 1.939 1.859 1.851 1.816 1.759 1.734 1.679 1.639 1.554 1.507 1.429 1.331 1.248 1.101 0.974 0.819 0.609 0.359 0.033 -0.33 -0.434 -0.448 -0.451 -0.437 -0.573 -0.508 -0.412 -0.214 0.062 0.431 1.134 1.825 2.37 2.828 3.424 4.044 4.544 5.348 5.336 4.426 3.576 3.094 2.896 2.721 2.314 2.314 2.599 2.596 2.569 2.539 2.511 2.514 2.544 2.619 2.749 2.856 3.016 3.146 3.224 3.279 3.251 3.239 3.206 3.226 3.234 3.286 3.321 3.341 3.329 3.306 3.289 3.279 3.251 3.231 3.196 3.141 3.104 3.034 3.009 2.949 2.876 2.819 2.741 2.646 2.554 2.436 2.309 2.196 2.039 1.941 1.871 1.879 1.841 1.844 1.839 1.814 1.834 1.864 1.951 2.016 2.019 1.681 1.579 1.649 2.111 2.299 2.381 2.356 2.349 2.379 2.471 2.391 2.424 2.466 2.539 2.461 2.869 2.871 3.269 3.739 4.106 4.251 4.361 4.716 4.324 3.741 4.061 4.116 4.256 4.429 4.814 4.781 4.666 4.829 4.984 5.411 4.314 4.129 4.009 3.851 3.791 3.816 3.804 4.121 4.114 4.121 4.109 4.206 4.144 4.159 4.206 4.089 4.041 4.064 4.064 4.061 4.129 4.206 4.299 4.284 4.271 4.309 4.364 4.389 4.309 4.304 4.284 4.264 4.264 4.269 4.216 4.131 4.084 4.054 4.046 4.049 4.044 3.996 3.936 3.839 3.776 3.739 3.726 3.684 3.694 3.681 3.659 3.616 3.571 3.506 3.454 3.456 3.431 3.396 3.389 3.339 3.316 3.341 3.379 3.379 3.399 3.439 3.461 3.501 3.539 3.506 3.501 3.509 3.506 3.536 3.409 3.166 2.949 2.729 2.634 2.476 2.431 2.406 2.454 2.501 2.551 2.611 2.319 2.274 2.801 2.646 2.699 2.836 3.039 3.386 3.671 3.859 3.929 3.923 3.9 3.884 3.864 4.727 5.875 6.331 5.437 5.624 6.471 6.692 6.805 6.781 6.742 6.708 6.664 6.671 6.664 6.669 6.696 6.724 6.771 6.849 6.874 6.821 6.781 6.879 6.929 6.969 7.009 7.119 7.154 7.191 7.274 7.326 7.279 7.311 7.404 7.491 7.516 7.591 7.654 7.554 7.509 7.514 7.549 7.501 7.711 7.884 7.921 7.784 7.591 6.284 5.799 5.526 5.556 5.569 5.604 5.674 5.791 5.826 5.924 6.031 6.051 5.974 5.991 6.026 5.974 6.166 6.216 6.226 6.211 6.169 6.174 6.199 6.224 6.316 6.289 6.321 6.414 6.561 6.569 6.016 5.401 4.499 4.309 4.344 4.321 4.389 4.419 4.424 4.496 4.781 4.886 4.946 4.866 4.669 4.716 4.619 4.356 4.249 4.261 4.481 4.744 5.159 5.269 5.306 5.421 5.861 5.049 4.459 4.494 4.506 4.529 4.559 4.629 4.669 4.701 4.751 4.756 4.734 4.744 4.726 4.749 4.754 4.746 4.759 4.749 4.789 4.804 4.794 4.764 4.744 4.794 4.726 4.849 4.859 4.854 4.874
4.025 4.028 4.02 4.01 4 3.95 3.852 3.69 3.777 3.773 3.745 3.733 3.703 3.678 3.648 3.618 3.6 3.585 3.595 3.59 3.58 3.592 3.638 3.642 3.675 3.72 3.785 3.832 3.827 3.775 3.71 3.625 3.547 3.445 3.385 3.375 3.345 3.358 3.38 3.405 3.43 3.463 3.475 3.485 3.523 3.587 3.649 3.72 3.822 3.913 3.934 3.922 3.927 3.938 3.911 3.893 3.896 3.909 3.926 3.889 3.921 3.884 3.816 3.664 3.589 3.541 3.556 3.526 3.474 3.519 3.474 3.429 3.231 2.834 2.819 2.266 1.991 2.286 3.224 3.706 3.896 4.029 4.534 5.319 5.754 5.369 4.869 4.399 4.101 3.994 3.906 3.889 3.856 3.826 3.709 3.576 3.526 3.661 3.761 3.529 2.946 3.589 3.736 3.821 3.929 4.014 3.941 3.891 3.879 3.866 3.774 3.721 3.839 3.789 3.736 3.709 3.679 3.621 3.466 2.574 2.391 2.284 2.246 2.161 2.089 2.056 1.994 1.916 1.876 1.841 1.801 1.756 1.729 1.696 1.636 1.596 1.515 1.453 1.381 1.288 1.186 1.054 0.927 0.746 0.539 0.298 0.008 -0.342 -0.44 -0.448 -0.416 -0.468 -0.541 -0.49 -0.377 -0.11 0.198 0.886 1.623 2.145 2.663 3.181 3.805 4.375 4.902 5.334 4.701 3.824 3.199 2.896 2.736 2.384 2.219 2.511 2.556 2.521 2.514 2.494 2.496 2.541 2.594 2.704 2.799 2.894 3.016 3.121 3.186 3.179 3.179 3.216 3.236 3.276 3.306 3.346 3.359 3.339 3.309 3.276 3.251 3.231 3.194 3.134 3.064 2.984 2.939 2.881 2.804 2.736 2.654 2.561 2.466 2.374 2.276 2.169 2.071 1.964 1.899 1.854 1.871 1.844 1.824 1.836 1.769 1.794 1.831 1.901 1.989 2.034 1.901 1.981 2.136 2.289 2.289 2.276 2.284 2.449 2.419 2.469 2.409 2.449 2.394 2.579 3.381 3.984 3.611 3.669 4.036 4.056 4.359 3.741 3.104 3.184 3.286 3.506 3.651 3.851 3.914 4.189 4.426 4.521 4.796 4.814 4.166 4.089 4.011 3.914 3.811 3.786 3.776 3.756 3.809 3.971 4.226 4.179 4.159 4.231 4.216 4.184 4.106 4.029 4.046 4.079 4.086 4.176 4.281 4.279 4.274 4.304 4.336 4.361 4.374 4.311 4.324 4.341 4.314 4.301 4.249 4.201 4.171 4.111 4.099 4.091 4.086 4.074 4.029 3.929 3.854 3.834 3.816 3.796 3.764 3.726 3.754 3.714 3.651 3.609 3.561 3.554 3.514 3.474 3.449 3.436 3.411 3.374 3.379 3.399 3.384 3.439 3.489 3.499 3.506 3.564 3.549 3.501 3.471 3.499 3.536 4.334 5.116 4.661 4.339 3.409 3.124 2.446 2.401 2.501 2.561 2.559 2.621 2.266 2.309 2.891 2.661 2.724 2.939 3.244 3.506 3.734 3.891 3.921 3.904 3.895 3.894 3.874 4.985 6.093 6.39 5.272 5.437 6.408 6.662 6.689 6.683 6.68 6.644 6.589 6.596 6.656 6.684 6.709 6.741 6.729 6.806 6.841 6.774 6.764 6.801 6.909 6.964 7.034 7.129 7.119 7.209 7.324 7.301 7.246 7.254 7.344 7.454 7.499 7.524 7.544 7.489 7.529 7.611 7.356 7.311 7.709 7.896 7.849 7.391 6.769 5.844 5.569 5.551 5.546 5.566 5.619 5.679 5.721 5.806 5.871 5.934 5.981 5.994 5.966 6.166 6.381 6.651 6.546 6.329 6.224 6.186 6.169 6.191 6.289 6.406 6.369 6.271 6.294 6.309 6.316 5.906 5.021 4.221 4.324 4.374 4.296 4.396 4.371 4.396 4.409 4.344 4.634 4.891 4.746 4.556 4.569 4.346 4.206 4.154 4.169 4.269 4.706 5.166 5.254 5.286 5.526 5.754 5.239 4.279 4.614 4.619 4.559 4.604 4.644 4.694 4.736 4.761 4.756 4.779 4.821 4.879 4.896 4.834 4.804 4.804 4.801 4.809 4.789 4.771 4.759 4.771 4.736 4.806 4.919 4.899 4.941 4.909
4.04 3.99 3.947 3.985 3.977 3.96 3.888 3.767 3.837 3.835 3.855 3.868 3.855 3.84 3.815 3.812 3.8 3.81 3.818 3.85 3.872 3.892 3.88 3.882 3.935 3.983 4.023 4.048 3.993 3.895 3.812 3.725 3.645 3.54 3.485 3.447 3.445 3.45 3.475 3.505 3.547 3.562 3.614 3.648 3.71 3.785 3.848 3.853 3.884 3.91 3.917 3.917 3.904 3.908 3.911 3.917 3.906 3.891 3.906 3.906 3.891 3.886 3.819 3.709 3.616 3.586 3.551 3.559 3.529 3.509 3.509 3.451 3.216 2.849 3.044 2.466 2.089 2.364 3.326 3.721 3.884 3.999 4.581 5.409 5.754 5.346 4.846 4.374 4.086 3.989 3.856 3.826 3.771 3.564 3.569 3.659 3.504 3.174 3.136 2.999 3.454 3.799 3.781 3.844 3.949 4.019 3.951 3.914 3.876 3.866 3.776 3.751 3.831 3.799 3.766 3.726 3.679 3.654 3.124 2.594 2.421 2.286 2.249 2.191 2.114 2.046 1.984 1.929 1.906 1.871 1.821 1.769 1.754 1.726 1.679 1.609 1.546 1.489 1.407 1.328 1.233 1.113 0.993 0.858 0.687 0.488 0.231 -0.107 -0.432 -0.467 -0.47 -0.465 -0.478 -0.517 -0.488 -0.29 0.032 0.449 1.168 1.942 2.473 2.97 3.595 4.147 4.632 5.339 5.031 4.141 3.406 2.991 2.781 2.489 2.196 2.411 2.531 2.509 2.506 2.491 2.481 2.519 2.589 2.679 2.766 2.781 2.884 2.986 3.056 3.101 3.124 3.166 3.214 3.266 3.309 3.336 3.359 3.336 3.301 3.274 3.224 3.189 3.124 3.051 2.959 2.879 2.806 2.746 2.669 2.576 2.474 2.381 2.306 2.194 2.116 2.004 1.936 1.899 1.874 1.879 1.846 1.841 1.826 1.799 1.776 1.739 1.639 1.591 1.594 2.036 2.074 2.146 2.226 2.316 2.251 2.239 2.349 2.329 2.321 2.386 2.471 2.559 3.209 3.524 3.879 4.501 4.436 3.719 3.826 3.621 2.984 3.031 3.286 3.336 3.399 3.576 3.756 3.824 3.721 3.674 3.696 3.704 3.744 3.766 3.804 3.924 4.111 4.191 4.319 4.334 4.374 4.304 4.194 4.026 4.011 4.306 4.206 4.194 4.156 4.136 4.161 4.051 4.071 4.051 4.101 4.176 4.246 4.289 4.329 4.319 4.331 4.356 4.366 4.324 4.351 4.351 4.336 4.276 4.259 4.211 4.171 4.111 4.116 5.949 7.571 4.104 4.041 3.951 3.891 3.879 3.906 3.909 3.844 3.829 3.799 3.779 3.761 3.696 3.671 3.624 3.596 3.574 3.534 3.521 3.504 3.474 3.431 3.451 3.429 3.401 3.524 3.516 3.514 3.584 3.554 3.546 3.509 3.486 3.536 4.899 5.761 5.366 5.199 4.586 4.219 4.009 2.741 2.524 2.524 2.546 2.494 2.259 2.314 2.749 2.679 2.826 3.029 3.334 3.594 3.799 3.934 3.924 3.913 3.882 3.876 3.901 5.371 5.721 6.566 5.429 5.489 6.278 6.748 6.763 6.726 6.703 6.683 6.586 6.631 6.626 6.674 6.706 6.691 6.689 6.754 6.836 6.786 6.756 6.856 6.924 6.981 7.049 7.119 7.101 7.194 7.271 7.214 7.181 7.214 7.289 7.411 7.374 7.379 7.399 7.401 7.544 7.419 7.226 7.146 7.289 7.514 7.054 6.386 5.809 5.671 5.616 5.536 5.554 5.581 5.589 5.721 5.771 5.789 5.879 5.949 5.959 6.011 5.981 6.284 6.829 7.396 6.769 6.234 6.204 6.176 6.171 6.196 6.246 6.346 6.291 6.211 6.244 6.249 6.281 6.041 5.146 4.254 4.276 4.256 4.336 4.221 4.329 4.341 4.341 4.321 4.471 4.669 4.461 4.389 4.426 4.269 4.174 4.844 4.496 4.249 4.934 5.289 5.179 5.246 5.274 5.256 4.319 3.994 4.646 4.629 4.584 4.654 4.704 4.774 4.824 4.876 4.876 4.846 4.861 4.924 4.951 4.936 4.916 4.849 4.834 4.806 4.786 4.806 4.826 4.779 4.811 4.894 4.921 4.911 4.881 4.906
4.03 4 3.95 3.93 3.913 3.93 3.83 3.838 3.92 3.923 3.997 4.008 4 3.965 3.928 3.963 3.993 4.008 4.02 4.038 4.033 4.045 4.057 4.06 4.065 4.075 4.09 4.08 4.082 4.057 4.003 3.943 3.852 3.74 3.66 3.605 3.588 3.602 3.645 3.69 3.72 3.763 3.835 3.868 3.896 3.917 3.931 3.925 3.899 3.892 3.895 3.902 3.898 3.909 3.907 3.918 3.896 3.901 3.911 3.901 3.906 3.876 3.849 3.761 3.679 3.611 3.579 3.569 3.521 3.536 3.509 3.429 3.176 2.806 2.996 2.294 2.109 2.396 3.336 3.724 3.906 4.029 4.626 5.476 5.721 5.284 4.811 4.339 4.061 3.964 3.866 3.796 3.669 3.614 3.811 3.784 3.699 3.806 3.289 3.614 3.806 3.829 3.811 3.841 3.951 3.971 3.954 3.906 3.889 3.876 3.859 3.849 3.821 3.794 3.769 3.739 3.714 3.631 3.369 2.624 2.449 2.346 2.254 2.206 2.134 2.061 2.014 1.954 1.939 1.869 1.844 1.809 1.766 1.694 1.679 1.654 1.568 1.508 1.439 1.356 1.268 1.177 1.061 0.928 0.792 0.617 0.416 0.135 -0.197 -0.52 -0.457 -0.462 -0.488 -0.573 -0.513 -0.408 -0.106 0.225 0.704 1.646 2.299 2.825 3.322 3.948 4.556 5.29 5.324 4.421 3.716 3.211 2.871 2.654 2.249 2.384 2.484 2.486 2.489 2.481 2.481 2.514 2.569 2.641 2.694 2.734 2.794 2.844 2.914 2.979 3.044 3.104 3.161 3.204 3.281 3.324 3.326 3.324 3.291 3.241 3.171 3.121 3.029 2.931 2.839 2.734 2.674 2.601 2.499 2.431 2.319 2.226 2.131 2.034 1.969 1.929 1.889 1.881 1.834 1.871 1.879 1.821 1.801 1.814 1.741 1.616 1.596 1.604 1.784 2.169 2.331 2.339 2.299 2.379 2.421 2.311 2.279 2.316 2.944 3.069 3.296 3.576 3.744 3.961 4.259 4.271 3.044 2.911 2.934 3.051 3.566 4.064 4.064 4.006 4.429 3.929 3.821 3.731 3.654 3.631 3.629 3.624 3.631 3.614 3.671 3.846 4.021 4.124 4.186 4.111 4.051 4.161 4.311 4.331 4.191 4.129 4.344 4.236 4.294 4.199 4.174 4.031 4.111 4.104 4.169 4.171 4.199 4.226 4.309 4.331 4.301 4.304 4.329 4.349 4.296 4.291 4.274 4.226 4.194 4.174 4.151 6.481 7.581 7.591 7.564 4.159 4.009 3.991 3.954 3.926 3.956 3.964 3.894 3.876 3.879 3.894 3.874 3.829 3.789 3.754 3.739 3.671 3.616 3.601 3.599 3.614 3.579 3.551 3.514 3.499 3.514 3.479 3.504 3.554 3.601 3.574 3.569 3.521 3.499 3.286 3.571 3.974 5.189 5.916 4.666 4.371 4.756 4.541 4.254 3.506 2.614 2.311 2.369 2.651 2.691 2.856 3.104 3.411 3.629 3.856 3.936 3.921 3.907 3.887 3.892 3.959 7.026 6.995 6.529 5.326 5.484 6.358 6.761 6.739 6.726 6.753 6.703 6.624 6.606 6.684 6.674 6.704 6.666 6.699 6.751 6.801 6.799 6.781 6.834 6.914 7.006 7.034 7.079 7.076 7.201 7.191 7.149 7.136 7.179 7.191 7.366 7.314 7.324 7.359 7.324 7.279 7.179 6.906 6.529 6.056 6.076 5.969 5.641 5.544 5.676 5.546 5.571 5.534 5.614 5.679 5.756 5.781 5.841 5.924 6.046 5.991 6.004 5.964 6.174 6.639 6.971 6.914 6.359 6.184 6.121 6.116 6.161 6.146 6.176 6.204 6.196 6.209 6.309 6.264 6.026 5.206 4.314 4.289 4.334 4.314 4.179 4.199 4.299 4.299 4.344 4.371 4.354 4.306 4.189 4.144 4.184 4.226 5.289 4.611 4.051 4.439 4.656 4.784 5.119 5.246 5.019 3.981 4.309 4.846 4.656 4.601 4.629 4.709 4.759 4.804 4.841 4.871 4.866 4.931 4.956 4.971 4.979 4.944 4.894 4.874 4.814 4.819 4.816 4.821 4.809 4.894 4.911 4.901 4.894 4.879 4.856
4.005 3.977 3.94 3.898 3.85 3.86 3.78 3.957 4.03 4.048 4.05 4.035 3.995 3.86 3.8 3.983 4.052 4.065 4.068 4.075 4.073 4.08 4.082 4.1 4.1 4.105 4.12 4.11 4.11 4.097 4.095 4.088 4.05 3.987 3.928 3.88 3.87 3.865 3.892 3.912 3.923 3.947 3.951 3.94 3.937 3.946 3.922 3.906 3.897 3.881 3.893 3.902 3.901 3.901 3.896 3.904 3.901 3.916 3.911 3.896 3.874 3.881 3.876 3.781 3.676 3.584 3.546 3.556 3.531 3.526 3.484 3.414 3.164 2.824 3.326 2.369 1.986 2.426 3.414 3.786 3.931 4.066 4.676 5.516 5.679 5.234 4.756 4.321 4.076 3.961 3.844 3.784 3.639 3.756 3.796 3.704 3.699 3.814 3.526 3.601 3.669 3.709 3.726 3.806 3.954 3.976 3.941 3.884 3.899 3.891 3.856 3.829 3.816 3.769 3.754 3.709 3.671 3.654 3.361 2.684 2.491 2.356 2.251 2.184 2.151 2.081 2.041 1.989 1.941 1.896 1.846 1.836 1.781 1.706 1.701 1.626 1.578 1.533 1.49 1.398 1.323 1.229 1.121 0.997 0.888 0.725 0.534 0.309 0.052 -0.316 -0.455 -0.469 -0.48 -0.474 -0.561 -0.457 -0.176 0.111 0.483 1.357 2.117 2.698 3.169 3.709 4.388 5.026 5.387 4.703 3.906 3.429 2.896 2.674 2.351 2.216 2.434 2.476 2.464 2.489 2.496 2.504 2.566 2.611 2.654 2.671 2.676 2.736 2.789 2.861 2.916 2.996 3.076 3.136 3.206 3.246 3.281 3.276 3.226 3.174 3.099 3.011 2.904 2.801 2.699 2.596 2.531 2.441 2.359 2.276 2.151 2.089 1.999 1.956 1.876 1.884 1.839 1.824 1.831 1.871 1.859 1.796 1.846 1.796 1.634 1.776 1.734 2.094 2.366 2.394 2.421 2.436 2.391 2.364 2.456 2.296 2.721 3.481 3.844 3.944 3.836 4.121 4.361 4.419 3.194 2.754 2.839 3.051 3.734 4.176 4.414 4.386 4.159 4.101 4.021 3.821 3.809 3.884 4.036 3.749 3.709 3.676 3.651 3.654 3.581 3.819 4.329 4.659 4.844 4.774 4.626 3.891 3.641 3.826 4.369 4.016 4.276 4.334 4.356 4.259 4.174 3.996 4.101 4.134 4.186 4.171 4.224 4.259 4.329 4.321 4.321 4.316 4.324 4.344 4.309 4.254 4.234 4.194 4.169 4.156 4.139 4.171 7.576 7.589 7.566 6.921 4.086 4.061 4.069 4.029 4.014 3.999 3.951 3.949 3.964 3.939 3.901 3.891 3.861 3.834 3.831 3.811 3.756 3.714 3.731 3.741 3.744 3.669 3.616 3.564 3.506 3.434 3.476 3.541 3.616 3.619 3.606 3.584 3.539 3.264 3.579 4.214 5.166 4.446 5.166 4.894 5.516 3.951 4.676 4.409 3.871 4.629 2.936 3.951 3.061 2.896 3.129 3.441 3.721 3.861 3.916 3.879 3.889 3.88 3.89 3.924 5.951 7.019 6.464 5.378 5.451 6.575 6.779 6.732 6.689 6.672 6.706 6.706 6.726 6.741 6.739 6.691 6.679 6.736 6.744 6.746 6.776 6.769 6.821 6.849 6.939 7.009 6.991 7.031 7.151 7.144 7.151 7.079 7.129 7.151 7.324 7.281 7.324 7.334 7.274 7.284 7.039 6.324 5.661 5.421 5.396 5.429 5.431 5.481 5.514 5.556 5.551 5.546 5.626 5.706 5.746 5.791 5.801 5.861 5.994 6.009 5.984 5.954 5.991 6.171 6.336 6.451 6.209 6.144 6.136 6.086 6.119 6.136 6.096 6.044 6.016 6.106 6.241 6.196 6.086 5.361 4.429 4.151 4.259 4.344 4.199 4.184 4.194 4.224 4.331 4.359 4.324 4.264 4.261 4.211 4.191 4.181 4.156 3.884 3.931 4.021 4.499 4.909 5.241 5.361 4.599 3.881 4.514 4.974 4.819 4.646 4.649 4.671 4.651 4.676 4.694 4.799 4.869 4.929 4.981 5.001 5.004 4.969 4.916 4.834 4.839 4.819 4.809 4.819 4.859 4.876 4.921 4.934 4.901 4.886 4.856
3.973 3.957 3.915 3.885 3.785 3.783 3.913 4.073 4.11 4.08 4.068 4.01 3.94 3.775 3.663 3.885 4.043 4.062 4.08 4.08 4.075 4.055 4.085 4.093 4.08 4.095 4.12 4.125 4.117 4.11 4.122 4.115 4.12 4.108 4.108 4.065 4.055 4.028 4.025 4.017 3.983 3.985 3.968 3.956 3.951 3.935 3.919 3.911 3.885 3.887 3.873 3.895 3.895 3.905 3.897 3.916 3.914 3.894 3.901 3.894 3.904 3.911 3.886 3.756 3.634 3.554 3.521 3.519 3.501 3.529 3.494 3.406 3.136 2.779 3.226 2.326 1.971 2.481 3.469 3.816 3.954 4.131 4.744 5.584 5.654 5.201 4.726 4.314 4.064 3.959 3.859 3.826 3.684 3.799 3.796 3.716 3.734 3.841 3.706 3.799 3.779 3.819 3.751 3.714 3.821 3.789 3.759 3.766 3.856 3.866 3.849 3.851 3.801 3.771 3.729 3.644 3.649 3.659 3.414 2.696 2.486 2.369 2.276 2.194 2.169 2.089 2.049 1.991 1.966 1.921 1.861 1.816 1.771 1.734 1.691 1.659 1.592 1.544 1.507 1.416 1.358 1.257 1.146 1.066 0.935 0.808 0.64 0.461 0.174 -0.107 -0.449 -0.489 -0.491 -0.498 -0.469 -0.534 -0.283 0.057 0.35 1.163 1.923 2.495 2.97 3.575 4.243 4.738 5.383 5.126 4.196 3.624 2.916 2.729 2.479 2.179 2.376 2.454 2.479 2.476 2.509 2.526 2.539 2.586 2.601 2.618 2.592 2.633 2.688 2.742 2.815 2.882 2.941 3.034 3.099 3.169 3.201 3.181 3.144 3.049 2.959 2.884 2.771 2.659 2.574 2.474 2.386 2.301 2.211 2.119 2.056 1.981 1.919 1.866 1.854 1.859 1.844 1.939 1.854 1.844 1.859 1.829 1.781 1.606 1.629 1.821 2.214 2.416 2.431 2.439 2.441 2.576 2.286 2.414 2.841 3.371 3.744 4.211 3.989 3.839 4.454 4.379 2.786 2.709 2.704 3.041 3.736 4.281 4.081 4.591 4.521 4.141 3.984 3.896 3.756 3.824 3.976 4.064 3.889 3.831 3.816 3.659 3.659 3.649 3.744 3.944 4.511 5.071 5.264 5.321 5.124 5.189 5.164 3.699 4.294 4.109 4.081 4.351 4.309 4.331 4.221 4.006 4.149 4.184 4.194 4.194 4.261 4.289 4.326 4.314 4.339 4.339 4.311 4.331 4.304 4.276 4.219 4.171 4.161 4.149 4.139 4.141 7.009 7.584 7.594 7.571 4.141 4.141 4.181 4.114 4.059 4.041 3.991 3.984 3.999 3.961 3.934 3.911 3.909 3.879 3.884 3.911 3.881 3.866 3.854 3.841 3.794 3.721 3.649 3.571 3.489 3.449 3.446 3.461 3.516 3.564 3.596 3.624 3.584 3.364 3.634 4.261 4.651 4.416 4.326 5.216 4.739 4.431 4.341 6.721 5.074 4.556 6.256 5.326 5.039 4.844 3.144 3.389 3.679 3.881 3.894 3.889 3.856 3.833 3.818 3.879 5.235 6.059 6.275 5.462 5.367 6.299 6.705 6.725 6.721 6.669 6.714 6.701 6.719 6.769 6.786 6.716 6.714 6.734 6.766 6.704 6.704 6.709 6.771 6.839 6.899 7.029 6.966 6.976 7.086 7.096 7.076 7.051 7.081 7.184 7.274 7.319 7.321 7.269 7.151 7.021 6.511 5.761 5.399 5.361 5.389 5.334 5.409 5.384 5.364 5.524 5.574 5.579 5.581 5.704 5.801 5.759 5.744 5.746 5.846 5.951 5.989 5.979 6.049 5.989 5.981 6.046 6.071 6.076 6.126 6.149 6.161 6.151 6.119 6.081 5.956 6.024 6.026 6.044 6.084 5.484 4.679 4.201 4.291 4.291 4.286 4.221 4.174 4.211 4.289 4.444 4.374 4.279 4.281 4.281 4.219 4.239 3.956 4.001 3.909 4.246 4.906 5.089 5.086 5.201 4.041 3.909 4.799 5.051 4.919 4.669 4.666 4.696 4.659 4.656 4.689 4.809 4.876 4.936 4.984 4.989 4.964 4.946 4.864 4.831 4.851 4.819 4.821 4.889 4.869 4.916 4.939 4.946 4.901 4.866 4.854
