ncols 421
nrows 31
xllcorner    248016
yllcorner    139216
cellsize     2
NODATA_value -9999
95.572 95.483 95.35 95.144 94.979 94.847 94.612 94.453 94.267 94.161 94.09 95.219 95.609 93.75 94.202 95.177 94.261 93.796 93.179 97.088 95.258 93.918 94.056 93.075 91.397 90.76 92.174 89.935 89.748 89.445 88.353 88.277 88.94 88.891 89.289 89.751 90.152 90.599 90.065 89.863 89.519 89.384 89.376 88.975 88.859 88.68 88.537 88.373 88.218 88.02 87.879 87.682 87.535 87.379 87.206 87.052 86.811 86.669 86.49 86.13 85.867 85.694 85.516 85.396 85.358 85.355 85.27 85.217 84.948 84.789 84.645 84.396 84.432 84.359 83.878 83.669 83.469 83.364 83.184 83.076 83.034 82.974 82.879 82.834 82.684 82.416 82.019 81.509 81.296 81.196 81.281 81.504 81.719 81.679 81.784 81.796 81.701 81.594 81.956 82.031 82.726 82.384 82.436 82.001 81.951 82.096 81.331 80.246 79.624 79.711 79.836 79.764 79.821 80.034 80.034 80.379 80.399 80.384 80.361 80.506 80.374 80.416 80.321 80.281 80.999 80.486 78.006 77.866 77.829 77.784 77.819 77.769 78.061 78.524 78.716 79.141 79.161 78.789 78.731 79.069 80.354 80.481 78.471 78.171 77.896 77.691 77.476 77.271 77.116 76.949 76.739 76.589 76.464 76.319 76.161 76.036 75.889 75.751 75.584 75.429 75.344 75.234 75.119 74.881 74.531 74.599 75.129 75.161 74.371 73.419 74.216 75.844 74.854 73.499 72.329 72.109 72.059 71.821 71.579 71.419 71.389 71.484 72.236 74.079 70.524 70.284 70.044 69.771 69.606 69.429 69.256 69.064 68.859 68.596 68.374 68.211 67.991 67.621 67.154 66.549 66.011 65.626 65.339 65.106 64.899 64.719 64.556 64.359 64.356 64.509 64.811 64.919 64.914 65.094 65.296 64.709 64.646 64.549 64.441 64.346 64.209 64.294 64.299 64.176 64.139 64.146 64.141 64.189 64.249 64.289 64.391 64.996 66.664 65.506 65.389 65.696 65.614 65.646 65.606 65.581 65.544 65.479 65.594 65.614 65.646 65.704 66.086 65.779 65.651 65.846 66.171 66.601 67.051 67.469 67.561 67.606 67.559 67.479 67.581 67.526 67.504 67.461 67.341 67.141 67.044 66.766 66.416 65.496 63.584 63.291 63.199 63.049 62.954 62.286 61.931 61.696 61.529 61.056 60.906 60.786 60.399 59.889 58.316 57.826 57.746 57.814 60.059 62.026 58.796 57.021 56.901 56.706 57.004 56.651 56.411 58.414 58.921 58.999 60.446 60.266 58.371 55.174 56.351 55.864 55.266 56.374 55.809 55.226 55.581 55.281 55.134 55.164 55.454 55.764 55.429 57.719 54.459 57.164 55.059 55.084 54.966 55.261 55.514 55.819 56.119 56.454 56.851 57.506 57.969 59.111 59.481 60.489 62.296 63.891 63.969 63.676 63.134 63.001 63.136 63.369 63.594 63.879 64.114 64.369 64.651 64.851 65.044 65.204 65.349 65.459 65.559 65.714 65.849 65.944 66.074 66.231 66.369 66.526 66.674 66.836 66.961 67.074 67.176 67.271 67.296 67.384 67.446 67.484 67.541 67.619 67.626 67.694 67.771 67.819 67.859 67.916 67.986 68.036 68.059 68.096 68.119 68.154 68.164 68.131 68.081 68.204 68.111 68.006 67.994 67.946 67.869 67.849 67.771 67.676 67.564 67.446 67.314 67.135 66.98 66.792 66.613 66.424 66.215 65.998 65.755 65.509 65.231 64.942 64.663 64.368 64.069 63.73 63.411 63.054 62.723 62.399 62.089 61.758 61.445 61.145 60.847
95.792 95.659 95.461 95.335 95.211 95.017 94.911 94.82 94.697 94.7 95.907 96.96 96.293 94.018 93.988 94.164 93.54 93.357 93.274 93.564 93.736 93.171 93.15 93.326 94.439 94.301 94.088 93.418 93.1 92.434 89.265 88.072 87.918 87.952 88.234 88.448 89.453 89.847 89.634 89.524 89.182 89.243 89.536 89.057 88.852 88.819 88.662 88.518 88.359 88.225 88.144 87.988 87.773 87.422 87.252 87.137 86.964 86.839 86.682 86.397 86.136 85.755 85.515 85.365 85.301 85.215 85.176 85.065 84.957 84.804 84.638 84.417 84.338 84.231 83.927 83.629 83.431 83.306 83.146 83.076 83.014 82.966 82.924 82.914 82.806 82.676 82.314 81.614 81.146 81.034 80.986 81.249 81.671 81.769 82.079 83.264 82.186 81.471 82.199 82.236 83.284 83.806 82.939 82.371 82.264 82.341 80.721 79.429 79.494 79.559 79.659 79.739 79.774 79.796 79.976 79.989 80.284 80.369 80.554 80.584 80.404 80.546 80.341 80.419 80.479 80.269 77.869 77.819 77.774 77.759 77.709 77.676 77.639 77.599 77.491 77.419 77.299 77.194 77.189 77.034 78.426 79.689 79.611 79.346 78.749 78.241 77.369 76.991 76.861 76.606 76.461 76.281 76.131 75.934 75.774 75.664 75.491 75.354 75.196 75.071 74.911 74.701 74.446 74.216 73.904 73.574 73.204 72.921 72.741 72.534 72.384 72.261 72.211 71.949 71.714 71.499 71.334 71.204 71.141 70.954 70.666 70.559 72.829 70.674 70.164 69.974 69.596 69.381 69.211 69.044 68.846 68.641 68.456 68.261 68.054 67.826 67.574 67.209 66.856 66.186 65.824 65.504 65.179 64.924 64.759 64.654 64.474 64.776 65.151 65.211 65.299 65.356 65.291 65.464 66.314 65.021 64.919 64.801 64.714 64.611 64.674 64.624 64.529 64.501 64.504 64.504 64.529 64.581 64.644 64.764 64.886 65.094 67.616 69.701 65.944 65.829 65.699 65.671 65.644 65.629 65.681 65.981 66.479 65.819 65.761 65.784 65.859 66.139 66.986 67.474 67.756 68.006 68.186 68.229 68.244 68.176 68.126 68.041 67.964 67.846 67.689 67.484 67.221 67.006 66.734 66.446 66.196 66.076 64.794 63.691 63.676 63.916 64.791 64.519 63.499 62.356 61.749 61.264 61.034 60.866 60.694 60.664 60.006 58.319 58.844 58.151 57.741 57.876 57.191 57.036 56.941 56.859 56.719 56.544 57.609 59.361 58.831 58.289 60.146 57.951 55.714 56.596 58.546 58.086 56.726 56.854 55.714 55.409 56.964 57.229 56.051 55.059 55.154 55.901 56.261 55.374 55.584 54.246 55.526 55.569 55.251 54.994 55.304 55.614 55.789 56.109 56.461 56.811 57.421 58.104 58.766 59.601 60.311 61.391 63.056 63.924 64.044 63.511 62.841 63.076 63.311 63.549 63.786 64.056 64.289 64.526 64.696 64.889 65.016 65.159 65.309 65.436 65.529 65.646 65.746 65.869 66.029 66.156 66.251 66.389 66.564 66.684 66.806 66.896 67.016 67.119 67.211 67.224 67.274 67.304 67.341 67.404 67.461 67.499 67.531 67.601 67.659 67.701 67.719 67.769 67.781 67.786 67.841 67.836 67.874 68.089 67.781 67.719 67.684 67.661 67.624 67.584 67.511 67.416 67.289 67.164 67.011 66.872 66.717 66.529 66.36 66.148 65.95 65.739 65.487 65.224 64.962 64.696 64.406 64.129 63.811 63.508 63.188 62.859 62.521 62.206 61.903 61.563 61.258 60.958 60.667
96.101 95.982 95.749 95.64 95.5 95.225 95.113 94.986 94.921 95.092 96.519 96.923 96.22 94.541 93.857 93.787 93.697 93.565 93.462 93.299 93.157 92.995 92.8 92.71 92.568 92.608 92.833 93.22 93.604 94.116 92.387 89.098 88.898 88.157 88.026 87.698 87.808 87.971 87.79 88.309 88.269 88.357 88.446 88.447 88.569 88.842 88.548 88.489 88.424 88.25 88.277 88.383 88.233 87.761 87.424 87.228 87.076 86.904 86.747 86.603 86.243 85.899 85.486 85.27 85.245 85.139 85.053 85.011 84.995 84.856 84.611 84.401 84.231 84.152 83.869 83.541 83.301 83.186 83.131 83.039 83.019 82.974 82.979 82.951 82.889 82.751 82.501 81.916 81.204 80.901 80.854 80.954 81.396 81.326 83.266 84.826 84.451 81.326 82.289 81.331 82.569 83.576 82.676 81.936 82.301 82.144 80.931 79.326 79.436 79.456 79.569 79.689 79.766 79.811 80.336 80.229 79.901 80.191 79.826 80.394 80.411 80.321 80.239 80.514 80.394 79.234 77.806 77.769 77.741 77.704 77.659 77.609 77.594 77.541 77.426 77.289 77.116 76.884 76.714 76.554 76.356 76.506 77.254 77.831 77.461 77.431 78.169 78.054 77.716 77.281 77.009 76.586 76.004 75.744 75.536 75.329 75.114 74.961 74.769 74.516 74.344 73.986 73.586 73.169 72.941 72.851 72.766 72.439 72.216 72.014 71.886 71.759 71.589 71.381 71.224 71.086 70.929 70.736 70.626 70.486 70.331 71.274 70.571 71.264 69.834 69.449 69.359 69.049 68.901 68.714 68.511 68.336 68.154 67.971 67.721 67.464 67.196 66.774 66.366 65.994 65.651 65.214 64.946 64.736 64.731 65.066 65.321 65.559 65.564 65.621 65.751 66.311 66.121 66.104 65.864 65.309 65.106 64.949 65.034 65.026 64.969 64.974 64.914 64.904 64.894 64.919 64.984 65.024 65.101 65.201 65.441 65.714 68.414 69.346 66.316 65.706 65.719 65.741 65.736 66.179 66.816 66.801 66.324 65.859 65.941 66.544 67.286 67.941 68.396 68.589 68.769 68.829 68.909 68.866 68.671 68.464 68.301 68.119 67.961 67.816 67.661 67.499 67.411 67.154 66.791 66.286 65.876 65.389 64.836 64.404 64.104 64.146 64.784 65.186 65.349 64.764 63.754 62.764 61.711 60.899 60.714 60.531 60.466 59.951 60.329 61.434 61.379 58.809 59.494 58.324 57.126 56.854 56.756 57.136 59.226 59.309 57.004 56.446 56.929 55.626 55.726 58.359 58.974 58.799 58.399 57.974 56.441 56.449 57.384 57.291 57.261 55.739 55.004 55.034 55.976 55.964 55.306 55.654 56.216 55.031 55.949 54.974 55.044 55.319 55.586 55.776 56.094 56.434 56.989 57.216 57.991 59.169 59.696 60.944 61.731 62.246 63.971 63.886 63.561 62.889 63.054 63.264 63.484 63.769 63.974 64.196 64.369 64.539 64.709 64.864 65.044 65.184 65.239 65.346 65.444 65.584 65.694 65.806 65.891 66.016 66.126 66.251 66.406 66.514 66.629 66.759 66.876 66.954 67.036 67.059 67.081 67.129 67.164 67.194 67.234 67.279 67.374 67.384 67.416 67.409 67.436 67.446 67.499 67.504 67.636 67.736 67.391 67.379 67.374 67.334 67.294 67.274 67.231 67.121 67.006 66.886 66.747 66.62 66.448 66.289 66.093 65.89 65.702 65.483 65.247 64.975 64.716 64.444 64.168 63.887 63.613 63.302 62.95 62.647 62.293 62 61.684 61.363 61.055 60.759 60.465
96.285 96.164 96.029 95.916 95.779 95.612 95.469 95.337 95.271 95.289 95.766 95.191 94.567 94.26 94.127 94 93.858 93.758 93.634 93.487 93.382 93.28 93.023 92.91 92.727 92.575 92.552 92.504 92.519 93.277 93.495 92.538 93.063 90.248 89.347 89.462 90.037 93.182 89.036 87.538 87.004 87.003 86.879 86.983 87.636 87.48 87.879 88.353 88.367 88.008 87.833 87.635 87.422 87.284 87.144 87.098 87.129 86.932 86.872 86.658 86.462 86.054 85.682 85.417 85.267 85.076 85.019 85.005 84.972 84.804 84.548 84.389 84.159 83.998 83.781 83.446 83.206 83.084 83.019 82.984 82.996 82.976 82.999 82.926 82.859 82.739 82.546 82.094 81.189 80.769 80.719 80.751 81.739 82.631 84.914 85.981 85.289 82.606 80.191 80.934 83.661 83.339 82.401 81.801 82.409 81.929 80.184 79.306 79.416 79.409 79.451 79.649 79.744 79.781 79.819 79.874 80.159 79.939 78.476 78.459 78.389 79.304 79.816 80.154 80.199 78.776 77.789 77.689 77.684 77.811 77.529 77.486 77.439 77.379 77.299 77.099 76.814 76.559 76.351 76.109 75.944 75.774 75.674 75.701 75.874 75.954 76.176 76.739 76.551 76.584 76.874 76.704 76.531 76.114 75.731 75.539 75.396 75.539 75.784 75.549 75.371 75.054 75.234 74.156 73.606 72.434 72.321 72.099 71.851 71.644 71.519 71.349 71.229 71.021 70.906 70.744 70.566 70.411 70.271 70.214 70.111 69.809 70.064 69.811 69.479 69.304 68.974 68.776 68.611 68.424 68.221 68.041 67.934 67.696 67.444 67.164 66.879 66.556 66.204 65.884 65.601 65.069 64.971 65.334 65.636 65.774 65.959 65.989 66.029 66.049 66.261 69.236 67.461 66.049 65.686 65.386 65.304 65.391 65.404 65.336 65.381 65.369 65.304 65.256 65.266 65.339 65.421 65.496 65.599 65.734 66.004 66.234 66.659 67.141 67.429 66.026 65.856 66.211 66.956 67.214 66.636 66.014 66.039 66.539 67.619 68.379 69.004 69.114 69.179 69.181 69.214 69.184 69.204 69.046 68.901 68.714 68.764 69.251 69.244 68.991 68.961 69.009 69.036 68.991 68.711 67.391 66.474 65.876 65.441 64.769 65.326 64.436 64.671 65.204 65.344 65.611 65.336 64.576 64.106 62.626 60.799 60.486 60.354 60.211 60.434 62.219 63.501 63.176 64.004 63.636 61.551 59.389 57.101 56.924 58.626 58.029 56.644 56.396 56.101 56.179 57.784 58.036 58.379 58.811 59.031 58.719 58.301 57.834 57.544 57.399 57.149 54.999 54.981 55.016 55.186 55.881 55.649 55.364 55.701 54.389 55.559 54.774 55.029 55.039 55.356 55.514 55.826 56.089 56.434 56.789 57.236 58.069 59.156 60.824 61.031 61.179 62.559 63.246 63.779 63.571 62.944 62.986 63.221 63.446 63.631 63.861 64.034 64.214 64.379 64.569 64.756 64.876 64.979 65.084 65.194 65.311 65.401 65.501 65.574 65.699 65.794 65.924 66.001 66.086 66.231 66.366 66.494 66.599 66.676 66.759 66.816 66.876 66.931 66.931 66.954 66.996 67.079 67.084 67.101 67.089 67.104 67.119 67.174 67.211 67.399 67.314 67.029 67.011 67.039 67.019 66.951 66.954 66.911 66.831 66.719 66.616 66.497 66.345 66.196 66.038 65.844 65.649 65.476 65.242 64.993 64.722 64.45 64.184 63.896 63.633 63.33 63.009 62.704 62.393 62.063 61.769 61.474 61.139 60.834 60.544 60.253
96.675 96.501 96.385 96.162 95.998 95.884 95.735 95.594 95.533 95.448 95.385 95.428 94.909 95.014 95.076 94.207 94.061 93.975 93.831 93.724 93.631 93.539 93.344 93.287 93.124 93.026 92.951 92.813 92.67 92.581 92.832 92.913 93.12 92.676 93.176 92.858 91.339 91.83 92.673 91.323 88.467 87.341 87.131 86.586 86.359 86.086 86.162 86.324 86.706 86.923 86.786 86.6 86.49 86.484 86.195 85.91 85.972 86.099 86.311 86.161 86.189 86.081 85.971 85.689 85.339 85.171 85.237 85.259 85.03 84.823 84.57 84.336 84.224 84.107 83.936 83.506 83.386 83.054 82.951 82.896 82.964 82.939 82.949 82.911 82.861 82.694 82.539 82.081 81.169 80.689 80.449 80.549 81.021 81.769 85.329 86.004 85.006 82.751 79.949 81.864 83.994 83.131 81.624 81.601 82.364 81.731 79.254 79.231 79.321 79.339 79.356 79.491 79.634 79.694 79.726 79.741 80.029 79.266 78.159 78.114 77.921 77.876 77.831 77.814 75.836 75.919 75.654 75.329 78.786 79.444 79.296 77.614 77.449 77.304 77.089 76.726 76.326 76.054 75.806 75.574 75.394 75.299 75.201 75.109 75.046 74.944 74.831 74.734 74.619 74.601 74.619 74.529 74.556 74.589 74.324 74.284 74.204 74.401 74.381 75.406 74.101 74.701 75.214 74.024 73.324 75.049 72.729 71.851 71.614 71.336 71.204 71.089 70.961 70.759 70.629 70.471 70.266 70.179 70.039 69.899 69.704 69.536 69.694 69.476 69.231 68.944 68.761 68.561 68.364 68.179 68.071 67.984 67.696 67.576 67.289 67.099 66.741 66.591 66.066 66.184 65.811 65.166 65.721 66.099 66.214 66.296 66.184 66.436 66.654 67.236 67.521 66.409 66.276 66.001 65.724 65.579 65.671 65.794 65.749 65.701 65.701 65.654 65.674 65.679 65.726 65.804 65.899 65.949 66.121 66.366 66.651 66.761 66.854 67.819 68.576 67.499 67.076 67.556 66.999 66.336 66.239 66.519 67.574 68.739 69.276 69.561 69.631 69.596 69.539 69.484 69.496 69.474 69.466 69.316 69.331 69.519 69.761 69.966 69.754 69.529 69.361 69.319 69.421 69.459 69.576 69.631 69.449 69.374 68.519 68.276 69.216 65.971 64.966 65.696 65.771 65.739 65.649 65.771 65.561 64.824 63.059 60.721 60.281 60.126 60.014 60.416 62.039 63.346 64.256 64.501 64.341 63.721 62.931 59.851 57.461 56.829 56.764 56.489 56.306 56.911 57.301 57.659 57.901 58.071 58.514 58.929 58.941 58.644 58.161 57.766 55.691 54.959 54.949 54.961 54.991 55.121 55.219 55.371 56.466 54.974 57.674 56.444 55.801 55.134 55.239 55.251 55.541 55.819 56.099 56.439 56.831 57.239 58.206 59.746 60.164 60.226 61.191 62.541 63.614 64.196 63.416 62.804 62.966 63.186 63.366 63.549 63.704 63.876 64.076 64.271 64.461 64.586 64.696 64.816 64.949 65.081 65.136 65.214 65.291 65.376 65.501 65.594 65.631 65.701 65.784 65.906 66.036 66.186 66.311 66.401 66.474 66.551 66.624 66.689 66.719 66.781 66.814 66.831 66.819 66.819 66.794 66.829 66.874 66.909 67.031 66.771 66.639 66.664 66.674 66.649 66.614 66.596 66.559 66.489 66.439 66.316 66.189 66.071 65.909 65.757 65.558 65.361 65.168 64.934 64.667 64.426 64.16 63.876 63.625 63.335 63.043 62.741 62.436 62.118 61.828 61.517 61.225 60.908 60.606 60.32 60.041
96.899 96.763 96.576 96.479 96.312 96.175 95.997 95.863 95.796 95.689 95.609 95.491 95.388 95.605 94.962 94.374 94.287 94.198 94.079 93.985 93.889 93.738 93.597 93.478 93.361 93.264 93.209 93.163 93.088 92.906 92.798 92.734 93.355 94.723 95.401 95.32 94.698 93.108 93.703 95.34 91.737 91.218 93.765 91.416 88.44 87.47 86.229 85.997 86.353 85.541 85.451 85.223 85.014 85.048 84.983 84.269 84.017 83.993 84.386 84.163 84.378 84.613 84.795 84.669 84.073 83.917 83.71 83.804 83.889 84.07 84.293 84.18 84.169 84.291 84.921 84.466 84.399 84.301 83.109 82.836 83.371 83.261 82.786 82.769 82.729 82.746 82.489 82.004 81.361 80.659 80.291 80.389 81.159 84.691 85.644 85.914 84.424 81.734 79.649 80.616 82.889 82.186 79.794 79.261 79.129 79.941 78.909 79.081 79.166 79.224 79.239 79.319 79.454 79.519 79.574 79.549 79.961 79.236 77.794 77.694 77.584 77.614 77.441 76.709 74.849 74.679 74.659 74.664 79.809 80.849 80.386 78.569 77.756 78.449 78.659 77.679 75.656 75.479 75.254 75.041 74.889 74.846 74.774 74.671 74.594 74.516 74.361 74.266 74.179 74.111 74.061 73.939 73.816 73.621 73.434 73.274 73.166 73.001 72.854 72.731 72.594 73.659 72.409 72.529 75.584 73.824 74.151 72.069 71.369 71.066 70.926 70.824 70.676 70.536 70.426 70.249 70.076 69.884 69.719 69.596 69.429 69.131 69.441 69.386 68.996 68.746 68.556 68.361 68.179 68.021 68.149 67.864 67.696 67.549 67.919 66.906 66.604 66.179 65.684 65.551 66.546 66.151 66.286 66.384 66.519 66.526 66.711 67.144 67.054 66.796 66.906 66.326 66.236 66.066 65.986 66.069 66.029 66.036 66.006 66.024 65.999 66.021 66.071 66.146 66.214 66.271 66.394 66.584 66.754 67.004 67.161 67.234 67.424 68.631 69.306 69.491 67.616 66.701 66.384 66.776 67.604 68.836 69.531 69.806 69.931 69.904 69.886 69.829 69.806 69.839 69.899 69.896 69.871 69.796 69.851 69.819 69.771 69.759 69.721 69.636 69.516 69.459 69.351 69.301 69.236 69.226 69.314 69.466 69.521 69.351 68.969 67.266 65.111 65.911 67.521 66.709 65.756 65.761 65.871 65.824 65.321 64.006 61.779 60.151 59.909 59.799 59.679 60.811 62.696 63.571 64.131 64.429 64.321 63.789 59.986 57.476 56.791 56.631 56.751 57.119 57.001 57.016 57.401 57.519 57.706 58.184 58.594 58.986 58.881 56.761 55.086 54.999 54.956 54.934 54.956 55.019 55.269 55.441 55.249 55.779 55.369 56.294 55.814 54.761 55.026 55.066 55.261 55.504 55.841 56.131 56.464 56.736 57.229 58.711 59.559 59.799 60.069 61.621 62.461 63.579 62.821 63.814 62.914 62.891 63.089 63.261 63.411 63.576 63.769 63.974 64.144 64.304 64.409 64.531 64.699 64.804 64.904 64.961 65.019 65.124 65.214 65.271 65.314 65.371 65.414 65.514 65.619 65.706 65.854 65.969 66.064 66.176 66.261 66.314 66.349 66.439 66.519 66.554 66.556 66.526 66.506 66.541 66.561 66.596 66.596 66.284 66.264 66.311 66.309 66.284 66.254 66.239 66.201 66.129 66.051 65.959 65.864 65.724 65.572 65.42 65.226 65.029 64.833 64.607 64.352 64.107 63.856 63.58 63.285 63.039 62.743 62.432 62.142 61.844 61.526 61.243 60.982 60.658 60.361 60.086 59.828
97.222 97.086 96.903 96.692 96.51 96.376 96.221 96.138 95.979 95.826 95.82 95.731 95.731 95.499 94.863 94.616 94.524 94.405 94.304 94.23 94.082 94.015 93.904 93.796 93.66 93.53 93.359 93.378 93.241 93.097 93.066 92.993 92.845 92.944 92.842 93.371 93.774 94.206 92.653 91.981 91.555 93.635 93.999 93.866 93.492 90.918 91.623 91.179 90.81 87.503 87.184 86.041 85.802 85.307 84.97 84.518 84.315 83.941 83.868 83.44 83.261 83.18 83.238 83.141 82.953 82.713 82.323 82.129 81.897 81.851 81.691 81.583 81.688 81.621 81.959 81.846 82.109 82.889 82.131 81.916 83.146 85.409 84.054 82.466 82.434 82.599 82.721 81.859 81.386 80.509 80.086 80.159 81.344 84.224 85.876 85.646 83.159 80.419 79.559 81.321 82.084 81.139 78.991 79.556 78.359 78.546 78.774 78.896 78.996 79.066 78.976 79.029 79.229 79.299 79.309 79.269 79.816 77.924 77.514 77.364 77.214 77.104 76.909 76.866 76.149 75.009 74.619 76.694 80.136 80.939 80.114 76.466 74.581 78.011 79.316 78.159 75.059 74.926 74.799 74.666 74.589 74.541 74.466 74.381 74.301 74.219 74.091 73.939 73.801 73.681 73.574 73.486 73.306 73.149 73.006 72.846 72.734 72.586 72.469 72.341 72.276 72.146 72.096 71.969 72.371 72.129 71.971 71.161 71.079 70.829 70.709 70.564 70.454 70.331 70.219 70.051 69.876 69.714 69.561 69.444 69.281 69.104 69.139 69.366 68.791 68.579 68.421 68.234 68.059 67.934 67.701 67.744 67.291 67.386 68.649 67.059 65.981 67.156 65.544 65.709 66.341 66.619 66.699 66.921 67.526 68.316 68.376 68.631 66.811 66.689 66.616 66.464 66.369 66.436 66.426 66.411 66.396 66.379 66.364 66.371 66.354 66.389 66.431 66.529 66.609 66.781 66.979 67.361 67.434 67.574 67.661 67.769 68.056 71.584 72.436 70.049 66.656 66.666 67.336 68.826 69.746 70.086 70.161 70.176 70.154 70.154 70.154 70.176 70.206 70.246 70.331 70.346 70.356 70.339 70.316 70.281 70.216 70.169 70.126 70.049 69.971 69.861 69.754 69.681 69.504 69.416 69.329 69.244 69.329 69.376 69.441 68.344 65.979 65.586 68.121 67.816 66.461 66.064 65.921 65.914 65.871 65.606 64.961 63.061 60.811 59.749 59.566 59.421 59.521 60.221 62.616 63.461 64.069 64.484 58.689 57.576 57.444 56.791 56.876 57.104 57.409 56.999 57.091 58.021 58.499 58.361 57.931 58.294 58.236 55.524 56.156 55.351 55.976 54.931 54.941 55.006 55.119 55.319 55.574 56.009 54.756 54.616 53.861 55.219 54.436 55.534 55.059 55.159 55.506 55.789 56.089 56.424 56.721 57.284 58.586 59.141 59.601 60.489 61.896 62.801 63.246 64.289 63.486 62.606 62.826 63.016 63.146 63.306 63.506 63.671 63.829 63.979 64.116 64.266 64.401 64.469 64.594 64.681 64.754 64.859 64.919 64.986 65.029 65.091 65.159 65.206 65.254 65.321 65.409 65.499 65.571 65.704 65.799 65.859 65.964 66.044 66.111 66.184 66.191 66.186 66.141 66.189 66.196 66.176 66.144 65.961 65.889 65.916 65.894 65.856 65.861 65.869 65.799 65.756 65.671 65.584 65.472 65.326 65.164 65.017 64.868 64.677 64.485 64.264 64.005 63.774 63.513 63.253 62.964 62.695 62.434 62.133 61.837 61.546 61.232 60.946 60.679 60.376 60.088 59.811 59.566
97.484 97.323 97.143 97.009 96.871 96.708 96.522 96.333 96.204 96.128 96.044 95.958 95.854 95.262 94.96 94.84 94.803 94.676 94.603 94.506 94.325 94.268 94.155 94.039 93.941 93.815 93.727 93.686 93.541 93.429 93.275 93.18 93.127 93.021 92.849 92.69 92.869 94.597 94.399 94.075 92.602 92.407 92.588 92.798 92.648 92.844 93.376 93.711 92.692 91.607 90.867 90.31 90.208 87.368 86.292 87.175 87.11 86.555 87.989 85.79 85.012 83.736 83.423 83.4 83.581 84.438 82.688 82.314 82.636 82.05 81.663 81.591 81.389 81.269 80.936 80.909 80.761 80.689 80.506 80.394 80.391 80.479 81.549 80.976 81.184 81.649 82.341 81.594 81.311 80.174 79.866 79.896 80.806 82.904 84.739 85.139 81.706 80.421 80.011 80.906 80.686 80.199 79.024 79.011 78.171 78.181 78.811 78.751 78.791 78.786 78.601 78.621 78.891 79.051 79.026 78.986 79.241 77.251 77.184 77.006 76.816 76.721 76.404 77.316 78.271 78.034 77.511 78.621 80.391 80.804 79.854 75.804 74.289 77.319 79.224 77.824 74.676 74.611 74.509 74.421 74.364 74.269 74.246 74.129 74.026 73.944 73.811 73.649 73.489 73.339 73.181 73.079 72.966 72.814 72.664 72.519 72.406 72.319 72.236 72.139 72.066 72.006 71.929 71.824 71.731 71.821 72.341 71.431 70.901 70.641 70.504 70.409 70.261 70.166 70.059 69.914 69.749 69.621 69.451 69.379 69.304 68.926 68.871 69.249 68.601 68.379 68.449 68.194 67.864 67.551 68.419 67.316 68.046 66.626 67.514 67.859 68.594 66.066 65.884 66.831 66.999 66.911 66.976 67.811 68.656 68.076 67.241 66.936 66.836 66.731 66.594 66.701 66.741 66.739 66.711 66.729 66.739 66.691 66.676 66.699 66.754 66.814 66.891 67.081 67.311 67.604 67.804 68.019 67.904 67.906 68.081 68.356 69.664 72.284 68.684 66.806 67.091 68.124 69.614 70.214 70.376 70.396 70.379 70.399 70.434 70.451 70.491 70.576 70.644 70.714 70.786 70.866 70.839 70.829 70.806 70.769 70.719 70.626 70.586 70.486 70.396 70.271 70.149 70.054 69.929 69.779 69.674 69.601 69.564 69.606 69.719 69.699 67.759 66.164 67.051 68.699 68.489 66.441 66.229 66.061 65.866 65.779 65.741 65.059 63.759 62.199 60.579 59.484 59.214 59.071 59.084 60.469 62.334 60.501 57.531 57.509 57.546 57.161 57.061 57.179 57.636 57.196 57.041 58.624 59.451 58.069 58.156 57.961 56.254 56.369 56.211 56.816 56.936 55.104 54.896 55.054 55.231 55.366 56.901 60.269 58.404 58.461 54.631 54.949 53.319 55.011 54.844 54.926 55.181 55.456 55.761 56.044 56.344 56.779 57.516 58.581 59.041 60.094 60.939 61.256 61.806 63.544 63.144 62.221 62.566 62.766 62.934 63.066 63.231 63.401 63.549 63.661 63.809 63.956 64.099 64.219 64.314 64.371 64.474 64.576 64.666 64.704 64.776 64.844 64.901 64.921 64.951 65.019 65.059 65.106 65.161 65.239 65.264 65.346 65.439 65.539 65.634 65.711 65.764 65.769 65.779 65.806 65.871 65.859 65.749 65.559 65.506 65.519 65.506 65.484 65.476 65.441 65.389 65.321 65.256 65.166 65.051 64.934 64.77 64.643 64.487 64.302 64.115 63.895 63.657 63.398 63.169 62.905 62.65 62.377 62.104 61.809 61.534 61.238 60.94 60.675 60.4 60.109 59.819 59.543 59.305
97.812 97.581 97.426 97.314 97.105 96.953 96.795 96.582 96.532 96.412 96.287 96.269 96.098 95.594 95.198 94.997 94.943 94.847 94.817 94.681 94.627 94.549 94.427 94.267 94.117 94.015 93.917 93.835 93.748 93.658 93.522 93.43 93.367 93.275 93.157 93.007 92.934 92.767 92.636 92.865 92.54 91.927 91.65 91.566 91.342 91.361 91.475 91.918 92.018 91.35 90.14 90.254 89.849 88.847 88.395 89.99 92.384 90.508 90.557 90.185 88.271 86.846 85.836 86.477 87.455 86.911 85.283 84.437 84.24 84.392 83.789 83.531 83.004 82.561 82.516 81.794 81.521 81.681 81.541 80.736 80.396 80.379 80.176 80.171 79.994 80.214 80.584 80.861 81.631 80.266 79.699 79.724 80.486 80.059 81.916 83.944 83.411 82.726 81.364 79.924 78.936 78.594 78.411 78.234 78.031 77.844 78.351 77.726 78.091 78.579 78.161 78.601 78.764 78.846 78.804 78.756 78.666 76.954 76.859 76.621 76.504 76.411 76.181 78.761 79.489 79.231 78.779 79.431 80.639 80.681 81.046 74.561 74.089 75.624 75.336 76.041 74.594 74.321 74.266 74.234 74.144 74.064 73.991 73.871 73.754 73.599 73.469 73.384 73.196 73.084 72.964 72.861 72.734 72.591 72.454 72.301 72.244 72.129 72.071 71.979 71.926 71.886 71.871 71.756 71.651 71.804 73.639 70.806 70.604 70.444 70.314 70.249 70.164 70.061 69.976 69.806 70.406 69.599 69.451 69.319 69.191 68.899 68.341 68.554 68.774 67.724 68.841 68.964 69.356 69.426 70.916 67.789 67.089 67.264 67.384 67.271 67.551 66.899 66.721 67.131 67.371 67.429 67.724 68.516 68.681 67.656 67.189 67.071 66.904 66.981 67.061 67.076 67.071 67.091 67.014 67.039 67.076 67.054 67.066 67.176 67.241 67.429 67.629 67.849 68.124 68.064 68.216 68.129 68.186 69.136 69.001 69.286 68.179 67.101 67.126 67.851 69.196 70.279 70.594 70.594 70.629 70.639 70.641 70.699 70.736 70.829 70.931 71.036 71.126 71.194 71.281 71.351 71.379 71.341 71.316 71.296 71.239 71.134 71.046 70.944 70.849 70.749 70.591 70.486 70.351 70.224 70.044 69.966 69.941 69.941 69.959 70.104 69.409 66.644 66.401 68.904 69.801 67.294 66.591 66.341 66.091 65.811 65.664 65.584 65.249 64.539 63.696 62.286 60.244 59.236 58.904 58.776 58.876 59.286 57.779 57.656 57.494 57.229 57.261 57.994 57.101 56.986 56.976 57.086 58.391 57.979 59.121 58.159 58.049 56.519 55.179 56.971 57.159 55.566 55.136 55.166 55.434 55.444 55.906 59.679 60.346 57.799 56.099 54.909 53.976 54.321 54.566 54.654 54.884 55.191 55.469 55.729 56.006 56.304 56.704 57.124 58.119 58.966 60.346 60.669 61.381 61.256 63.581 63.021 62.639 62.469 62.659 62.834 63.001 63.146 63.256 63.386 63.536 63.669 63.804 63.896 63.999 64.106 64.196 64.286 64.346 64.421 64.504 64.579 64.616 64.669 64.706 64.734 64.764 64.779 64.829 64.849 64.894 64.964 65.026 65.084 65.109 65.169 65.219 65.251 65.274 65.349 65.431 65.394 65.219 65.074 65.134 65.121 65.101 65.056 65.056 65.014 64.974 64.899 64.824 64.739 64.633 64.491 64.375 64.257 64.082 63.908 63.723 63.516 63.266 63.033 62.82 62.571 62.285 62.038 61.779 61.513 61.233 60.93 60.655 60.378 60.124 59.839 59.536 59.305 59.042
98.084 97.93 97.802 97.677 97.488 97.327 97.09 96.913 96.806 96.67 96.553 96.512 96.425 96.077 95.442 95.238 95.219 95.102 95.028 94.906 94.845 94.759 94.61 94.548 94.418 94.29 94.148 94.086 94 93.962 93.76 93.644 93.588 93.518 93.451 93.268 93.073 92.988 92.803 92.603 92.504 92.275 91.988 91.87 91.639 91.339 91.042 90.777 90.568 90.246 89.884 89.671 89.312 88.883 88.837 89.762 89.301 89.102 89.43 89.182 88.972 89.26 88.342 88.087 88.1 88.315 87.469 86.651 86.322 85.814 85.46 85.075 85.494 82.574 82.594 82.266 81.909 82.039 82.439 81.704 82.269 81.874 81.521 80.919 80.266 79.956 79.831 79.764 79.606 79.659 79.929 79.836 80.469 79.751 82.921 84.636 84.556 84.204 83.466 79.331 78.654 78.554 78.319 78.126 77.941 77.759 77.579 77.506 77.381 77.421 78.026 78.659 78.646 78.694 78.666 78.539 77.814 76.649 76.519 76.284 76.171 75.981 77.046 81.226 80.594 80.446 80.271 80.164 80.821 80.434 78.931 76.524 73.939 73.961 74.006 74.791 74.156 74.039 74.054 74.041 73.929 73.829 73.736 73.599 73.476 73.326 73.209 73.101 73.006 72.894 72.799 72.669 72.551 72.416 72.286 72.146 72.064 71.969 71.886 71.859 71.801 71.779 71.751 71.674 71.576 71.574 71.441 70.639 70.254 70.149 70.106 70.079 69.969 69.881 69.799 69.706 69.581 70.141 69.861 69.371 69.046 68.621 69.014 67.856 67.891 68.136 68.674 68.009 70.084 69.781 69.081 69.656 68.716 67.794 67.831 67.549 67.354 67.551 67.276 67.489 67.926 68.046 68.591 68.681 67.631 67.346 67.166 67.189 67.301 67.361 67.434 67.469 67.461 67.461 67.491 67.479 67.466 67.509 67.579 67.706 67.986 68.196 68.449 68.189 68.284 68.354 68.421 69.014 70.001 70.511 69.486 67.724 67.336 67.614 68.796 69.904 70.554 70.831 70.786 70.839 70.859 70.899 70.949 71.046 71.126 71.236 71.394 71.504 71.626 71.701 71.776 71.871 71.874 71.866 71.809 71.791 71.696 71.629 71.531 71.429 71.314 71.209 71.069 70.946 70.781 70.639 70.496 70.344 70.304 70.246 70.211 70.331 70.064 70.461 66.589 67.574 69.549 67.731 66.994 66.694 66.379 66.161 65.869 65.471 65.354 65.274 64.946 64.266 63.181 61.874 60.171 58.874 58.604 58.514 58.479 58.174 57.534 57.106 57.076 57.111 57.036 57.021 56.999 57.016 57.011 57.526 58.051 59.274 57.226 58.594 57.469 55.646 56.204 55.594 55.141 57.946 59.834 57.009 55.504 55.929 56.284 55.871 56.346 56.214 56.189 53.884 53.594 54.579 55.284 54.864 55.149 55.436 55.694 55.981 56.269 56.696 57.956 58.716 59.439 60.181 60.731 60.506 62.294 63.529 63.234 62.369 62.231 62.534 62.701 62.859 62.996 63.099 63.246 63.379 63.496 63.601 63.691 63.796 63.906 64.011 64.064 64.136 64.226 64.301 64.351 64.401 64.426 64.454 64.474 64.514 64.531 64.521 64.516 64.571 64.616 64.646 64.681 64.679 64.714 64.751 64.771 64.789 64.924 65.069 64.856 64.729 64.739 64.724 64.694 64.654 64.631 64.604 64.544 64.474 64.401 64.293 64.178 64.044 63.939 63.8 63.671 63.488 63.321 63.091 62.879 62.651 62.454 62.177 61.951 61.714 61.446 61.184 60.941 60.624 60.354 60.092 59.833 59.557 59.284 59.041 58.807
98.335 98.179 97.977 97.851 97.768 97.56 97.404 97.267 97.122 96.964 96.907 96.796 96.645 96.426 95.718 95.488 95.423 95.301 95.267 95.227 95.131 95.087 94.991 94.783 94.688 94.582 94.438 94.406 94.285 94.227 94.044 93.961 93.828 93.721 93.612 93.503 93.42 93.258 93.115 93.05 92.869 92.592 92.384 92.306 92.024 91.8 91.413 91.236 90.956 90.576 90.313 90.081 89.73 89.394 89.234 89.062 88.711 88.477 88.219 87.939 87.735 87.868 87.701 87.52 87.392 87.184 86.815 86.296 85.662 85.399 85.326 85.509 84.786 82.549 82.419 82.086 81.866 81.471 81.471 81.199 81.414 81.126 81.229 82.016 81.371 80.296 80.054 79.676 79.536 79.481 79.419 79.389 79.366 79.414 82.954 83.841 84.221 84.491 83.041 78.574 78.594 79.241 79.094 78.486 77.866 77.701 77.549 78.384 78.026 77.366 77.181 77.429 78.094 78.579 78.566 78.639 77.866 76.511 76.244 76.019 75.956 75.731 76.701 80.904 81.034 81.089 81.171 81.114 81.041 80.774 79.049 76.564 73.889 73.956 73.981 75.069 73.884 73.836 73.881 73.874 73.781 73.651 73.519 73.406 73.296 73.199 73.079 72.984 72.891 72.774 72.659 72.569 72.434 72.306 72.201 72.096 71.981 71.891 71.836 71.806 71.724 71.689 71.644 71.606 71.496 71.451 71.311 70.716 69.896 69.814 69.729 69.721 69.661 69.424 69.481 69.554 69.384 69.319 69.301 68.984 68.349 71.096 70.091 69.289 68.756 68.534 68.821 69.994 68.449 68.294 68.181 68.729 71.186 70.924 68.509 67.766 67.699 67.836 67.796 68.081 68.849 68.731 67.991 68.031 67.504 67.436 67.611 67.691 67.731 67.789 67.819 67.829 67.846 67.871 67.891 67.891 67.956 68.101 68.166 68.284 68.441 68.416 68.551 68.576 68.994 69.539 69.826 70.341 69.481 68.149 67.749 67.761 68.471 69.649 70.471 70.901 71.041 71.066 71.049 71.084 71.161 71.246 71.341 71.489 71.596 71.681 71.854 72.011 72.141 72.204 72.294 72.344 72.381 72.374 72.374 72.301 72.199 72.101 72.036 71.919 71.816 71.706 71.529 71.371 71.201 71.056 70.924 70.754 70.681 70.584 70.494 70.554 70.654 69.641 67.319 66.824 69.876 68.986 67.419 67.109 66.811 66.484 66.246 65.884 65.531 65.204 65.094 65.026 64.659 63.921 63.079 61.601 59.361 58.409 58.294 58.344 58.336 57.691 57.181 58.334 57.171 57.884 57.829 57.051 57.026 57.021 57.141 57.136 57.929 58.859 57.081 55.671 54.936 55.094 56.539 60.201 60.164 58.219 55.479 55.514 55.511 55.691 56.544 56.041 56.414 54.691 54.404 56.214 54.941 54.446 54.854 55.104 55.369 55.641 55.941 56.289 57.259 57.999 59.184 59.709 60.069 60.166 59.754 61.319 62.991 62.806 62.344 62.366 62.574 62.589 62.744 62.909 63.019 63.094 63.211 63.304 63.404 63.526 63.601 63.686 63.769 63.849 63.954 64.016 64.079 64.116 64.141 64.149 64.209 64.216 64.229 64.224 64.226 64.269 64.281 64.324 64.321 64.296 64.306 64.311 64.326 64.339 64.546 64.674 64.354 64.294 64.311 64.309 64.281 64.236 64.221 64.176 64.114 64.039 63.946 63.847 63.708 63.627 63.514 63.37 63.236 63.053 62.886 62.684 62.477 62.265 62.04 61.848 61.631 61.381 61.114 60.874 60.611 60.339 60.079 59.811 59.559 59.304 59.047 58.82 58.586
98.677 98.524 98.336 98.215 98.109 97.887 97.709 97.54 97.406 97.254 97.231 97.065 96.959 96.849 96.206 95.853 95.702 95.566 95.511 95.435 95.33 95.288 95.243 95.097 94.952 94.837 94.732 94.683 94.587 94.416 94.34 94.28 94.132 94.072 93.936 93.743 93.68 93.492 93.414 93.35 93.118 92.978 92.878 92.666 92.419 92.229 91.925 91.742 91.424 91.065 90.892 90.583 90.164 89.906 89.79 89.416 89.214 88.878 88.542 88.283 87.929 87.694 87.395 87.093 86.875 86.619 86.402 86.093 85.836 85.679 85.535 85.754 85.836 85.451 84.814 83.634 83.139 82.641 84.106 86.706 82.864 82.371 82.944 81.889 82.401 81.589 82.739 80.966 79.911 79.396 79.311 79.264 79.209 79.109 79.116 80.781 81.146 83.359 81.424 78.446 78.599 81.181 83.481 81.819 80.164 79.619 78.766 77.536 77.741 77.266 77.151 77.071 76.999 77.134 78.146 78.814 76.694 76.359 76.076 75.836 75.744 75.491 76.289 77.756 76.904 80.131 79.864 80.539 80.714 81.189 79.391 76.564 73.926 74.506 74.589 74.466 73.664 73.661 73.681 73.681 73.694 73.591 73.464 73.379 73.284 73.189 73.094 72.994 72.941 72.771 72.639 72.536 72.409 72.266 72.131 72.041 71.891 71.784 71.689 71.586 71.549 71.509 71.454 71.369 71.276 71.221 71.176 71.034 70.006 69.601 69.419 69.236 69.084 68.971 68.956 69.304 69.114 69.589 68.906 68.811 68.559 68.801 70.771 68.584 70.031 69.209 68.626 69.299 68.569 68.366 68.276 69.374 70.951 71.256 69.821 68.111 68.069 68.204 68.339 68.786 68.474 68.036 68.006 67.861 67.906 68.029 68.061 68.136 68.154 68.209 68.249 68.251 68.256 68.341 68.406 68.521 68.549 68.604 68.634 68.661 69.224 70.526 70.031 69.806 70.896 69.839 69.139 68.411 67.916 68.049 68.771 69.791 70.594 71.106 71.311 71.306 71.274 71.271 71.336 71.416 71.549 71.689 71.781 71.944 72.091 72.239 72.396 72.521 72.666 72.761 72.831 72.846 72.866 72.881 72.866 72.816 72.736 72.671 72.539 72.409 72.314 72.194 72.041 71.826 71.606 71.536 71.389 71.224 71.069 70.901 70.779 70.709 70.831 70.481 69.284 67.019 68.296 70.456 68.186 67.539 67.216 66.906 66.569 66.229 65.901 65.591 65.201 64.934 64.854 64.756 64.316 63.601 62.619 60.549 58.764 58.164 58.039 58.236 58.086 58.264 58.469 60.194 59.989 58.979 57.044 57.011 57.011 56.999 57.751 57.301 58.219 58.844 55.609 55.816 58.046 58.421 55.574 55.786 55.481 55.469 55.459 56.021 57.559 56.586 56.164 54.999 56.156 55.724 53.264 54.094 54.576 54.891 55.139 55.266 55.589 55.914 56.259 56.666 58.241 58.679 58.789 59.086 59.281 60.481 61.424 62.041 62.176 62.446 63.336 62.286 62.486 62.631 62.786 62.861 62.941 63.031 63.134 63.224 63.301 63.361 63.434 63.541 63.674 63.741 63.806 63.856 63.839 63.866 63.929 63.956 63.944 63.929 63.949 63.999 64.024 64.026 64.004 63.981 63.974 63.964 63.981 63.954 64.239 64.106 63.889 63.909 63.916 63.899 63.874 63.816 63.804 63.759 63.689 63.606 63.504 63.398 63.287 63.207 63.064 62.944 62.81 62.635 62.464 62.267 62.065 61.86 61.673 61.49 61.28 61.055 60.826 60.569 60.326 60.056 59.801 59.556 59.324 59.041 58.801 58.589 58.354
98.903 98.715 98.568 98.487 98.374 98.229 98.101 97.94 97.823 97.676 97.505 97.373 97.24 97.091 96.668 96.081 95.965 95.935 95.834 95.739 95.689 95.657 95.482 95.366 95.242 95.092 94.985 94.899 94.794 94.691 94.535 94.492 94.404 94.309 94.207 94.107 93.976 93.844 93.76 93.6 93.48 93.324 93.134 92.909 92.76 92.638 92.385 92.116 91.757 91.532 91.352 90.945 90.668 90.375 90.117 89.797 89.544 89.258 89.099 88.768 88.467 88.181 87.746 87.439 87.141 86.826 86.536 86.327 86.15 85.969 85.839 85.664 85.841 85.629 85.624 85.529 85.751 84.834 86.771 87.839 84.786 84.949 85.444 84.866 82.654 81.479 82.164 82.581 82.136 82.251 80.316 79.436 80.406 79.189 78.884 78.726 78.599 78.501 78.864 78.274 79.271 83.739 84.561 84.356 83.766 83.209 81.391 78.629 77.726 77.574 77.121 77.051 77.016 76.914 76.939 78.269 76.791 76.364 75.921 75.686 75.541 75.244 75.691 74.371 74.311 75.141 75.396 76.284 78.201 77.959 77.931 74.569 73.694 73.651 73.686 74.226 73.766 73.499 73.496 73.544 73.561 73.501 73.391 73.289 73.221 73.106 73.014 72.864 72.766 72.534 72.409 72.249 72.131 71.989 71.806 71.664 71.541 71.424 71.304 71.226 71.159 71.129 71.079 71.021 70.984 70.926 70.861 70.831 70.381 69.564 69.429 69.346 69.331 69.286 69.339 71.076 70.161 69.361 69.174 69.089 69.036 68.931 69.006 68.869 69.229 69.119 68.676 68.576 68.584 68.389 68.221 68.241 68.851 71.084 68.996 68.319 68.299 68.444 68.421 68.411 68.259 68.104 68.999 68.306 68.364 68.439 68.541 68.566 68.616 68.701 68.746 68.776 68.821 68.899 68.924 68.984 69.014 69.201 69.596 69.774 71.354 71.619 71.216 70.044 68.764 68.249 68.309 68.411 68.994 69.989 70.926 71.334 71.544 71.559 71.554 71.536 71.539 71.646 71.724 71.789 72.006 72.139 72.301 72.416 72.561 72.736 72.896 73.024 73.174 73.309 73.419 73.446 73.466 73.499 73.494 73.484 73.431 73.291 73.206 73.071 72.931 72.771 72.574 72.376 72.201 72.034 71.866 71.679 71.471 71.291 71.146 70.999 70.921 70.961 70.399 68.956 67.899 70.566 68.961 67.969 67.629 67.291 66.949 66.611 66.319 65.981 65.644 65.264 64.874 64.696 64.634 64.424 63.926 63.019 61.739 60.204 58.586 57.894 57.789 57.949 58.851 60.271 60.799 61.021 59.171 58.399 57.004 56.954 56.951 56.909 58.529 59.899 56.844 56.534 57.609 56.031 55.356 55.436 55.536 55.474 55.466 55.619 55.806 55.791 56.451 56.119 56.644 54.524 53.959 55.339 54.244 54.704 54.881 55.124 55.301 55.566 55.886 56.266 56.669 57.741 57.704 58.529 58.529 59.041 60.201 61.031 61.471 61.934 62.799 62.179 62.179 62.354 62.476 62.604 62.721 62.804 62.871 62.934 62.981 63.054 63.144 63.266 63.364 63.449 63.504 63.549 63.576 63.599 63.661 63.671 63.654 63.631 63.661 63.689 63.751 63.704 63.676 63.696 63.666 63.699 63.659 63.664 63.834 63.576 63.501 63.511 63.534 63.471 63.434 63.431 63.414 63.346 63.264 63.174 63.084 62.965 62.88 62.78 62.646 62.526 62.398 62.216 62.047 61.881 61.699 61.5 61.313 61.128 60.935 60.719 60.494 60.266 60.024 59.776 59.531 59.296 59.031 58.804 58.561 58.349 58.131
99.239 99.078 98.935 98.801 98.663 98.493 98.372 98.189 98.087 97.935 97.805 97.768 97.645 97.462 96.933 96.562 96.242 96.197 96.074 96.003 95.939 95.886 95.769 95.742 95.641 95.416 95.323 95.175 95.045 94.979 94.838 94.752 94.733 94.548 94.473 94.39 94.307 94.19 94.085 93.89 93.813 93.689 93.441 93.285 93.128 92.915 92.721 92.492 92.208 91.996 91.663 91.33 91.165 90.86 90.514 90.275 89.969 89.716 89.508 89.17 88.93 88.579 88.157 87.874 87.548 87.18 86.893 86.662 86.436 86.252 86.078 85.936 85.794 85.641 85.481 85.321 85.129 84.926 84.966 85.031 84.336 84.129 84.304 86.464 85.359 82.204 82.186 82.234 82.236 82.504 82.996 82.086 81.869 79.906 78.756 78.626 78.516 78.404 78.249 78.131 78.131 81.889 83.521 84.149 84.579 84.504 84.094 83.551 82.536 81.826 79.914 79.116 77.301 77.364 77.156 78.139 76.524 76.141 75.854 75.561 75.296 75.451 75.214 74.349 74.281 74.161 74.139 74.149 74.141 75.489 76.301 74.271 73.764 73.784 76.229 76.751 75.246 73.334 73.261 73.314 73.419 73.364 73.211 73.034 72.904 72.746 72.589 72.391 72.204 72.031 71.949 71.839 71.686 71.554 71.476 71.381 71.381 71.344 71.311 71.279 71.251 71.189 71.141 71.106 71.114 71.101 71.026 70.839 70.701 70.286 69.621 69.629 69.766 69.881 69.891 69.984 69.964 69.756 69.594 69.509 69.429 69.291 69.299 69.059 69.159 69.081 68.746 68.674 68.576 68.489 68.401 68.396 68.394 68.414 68.456 68.474 68.441 68.524 68.474 68.241 68.251 68.621 68.609 68.691 68.821 68.919 68.989 69.091 69.174 69.221 69.224 69.324 69.401 69.419 69.514 69.591 69.799 70.764 72.026 71.674 70.459 68.909 68.704 68.474 68.614 69.179 69.796 70.461 71.104 71.531 71.711 71.741 71.769 71.786 71.804 71.861 71.954 72.064 72.166 72.294 72.441 72.636 72.769 72.954 73.119 73.289 73.526 73.679 73.821 73.936 74.029 74.091 74.134 74.111 74.086 74.021 73.989 73.921 73.809 73.681 73.514 73.364 73.189 72.971 72.831 72.604 72.419 72.236 71.946 71.724 71.546 71.359 71.239 71.921 72.219 69.659 67.579 70.989 69.876 68.536 68.021 67.699 67.334 67.009 66.664 66.319 65.984 65.646 65.279 64.904 64.561 64.394 64.266 63.881 63.176 62.386 61.244 59.429 58.024 57.609 57.509 58.521 60.116 60.761 60.851 59.976 59.114 57.529 56.889 56.851 57.606 58.311 56.621 55.779 57.011 57.364 55.384 55.421 55.491 55.466 55.564 56.446 56.459 55.659 57.546 57.514 57.446 55.469 54.971 54.509 54.869 55.421 54.514 54.784 54.949 55.221 55.491 55.864 56.254 56.654 57.096 57.549 57.996 58.534 59.004 59.736 60.699 61.429 61.719 60.971 61.384 61.776 62.156 62.319 62.411 62.541 62.654 62.716 62.724 62.789 62.864 62.959 63.056 63.139 63.219 63.256 63.284 63.339 63.369 63.389 63.374 63.391 63.416 63.401 63.404 63.384 63.361 63.356 63.384 63.426 63.384 63.534 63.554 63.204 63.129 63.189 63.146 63.116 63.094 63.056 63.021 62.954 62.871 62.759 62.641 62.564 62.476 62.349 62.23 62.131 61.99 61.829 61.655 61.494 61.33 61.152 60.978 60.799 60.601 60.389 60.174 59.961 59.749 59.514 59.251 59.014 58.759 58.571 58.334 58.144 57.889
99.595 99.445 99.347 99.209 98.993 98.893 98.809 98.578 98.414 98.237 98.122 98.078 97.897 97.812 97.942 98.826 97.417 96.874 96.45 96.333 96.223 96.15 96.072 96.093 95.951 95.763 95.657 95.513 95.4 95.22 95.133 95.021 94.979 94.834 94.77 94.617 94.548 94.46 94.406 94.277 94.106 93.938 93.767 93.635 93.428 93.242 93.06 92.828 92.588 92.335 92.067 91.855 91.569 91.197 90.928 90.775 90.514 90.226 89.952 89.667 89.42 89.037 88.608 88.318 87.923 87.551 87.235 86.99 86.776 86.594 86.404 86.229 86.064 85.921 85.751 85.591 85.394 85.176 84.939 84.656 84.384 84.021 83.514 82.944 82.489 82.164 82.206 82.279 82.359 82.371 82.466 82.879 82.544 81.771 80.199 79.566 79.269 78.391 78.244 78.029 77.849 77.746 78.939 80.611 82.114 83.851 84.331 84.554 84.401 84.069 82.656 82.241 81.831 80.939 80.386 77.719 76.384 76.144 75.759 75.539 75.189 75.434 75.399 74.651 74.519 74.231 74.209 74.141 74.169 75.359 76.121 73.874 74.686 74.076 76.199 76.806 75.166 73.266 72.661 72.519 73.171 73.001 72.769 72.514 72.336 72.186 72.081 72.016 71.946 71.864 71.791 71.731 71.716 71.711 71.686 71.666 71.641 71.636 71.599 71.561 71.514 71.461 71.461 71.466 71.444 71.434 71.381 71.209 71.106 72.436 70.226 69.961 70.099 70.179 70.129 70.181 70.134 69.909 69.771 69.616 69.504 69.414 69.321 69.199 69.139 69.014 69.074 69.004 68.761 68.701 68.669 68.641 68.624 68.696 68.676 68.686 68.766 68.666 68.461 68.461 68.796 68.961 69.086 69.216 69.339 69.384 69.449 69.551 69.624 69.749 69.849 69.946 70.019 70.636 71.056 70.686 70.159 69.789 68.996 68.689 68.709 68.799 69.374 70.009 70.931 71.359 71.574 71.854 71.966 71.964 71.954 71.971 72.024 72.101 72.169 72.244 72.406 72.491 72.641 72.791 72.964 73.164 73.361 73.619 73.841 74.006 74.156 74.311 74.406 74.466 74.546 74.626 74.684 74.646 74.629 74.564 74.501 74.431 74.341 74.166 74.031 73.861 73.689 73.491 73.301 73.106 72.981 72.734 72.524 72.314 72.104 71.869 71.611 71.991 72.231 70.984 68.109 69.671 71.241 68.979 68.389 68.101 67.724 67.404 67.076 66.686 66.336 65.986 65.591 65.231 64.909 64.479 64.146 64.009 63.844 63.354 62.589 61.636 60.129 58.656 57.459 57.244 57.329 58.829 59.826 59.904 59.959 59.591 58.129 56.901 56.771 56.661 56.451 55.939 56.321 57.591 56.149 55.421 55.424 55.436 55.454 56.216 58.406 58.899 58.021 57.129 56.869 56.656 56.286 55.309 55.084 54.666 54.254 54.474 54.671 54.839 55.159 55.504 55.936 56.304 56.656 57.069 57.484 57.926 58.654 58.844 59.264 59.844 60.181 60.636 60.596 61.101 61.434 61.916 62.169 62.256 62.364 62.459 62.494 62.556 62.616 62.696 62.764 62.854 62.906 62.944 62.996 63.056 63.066 63.084 63.096 63.131 63.164 63.154 63.131 63.071 63.061 63.079 63.104 63.139 63.134 63.246 63.016 62.776 62.814 62.834 62.791 62.744 62.719 62.689 62.656 62.574 62.484 62.369 62.241 62.171 62.072 61.962 61.853 61.731 61.602 61.443 61.273 61.148 60.974 60.805 60.637 60.455 60.292 60.061 59.859 59.671 59.451 59.209 58.984 58.771 58.529 58.329 58.096 57.894 57.704
99.985 99.786 99.653 99.538 99.359 99.226 99.05 98.874 98.745 98.603 98.474 98.322 98.174 98.061 98.521 99.738 99.694 97.755 96.785 96.672 96.56 96.483 96.448 96.315 96.195 96.14 95.98 95.828 95.69 95.516 95.451 95.372 95.197 95.131 95.082 94.895 94.813 94.785 94.68 94.62 94.513 94.271 94.162 94.008 93.707 93.604 93.392 93.138 92.984 92.781 92.485 92.283 91.942 91.698 91.543 91.188 90.851 90.687 90.377 90.174 89.944 89.523 89.198 88.823 88.387 88.012 87.685 87.383 87.154 86.938 86.744 86.549 86.394 86.224 86.064 85.914 85.746 85.526 85.296 85.011 84.756 84.476 84.071 83.369 82.696 82.449 82.461 82.561 82.641 82.656 82.604 82.591 83.306 80.616 80.629 80.906 81.679 80.196 79.171 80.371 78.909 77.999 77.539 77.431 77.331 78.676 80.499 83.416 83.896 84.151 82.814 82.969 82.914 82.794 82.596 78.194 76.196 75.999 75.741 75.546 75.236 75.664 74.826 74.311 74.561 74.291 74.446 74.686 74.436 74.224 73.936 73.874 74.854 73.684 75.881 76.871 75.419 73.479 72.989 72.456 72.689 72.501 72.446 72.426 72.409 72.391 72.334 72.354 72.316 72.246 72.166 72.141 72.094 72.054 71.984 71.936 71.874 71.851 71.804 71.731 71.636 71.611 71.619 71.601 71.606 71.561 71.526 71.446 71.391 72.001 70.561 70.349 70.434 70.379 70.291 70.269 70.231 70.021 69.869 69.769 69.696 69.581 69.514 69.451 69.471 69.309 69.201 69.149 69.081 69.016 68.994 68.986 68.961 68.991 69.021 69.036 69.274 69.491 69.119 68.966 69.284 69.396 69.556 69.661 70.016 70.034 70.086 70.099 70.561 70.434 70.646 70.766 70.704 70.421 69.741 69.039 68.826 68.789 68.959 69.254 70.349 71.216 71.669 71.849 72.144 72.214 72.179 72.186 72.204 72.224 72.269 72.311 72.379 72.489 72.596 72.719 72.834 73.004 73.196 73.369 73.616 73.831 74.036 74.219 74.409 74.589 74.719 74.816 74.944 75.001 75.079 75.176 75.191 75.176 75.099 75.076 75.006 74.949 74.831 74.689 74.511 74.356 74.136 73.956 73.761 73.579 73.396 73.221 73.021 72.826 72.604 72.296 72.034 71.986 72.951 71.941 68.616 68.346 71.471 70.766 68.829 68.481 68.131 67.801 67.441 67.061 66.696 66.344 65.936 65.591 65.181 64.796 64.491 64.056 63.761 63.576 63.219 62.629 61.724 60.789 59.459 57.799 57.136 56.979 57.091 58.344 59.661 60.004 59.811 58.334 56.789 56.611 56.471 56.216 55.596 57.429 57.056 55.639 55.406 55.421 55.449 55.544 58.156 58.539 56.564 55.604 55.426 55.681 56.374 56.201 55.251 54.254 53.716 53.881 54.809 54.856 54.841 55.091 55.646 55.941 56.406 56.774 57.024 57.426 57.811 58.256 58.674 59.484 59.459 59.714 60.021 60.396 60.724 61.119 61.564 61.926 62.084 62.164 62.249 62.334 62.374 62.426 62.501 62.569 62.619 62.671 62.699 62.749 62.791 62.781 62.801 62.846 62.866 62.896 62.869 62.849 62.854 62.874 62.874 62.881 62.844 62.716 62.466 62.431 62.486 62.499 62.431 62.386 62.359 62.309 62.286 62.199 62.109 61.989 61.922 61.815 61.71 61.608 61.496 61.371 61.219 61.07 60.919 60.763 60.625 60.456 60.299 60.15 59.974 59.769 59.549 59.334 59.146 58.941 58.709 58.476 58.271 58.076 57.871 57.689 57.479
100.234 100.084 99.969 99.848 99.644 99.55 99.382 99.25 99.1 98.976 98.82 98.715 98.521 98.437 98.735 99.313 98.555 97.671 97.158 97.113 96.937 96.896 96.851 96.69 96.58 96.467 96.245 96.204 96.095 95.897 95.827 95.643 95.604 95.567 95.41 95.212 95.176 95.088 94.955 94.866 94.802 94.57 94.453 94.286 94.151 94.06 93.82 93.597 93.507 93.303 92.944 92.593 92.322 92.14 91.872 91.564 91.381 91.128 90.794 90.563 90.331 90.04 89.667 89.244 88.851 88.498 88.121 87.806 87.537 87.319 87.099 86.901 86.706 86.556 86.376 86.219 86.026 85.826 85.559 85.281 85.046 84.801 84.511 84.071 83.459 83.004 82.814 82.886 82.959 82.974 82.901 82.776 82.856 80.971 80.551 80.666 81.271 79.856 79.306 81.719 81.646 80.914 79.066 77.919 77.236 77.099 76.951 77.016 79.181 80.031 80.619 80.724 81.781 82.411 82.419 75.966 76.106 75.809 76.136 75.796 75.241 75.846 75.489 74.301 74.219 74.181 74.126 74.086 74.046 74.029 73.934 73.846 73.796 73.766 75.169 75.669 74.919 74.224 73.459 73.281 73.139 72.944 72.844 72.846 72.781 72.689 72.669 72.606 72.579 72.519 72.426 72.376 72.314 72.236 72.189 72.111 72.036 71.971 71.896 71.814 71.764 71.684 71.641 71.631 71.611 71.566 71.541 71.596 71.564 71.626 70.809 70.579 70.614 70.451 70.384 70.401 70.311 70.144 70.044 69.951 69.879 69.801 69.761 69.739 69.669 69.604 69.524 69.471 69.406 69.394 69.394 69.396 69.414 69.506 69.651 69.051 68.914 69.886 69.546 69.581 69.939 69.989 70.234 70.469 70.996 70.899 71.756 70.751 70.979 70.716 71.234 69.751 69.261 69.021 69.034 69.331 69.906 70.819 71.564 72.014 72.206 72.264 72.309 72.374 72.371 72.404 72.444 72.496 72.526 72.559 72.664 72.769 72.864 72.946 73.064 73.251 73.451 73.649 73.816 74.049 74.224 74.421 74.614 74.779 74.989 75.139 75.279 75.394 75.496 75.594 75.641 75.684 75.676 75.604 75.561 75.521 75.434 75.359 75.241 75.096 74.934 74.791 74.629 74.449 74.271 74.081 73.894 73.731 73.509 73.261 73.079 72.811 72.534 72.166 73.181 71.406 69.774 68.549 70.744 71.779 69.479 68.826 68.504 68.186 67.791 67.434 67.079 66.689 66.309 65.941 65.539 65.099 64.766 64.466 63.949 63.514 63.279 63.104 62.689 61.811 60.999 60.081 58.616 57.274 56.871 56.864 57.966 59.424 59.846 58.304 56.946 56.686 56.401 56.239 56.319 56.194 56.036 55.414 55.414 55.399 55.394 55.426 55.516 55.446 55.431 55.454 55.404 55.421 55.484 55.916 55.469 54.824 53.801 53.859 56.784 58.146 54.816 54.816 55.111 55.611 55.921 56.249 56.619 56.931 57.341 57.756 58.111 58.504 58.891 59.239 59.679 59.844 60.136 60.461 60.869 61.304 61.699 61.911 61.986 62.071 62.151 62.206 62.271 62.299 62.351 62.421 62.446 62.454 62.479 62.489 62.524 62.561 62.584 62.586 62.574 62.594 62.619 62.634 62.644 62.574 62.416 62.324 62.169 62.136 62.161 62.136 62.086 62.059 62.011 61.999 61.941 61.846 61.739 61.661 61.57 61.48 61.369 61.256 61.122 61.01 60.856 60.708 60.569 60.44 60.283 60.133 59.963 59.821 59.654 59.436 59.241 59.071 58.894 58.649 58.454 58.229 58.039 57.824 57.656 57.471 57.259
100.59 100.407 100.301 100.23 100.045 99.874 99.696 99.538 99.403 99.346 99.232 99.101 98.898 98.862 98.577 98.131 97.658 97.58 97.521 97.502 97.306 97.26 97.237 97.1 97.01 96.814 96.7 96.62 96.377 96.182 96.141 96.032 95.977 95.92 95.765 95.646 95.602 95.404 95.359 95.21 95.079 94.929 94.738 94.609 94.559 94.316 94.093 94.009 93.828 93.609 93.427 93.173 92.912 92.635 92.223 91.999 91.819 91.473 91.198 90.962 90.734 90.485 90.166 89.775 89.369 88.944 88.545 88.24 87.942 87.694 87.479 87.274 87.064 86.866 86.709 86.526 86.359 86.164 85.919 85.624 85.349 85.066 84.794 84.471 84.131 83.691 83.349 83.221 83.266 83.276 83.171 82.974 83.351 81.174 80.739 80.731 80.501 79.939 79.174 80.501 81.291 80.924 80.209 79.654 79.069 78.101 77.329 76.799 76.574 76.436 76.289 76.196 77.674 78.529 79.994 75.819 75.729 75.569 75.874 76.526 75.096 75.089 74.749 74.336 74.364 74.349 74.274 74.071 74.011 73.979 73.921 75.299 75.694 76.256 75.039 73.759 73.529 73.454 73.339 73.239 73.246 73.089 73.114 72.899 72.841 72.801 72.754 72.706 72.679 72.624 72.581 72.526 72.434 72.364 72.294 72.224 72.134 72.054 71.966 71.861 71.799 71.721 71.666 71.636 71.614 71.579 71.571 71.771 71.666 72.131 71.419 72.426 70.754 70.751 70.634 70.581 70.526 70.396 70.236 70.151 70.041 69.994 69.974 69.946 69.934 69.956 69.861 69.866 69.831 69.801 70.189 70.294 71.584 70.934 70.389 71.861 71.321 71.209 72.774 70.434 70.714 71.096 71.201 71.169 71.381 70.744 70.516 70.046 69.626 69.471 69.316 69.361 69.619 70.369 71.266 71.809 72.381 72.499 72.526 72.519 72.541 72.559 72.579 72.629 72.694 72.766 72.806 72.854 72.934 72.991 73.134 73.244 73.364 73.486 73.671 73.861 74.026 74.246 74.454 74.646 74.796 74.989 75.189 75.376 75.546 75.716 75.836 75.944 76.009 76.079 76.094 76.091 76.089 76.051 75.994 75.921 75.831 75.719 75.629 75.486 75.321 75.186 75.021 74.859 74.691 74.474 74.321 74.189 73.944 73.761 73.534 73.306 73.044 72.839 73.504 73.174 72.251 69.004 70.046 72.336 70.504 69.166 68.876 68.561 68.189 67.839 67.454 67.074 66.694 66.301 65.901 65.456 65.149 64.771 64.361 63.991 63.444 63.009 62.821 62.536 61.916 61.179 60.414 59.236 57.584 56.866 56.669 56.996 58.814 57.561 57.441 58.274 56.569 56.129 56.004 55.819 55.414 55.354 55.304 55.971 56.189 55.686 55.434 55.449 55.459 55.419 55.381 55.384 55.386 55.429 55.546 54.996 53.921 54.314 57.796 55.999 54.224 54.649 54.964 55.304 55.619 55.799 56.231 56.509 56.836 57.211 57.581 57.979 58.406 58.756 59.074 59.376 59.701 60.026 60.261 60.614 60.946 61.369 61.671 61.796 61.876 61.929 62.009 62.086 62.146 62.156 62.189 62.181 62.196 62.206 62.269 62.309 62.309 62.291 62.284 62.281 62.334 62.364 62.346 62.236 62.139 61.984 61.869 61.879 61.864 61.821 61.756 61.724 61.686 61.661 61.636 61.534 61.426 61.354 61.232 61.139 61.026 60.902 60.797 60.661 60.514 60.383 60.227 60.097 59.955 59.809 59.641 59.51 59.341 59.156 58.984 58.796 58.599 58.386 58.171 57.976 57.806 57.634 57.446 57.289 57.054
100.849 100.66 100.609 100.552 100.429 100.29 100.123 99.993 99.839 99.653 99.528 99.415 99.252 99.201 98.959 98.473 98.039 97.917 97.931 97.865 97.673 97.606 97.506 97.42 97.347 97.202 97.115 96.986 96.779 96.659 96.52 96.392 96.34 96.234 96.133 96.105 95.896 95.815 95.849 95.583 95.46 95.334 95.097 95.01 94.939 94.699 94.553 94.476 94.166 93.947 93.777 93.538 93.264 93.016 92.755 92.573 92.28 91.93 91.687 91.41 91.158 90.884 90.587 90.252 89.85 89.423 89.053 88.712 88.377 88.104 87.866 87.626 87.409 87.226 87.039 86.876 86.676 86.489 86.239 85.989 85.719 85.409 85.121 84.809 84.506 84.231 83.911 83.671 83.614 83.551 83.431 83.231 83.236 82.299 80.981 80.609 80.194 79.781 79.326 79.301 79.899 79.841 79.489 79.391 79.541 79.434 79.136 78.729 77.706 76.906 76.276 76.096 75.936 75.779 75.661 75.706 76.281 75.726 75.389 75.174 75.759 75.274 74.516 74.504 74.684 74.614 74.534 74.269 74.061 74.009 73.906 76.901 78.194 79.091 78.246 76.061 74.841 74.089 73.526 73.241 73.321 74.341 76.019 75.481 73.811 72.791 72.784 72.756 72.726 72.689 72.631 72.591 72.481 72.409 72.364 72.294 72.216 72.101 72.009 71.946 71.861 71.776 71.711 71.684 71.644 71.621 71.706 71.861 71.871 72.456 72.819 71.016 70.976 70.911 70.839 70.754 70.751 70.639 70.531 70.504 70.409 70.339 70.401 70.391 70.366 70.269 70.364 70.484 70.521 70.636 71.074 71.784 72.661 71.989 71.376 71.471 71.936 71.916 72.289 71.146 70.949 70.696 70.516 69.984 69.729 69.666 69.624 69.556 69.729 70.036 70.656 71.509 72.191 72.546 72.664 72.711 72.709 72.714 72.771 72.834 72.834 72.869 72.919 73.004 73.111 73.159 73.221 73.329 73.466 73.561 73.674 73.824 73.971 74.106 74.274 74.451 74.631 74.811 75.066 75.219 75.421 75.619 75.791 75.939 76.071 76.206 76.314 76.376 76.459 76.509 76.539 76.541 76.509 76.466 76.434 76.344 76.261 76.136 76.019 75.889 75.736 75.591 75.399 75.241 75.051 74.876 74.671 74.531 74.324 74.156 73.949 73.769 73.546 73.361 73.344 73.479 73.016 70.046 69.369 71.914 71.761 69.734 69.381 68.979 68.559 68.189 67.809 67.409 67.059 66.686 66.264 65.901 65.551 65.114 64.684 64.251 63.904 63.366 62.776 62.541 62.446 62.101 61.399 60.636 59.529 58.144 56.711 56.516 56.661 57.426 57.444 56.966 56.764 56.054 55.836 55.616 55.439 55.344 55.316 58.071 59.666 56.564 55.469 55.464 55.419 55.411 55.391 55.384 55.409 55.389 55.431 55.389 54.559 54.526 55.776 54.781 53.746 54.426 54.854 54.999 55.359 55.404 55.721 56.046 56.356 56.724 57.114 57.474 57.869 58.261 58.611 58.956 59.236 59.574 59.806 60.049 60.301 60.629 60.974 61.366 61.606 61.684 61.724 61.814 61.876 61.936 61.954 61.966 61.939 61.979 62.034 62.054 62.031 62.026 62.024 62.036 62.076 62.084 62.071 62.034 62.076 61.751 61.664 61.629 61.619 61.571 61.511 61.479 61.411 61.371 61.324 61.271 61.166 61.061 60.941 60.827 60.723 60.625 60.501 60.362 60.224 60.085 59.943 59.81 59.674 59.521 59.373 59.233 59.093 58.931 58.741 58.564 58.361 58.154 57.954 57.766 57.596 57.439 57.256 57.076 56.896
101.224 101.017 100.946 100.855 100.716 100.607 100.464 100.312 100.157 99.986 99.907 99.82 99.657 99.559 99.304 98.888 98.342 98.251 98.278 98.23 98.126 98.035 97.92 97.848 97.788 97.527 97.444 97.322 97.134 97.101 96.912 96.744 96.682 96.529 96.426 96.371 96.237 96.186 96.146 95.957 95.907 95.782 95.535 95.362 95.213 95.039 94.921 94.797 94.623 94.461 94.291 94.08 93.734 93.448 93.197 92.949 92.611 92.367 92.17 91.851 91.618 91.387 91.11 90.748 90.343 89.937 89.549 89.191 88.843 88.554 88.291 88.029 87.789 87.599 87.406 87.226 87.026 86.821 86.581 86.319 86.046 85.774 85.491 85.204 84.901 84.634 84.374 84.151 83.966 83.839 83.691 83.506 83.371 83.839 81.881 81.609 80.599 80.216 79.824 79.439 79.444 79.351 79.319 79.386 79.519 79.484 79.286 78.939 78.561 78.391 77.774 77.689 76.804 75.919 75.564 75.509 75.424 75.864 76.254 76.071 76.916 75.171 74.689 74.854 74.861 74.764 74.656 74.439 74.114 74.034 74.184 77.256 78.069 78.834 78.144 76.676 76.444 74.294 73.304 73.289 73.251 75.064 79.086 78.919 74.869 72.906 72.914 72.881 72.809 72.796 72.684 72.619 72.546 72.456 72.389 72.336 72.256 72.166 72.099 72.004 71.896 71.826 71.779 71.751 71.754 71.779 71.751 71.796 71.909 72.074 72.279 71.289 71.204 71.176 70.986 70.964 70.981 70.921 70.939 70.869 70.884 71.224 71.239 71.086 71.099 71.166 71.184 71.084 71.371 73.429 72.024 74.789 74.421 70.999 71.136 70.546 70.001 69.874 69.866 69.831 69.811 69.816 69.886 71.021 72.761 76.006 74.036 71.631 72.086 72.491 72.594 72.724 72.764 72.854 73.006 73.006 73.021 73.046 73.124 73.179 73.211 73.296 73.369 73.471 73.614 73.701 73.844 73.974 74.086 74.176 74.286 74.444 74.559 74.709 74.856 75.009 75.231 75.466 75.651 75.786 76.001 76.171 76.339 76.469 76.569 76.689 76.764 76.854 76.924 76.966 77.009 76.986 76.976 76.914 76.864 76.794 76.706 76.581 76.481 76.311 76.169 76.019 75.834 75.661 75.474 75.264 75.086 74.889 74.701 74.534 74.356 74.206 73.971 73.819 73.769 73.746 73.771 71.409 69.519 70.901 71.371 70.454 69.701 69.394 68.919 68.534 68.189 67.799 67.419 67.054 66.676 66.329 65.959 65.441 64.974 64.541 64.049 63.589 63.116 62.619 62.334 62.251 62.016 61.509 60.666 59.756 58.516 56.849 56.421 56.406 57.134 57.074 56.329 55.989 55.794 55.594 55.426 55.284 55.269 56.459 58.171 55.906 55.504 55.454 55.399 55.381 55.374 55.399 55.366 55.374 55.331 55.319 55.144 54.976 54.679 54.866 54.434 53.781 54.384 54.921 55.051 55.221 55.374 55.646 55.981 56.284 56.616 56.984 57.386 57.739 58.106 58.494 58.809 59.106 59.389 59.651 59.866 60.044 60.356 60.649 61.009 61.301 61.506 61.581 61.589 61.656 61.729 61.756 61.726 61.786 61.784 61.804 61.784 61.741 61.736 61.789 61.829 61.816 61.816 61.989 61.654 61.361 61.441 61.454 61.441 61.384 61.339 61.291 61.221 61.166 61.104 61.029 60.929 60.841 60.716 60.612 60.493 60.374 60.24 60.086 59.978 59.846 59.728 59.584 59.459 59.292 59.163 59.033 58.914 58.749 58.561 58.404 58.181 57.989 57.799 57.624 57.444 57.286 57.104 56.946 56.764
101.465 101.374 101.265 101.143 101.082 100.924 100.846 100.693 100.569 100.378 100.263 100.188 100.049 99.966 99.75 99.433 98.815 98.669 98.674 98.59 98.435 98.434 98.348 98.245 98.185 98.047 97.934 97.75 97.602 97.575 97.367 97.275 97.215 97.036 96.938 96.823 96.661 96.596 96.473 96.404 96.256 96.156 95.897 95.791 95.582 95.451 95.319 95.081 94.965 94.856 94.58 94.434 94.24 93.909 93.696 93.424 93.15 92.976 92.626 92.284 92.076 91.822 91.554 91.246 90.886 90.469 90.061 89.693 89.341 89.026 88.771 88.456 88.214 88.009 87.791 87.584 87.381 87.159 86.924 86.669 86.389 86.124 85.866 85.571 85.301 85.019 84.784 84.524 84.294 84.141 83.999 83.801 83.646 84.429 82.734 82.696 81.754 81.129 80.626 80.201 79.676 79.474 79.379 79.524 79.591 79.569 79.384 79.104 78.459 78.051 77.799 77.729 77.876 77.699 77.291 75.809 75.361 75.306 75.189 75.286 75.586 74.876 74.821 75.051 74.994 74.886 74.789 74.576 74.206 74.119 74.054 76.474 78.859 79.236 78.009 76.676 76.396 74.166 73.329 73.271 73.239 75.774 79.164 78.371 73.726 73.171 73.111 73.001 72.944 72.866 72.791 72.731 72.624 72.506 72.416 72.399 72.324 72.254 72.166 72.069 72.026 71.964 71.924 71.876 71.859 71.886 71.931 71.924 72.069 72.376 72.339 71.336 71.331 71.516 72.816 73.154 71.299 72.341 71.766 72.216 72.324 72.161 72.354 73.391 72.534 71.711 71.809 72.671 72.016 73.671 70.669 71.679 70.866 70.016 69.994 69.979 69.966 69.996 70.159 70.326 70.646 71.121 71.624 72.991 78.356 78.276 73.686 72.996 72.821 72.881 72.944 72.986 73.086 73.181 73.274 73.316 73.371 73.431 73.519 73.594 73.676 73.826 73.951 74.109 74.216 74.294 74.409 74.529 74.639 74.719 74.871 74.969 75.144 75.326 75.474 75.659 75.809 76.011 76.166 76.334 76.499 76.651 76.826 76.971 77.049 77.179 77.281 77.354 77.439 77.459 77.466 77.476 77.424 77.409 77.329 77.244 77.131 77.029 76.921 76.766 76.634 76.471 76.294 76.096 75.919 75.706 75.501 75.304 75.099 74.884 74.694 74.556 74.369 74.226 74.141 74.109 73.979 74.969 71.309 73.931 71.526 71.234 70.221 69.686 69.289 68.919 68.544 68.181 67.809 67.436 67.079 66.709 66.256 65.746 65.261 64.779 64.244 63.789 63.394 62.994 62.566 62.156 61.929 61.816 61.551 60.761 59.696 58.344 57.036 56.401 56.141 56.689 57.076 56.231 55.744 55.531 55.366 55.196 55.399 56.311 57.591 55.816 55.509 55.461 55.424 55.374 55.354 55.346 55.334 55.331 55.296 55.284 55.229 55.164 54.754 55.351 56.246 54.956 54.136 54.264 54.614 55.236 55.134 55.324 55.734 55.899 56.204 56.481 56.856 57.196 57.609 57.981 58.331 58.659 58.931 59.224 59.464 59.686 59.874 60.061 60.279 60.589 60.894 61.191 61.386 61.436 61.469 61.491 61.524 61.581 61.591 61.601 61.571 61.521 61.494 61.539 61.551 61.551 61.629 61.484 60.974 61.141 61.299 61.366 61.269 61.239 61.211 61.151 61.041 60.969 60.921 60.846 60.749 60.624 60.535 60.406 60.295 60.186 60.056 59.897 59.781 59.676 59.531 59.4 59.272 59.138 58.987 58.876 58.736 58.576 58.416 58.234 58.059 57.869 57.689 57.486 57.306 57.149 56.969 56.809 56.624
101.888 101.838 101.65 101.537 101.473 101.293 101.16 100.997 100.902 100.773 100.714 100.619 100.522 100.359 100.301 99.937 99.357 99.255 99.111 98.981 98.913 98.816 98.779 98.663 98.584 98.413 98.29 98.158 97.971 97.901 97.814 97.671 97.622 97.474 97.355 97.307 97.118 97.048 96.884 96.789 96.691 96.517 96.302 96.23 96.035 95.895 95.687 95.559 95.483 95.312 94.968 94.878 94.708 94.356 94.054 93.839 93.667 93.405 93.064 92.844 92.577 92.295 92.033 91.755 91.428 91.01 90.579 90.214 89.866 89.509 89.214 88.934 88.684 88.441 88.229 88.021 87.799 87.574 87.319 87.034 86.754 86.469 86.201 85.914 85.656 85.389 85.136 84.876 84.631 84.454 84.299 84.104 83.939 84.536 83.881 82.409 82.279 81.844 81.514 81.026 80.416 79.871 79.654 79.569 80.021 79.714 79.309 79.016 78.606 78.486 77.926 77.721 77.396 77.276 77.501 77.439 76.724 75.266 75.199 75.149 75.104 75.004 74.939 75.116 75.096 74.966 74.844 74.634 74.261 74.824 74.651 75.879 79.076 79.121 77.904 77.019 75.989 73.604 73.386 73.439 73.239 75.596 79.336 78.404 73.671 73.406 73.304 73.211 73.156 73.079 72.996 72.861 72.774 72.669 72.611 72.574 72.486 72.419 72.371 72.279 72.224 72.196 72.161 72.099 72.069 72.076 72.151 72.249 72.261 72.456 71.704 71.604 71.846 72.094 72.979 73.286 73.656 73.196 72.836 72.474 72.394 72.631 71.901 71.791 71.981 71.504 70.761 70.494 70.201 70.194 70.146 70.151 70.216 70.399 70.461 70.454 70.799 71.619 72.436 72.909 73.024 73.419 72.971 73.461 75.944 77.276 74.389 73.351 73.224 73.216 73.294 73.369 73.446 73.529 73.681 73.714 73.804 73.961 74.096 74.196 74.269 74.361 74.506 74.616 74.721 74.801 74.934 75.049 75.176 75.251 75.354 75.519 75.686 75.891 76.046 76.194 76.371 76.526 76.676 76.846 77.009 77.184 77.326 77.466 77.581 77.696 77.814 77.889 77.921 77.959 77.971 77.966 77.926 77.871 77.816 77.719 77.591 77.491 77.341 77.201 77.041 76.894 76.749 76.559 76.366 76.151 75.934 75.721 75.509 75.286 75.074 74.886 74.701 74.554 74.466 74.481 74.426 73.951 73.829 70.219 71.694 72.074 70.831 70.064 69.669 69.251 68.886 68.519 68.176 67.814 67.461 67.044 66.571 66.096 65.601 65.039 64.501 64.041 63.659 63.259 62.841 62.469 62.069 61.686 61.494 61.324 60.726 59.649 58.354 57.231 56.534 55.954 56.201 56.874 56.201 55.504 55.304 55.134 55.136 56.371 56.136 55.564 55.471 55.424 55.404 55.384 55.349 55.301 55.284 55.264 55.224 55.216 55.229 55.216 55.169 54.929 56.309 54.166 52.974 53.499 54.064 54.509 54.759 55.011 55.279 55.464 55.896 56.109 56.364 56.744 57.079 57.431 57.806 58.136 58.464 58.831 59.031 59.276 59.474 59.671 59.814 59.991 60.191 60.394 60.726 60.976 61.151 61.211 61.294 61.321 61.356 61.384 61.364 61.301 61.299 61.299 61.299 61.344 61.299 60.744 60.766 60.729 60.746 61.081 60.936 60.926 60.929 60.931 60.716 60.756 60.749 60.689 60.551 60.429 60.327 60.219 60.098 59.97 59.865 59.737 59.623 59.512 59.374 59.21 59.087 58.962 58.823 58.685 58.531 58.369 58.216 58.076 57.891 57.696 57.511 57.319 57.144 56.964 56.784 56.611 56.449
102.181 102.072 101.971 101.889 101.781 101.707 101.602 101.502 101.34 101.227 101.128 100.996 100.924 100.829 100.705 100.479 99.861 99.629 99.615 99.423 99.368 99.253 99.211 99.084 98.98 98.87 98.721 98.592 98.388 98.282 98.146 97.99 97.986 97.805 97.701 97.629 97.447 97.386 97.31 97.161 97.069 96.835 96.727 96.556 96.392 96.336 96.142 96.052 95.887 95.67 95.467 95.341 95.067 94.836 94.612 94.397 94.136 93.789 93.576 93.346 93.033 92.761 92.52 92.27 91.962 91.584 91.14 90.779 90.414 90.066 89.699 89.431 89.149 88.916 88.699 88.461 88.231 88.004 87.744 87.436 87.149 86.869 86.579 86.291 86.016 85.779 85.506 85.249 85.011 84.786 84.629 84.431 84.249 84.456 84.236 82.604 82.456 82.191 81.939 81.584 81.051 80.276 79.804 79.644 79.741 79.599 79.856 81.119 80.006 79.029 78.349 77.889 78.009 77.806 77.419 77.519 77.396 75.394 75.274 75.209 75.131 75.106 75.059 75.069 75.141 74.984 74.696 74.679 74.396 74.469 75.029 76.834 79.291 79.026 77.826 77.016 76.016 73.379 73.346 73.321 73.301 76.211 78.719 77.856 73.706 73.596 73.526 73.499 73.486 73.414 73.324 73.166 73.046 72.946 72.891 72.879 72.799 72.759 72.704 72.639 72.564 72.509 72.486 72.476 72.466 72.491 72.476 72.514 72.641 73.216 71.531 71.851 73.434 73.336 74.406 74.201 74.704 73.319 71.939 71.529 71.189 70.814 70.486 70.479 70.389 70.364 70.396 70.486 70.794 71.056 71.659 72.354 72.414 72.451 73.231 73.126 73.586 73.626 73.791 73.691 73.631 73.661 73.521 73.584 73.544 73.964 74.234 73.734 73.701 73.739 73.864 73.859 73.951 74.059 74.154 74.261 74.346 74.439 74.601 74.699 74.786 74.874 74.986 75.101 75.186 75.336 75.439 75.569 75.686 75.806 75.926 76.096 76.276 76.424 76.596 76.749 76.894 77.054 77.239 77.384 77.569 77.726 77.861 78.011 78.134 78.229 78.311 78.386 78.421 78.466 78.494 78.434 78.399 78.349 78.274 78.181 78.096 77.941 77.784 77.639 77.496 77.356 77.179 76.994 76.809 76.589 76.371 76.126 75.936 75.714 75.454 75.246 75.064 74.879 74.761 74.741 74.594 74.309 72.824 70.476 71.089 71.931 71.371 70.661 69.991 69.631 69.241 68.876 68.541 68.204 67.794 67.346 66.894 66.396 65.849 65.316 64.806 64.356 63.941 63.511 63.114 62.716 62.374 62.064 61.526 61.251 61.154 60.744 59.834 58.596 57.631 56.796 55.911 55.684 56.351 56.246 55.429 55.106 54.984 55.191 55.944 55.569 55.419 55.369 55.351 55.361 55.324 55.269 55.244 55.231 55.226 55.191 55.199 55.149 55.171 55.136 56.411 54.409 53.191 52.904 53.539 54.061 54.471 54.646 54.884 55.176 55.364 55.661 56.084 56.226 56.596 56.904 57.229 57.576 57.954 58.269 58.561 58.826 59.041 59.244 59.434 59.559 59.729 59.849 60.019 60.231 60.426 60.601 60.766 60.931 61.129 61.174 61.171 61.109 61.066 61.066 61.111 61.189 60.754 60.469 60.436 60.439 60.574 60.666 60.386 60.309 60.279 60.251 60.191 60.281 60.329 60.321 60.284 60.086 59.999 59.921 59.852 59.74 59.633 59.512 59.399 59.271 59.125 58.98 58.858 58.736 58.591 58.447 58.274 58.119 57.936 57.761 57.576 57.401 57.216 57.011 56.841 56.686 56.491 56.319 56.166
102.441 102.368 102.353 102.237 102.19 102.053 101.988 101.832 101.693 101.605 101.539 101.394 101.294 101.178 101.117 100.814 100.201 100.064 100.098 99.94 99.857 99.705 99.703 99.53 99.419 99.312 99.115 98.986 98.799 98.703 98.615 98.463 98.383 98.162 98.086 98 97.856 97.792 97.718 97.544 97.43 97.204 97.08 96.909 96.748 96.735 96.588 96.453 96.353 96.103 95.939 95.737 95.445 95.265 95.079 94.846 94.626 94.3 94.064 93.822 93.509 93.285 93.07 92.77 92.479 92.122 91.703 91.316 90.954 90.584 90.246 89.949 89.686 89.429 89.169 88.931 88.719 88.461 88.176 87.879 87.596 87.284 86.984 86.671 86.394 86.116 85.864 85.604 85.364 85.141 84.949 84.771 84.566 84.736 85.351 83.269 82.901 82.576 82.306 81.909 81.349 80.646 80.196 79.874 79.764 79.706 80.126 82.274 81.286 79.719 78.769 78.126 78.251 77.856 77.636 77.559 77.941 76.861 75.786 75.351 75.201 75.139 75.081 75.091 75.056 75.026 74.881 74.676 74.549 75.369 74.734 77.561 79.426 78.891 74.776 73.976 74.844 73.426 73.374 73.341 73.321 76.229 79.564 77.776 74.424 73.849 73.806 73.836 73.819 73.736 73.671 73.571 73.464 73.359 73.321 73.241 73.221 73.181 73.116 73.066 73.026 73.024 73.041 73.506 73.651 73.774 73.186 73.426 73.084 72.601 71.534 72.284 72.781 71.954 71.431 71.096 71.034 70.871 70.829 70.756 70.681 70.856 71.169 71.356 72.036 72.021 72.959 73.534 73.006 73.316 73.724 73.731 73.994 74.251 74.691 74.044 74.086 73.956 73.941 74.126 73.951 73.891 73.919 73.909 73.876 73.944 74.591 74.876 75.331 74.381 74.369 74.304 74.386 74.466 74.551 74.674 74.809 74.909 75.039 75.169 75.266 75.386 75.489 75.629 75.709 75.836 75.969 76.089 76.229 76.329 76.486 76.611 76.774 76.956 77.111 77.274 77.421 77.591 77.774 77.911 78.086 78.226 78.371 78.521 78.639 78.731 78.811 78.871 78.906 78.951 78.931 78.896 78.886 78.824 78.741 78.641 78.534 78.419 78.244 78.124 77.971 77.809 77.629 77.411 77.229 77.026 76.781 76.556 76.361 76.164 75.879 75.664 75.454 75.209 75.101 74.979 74.996 74.971 73.951 71.711 70.826 72.301 72.509 71.269 70.331 69.994 69.606 69.254 68.916 68.574 68.126 67.661 67.191 66.636 66.106 65.619 65.161 64.686 64.246 63.796 63.396 63.031 62.626 62.279 61.936 61.521 61.169 61.091 60.804 60.059 58.581 57.954 57.164 55.934 55.416 55.931 56.396 55.369 54.929 54.779 55.016 55.756 55.639 55.316 55.294 55.291 55.276 55.246 55.226 55.199 55.176 55.186 55.164 55.119 55.089 55.089 54.811 54.066 53.189 54.431 53.541 53.209 53.829 54.214 54.481 54.856 54.889 55.254 55.514 55.736 56.051 56.411 56.711 57.051 57.424 57.721 58.024 58.314 58.589 58.786 58.984 59.159 59.294 59.416 59.544 59.656 59.789 60.006 60.106 60.231 60.579 60.916 61.021 61.004 60.954 60.901 60.974 60.796 60.236 60.206 60.176 60.274 60.311 60.196 60.049 59.926 59.859 59.854 59.854 59.801 59.736 59.889 59.826 59.639 59.57 59.532 59.468 59.391 59.281 59.158 59.05 58.922 58.767 58.638 58.483 58.356 58.198 58.046 57.891 57.724 57.571 57.366 57.206 57.004 56.859 56.671 56.499 56.336 56.189 56.074 55.941
102.852 102.806 102.735 102.567 102.58 102.426 102.354 102.213 102.16 101.984 101.937 101.766 101.669 101.653 101.591 101.213 100.633 100.526 100.522 100.415 100.348 100.173 100.083 100.034 99.844 99.733 99.552 99.46 99.33 99.177 99.039 98.867 98.803 98.646 98.527 98.379 98.316 98.222 98.135 97.929 97.833 97.627 97.439 97.315 97.125 97.054 96.938 96.819 96.671 96.472 96.267 96.093 95.877 95.756 95.559 95.293 95.12 94.767 94.495 94.23 93.974 93.731 93.499 93.255 93.01 92.672 92.269 91.854 91.506 91.089 90.789 90.466 90.179 89.926 89.681 89.449 89.211 88.946 88.644 88.339 88.049 87.734 87.431 87.096 86.819 86.511 86.254 86.001 85.749 85.481 85.299 85.091 84.919 85.069 87.026 84.274 83.264 82.989 82.671 82.271 81.671 81.099 80.619 80.344 80.086 80.064 80.756 81.676 80.836 80.211 78.819 78.316 78.186 77.939 77.771 78.116 78.176 77.286 77.129 77.031 76.506 75.819 75.364 75.116 75.106 75.071 74.934 74.779 74.714 74.616 74.984 78.439 79.381 78.699 74.419 74.114 74.436 74.064 73.859 73.776 73.851 76.761 79.589 78.569 74.274 74.231 74.236 74.209 74.076 73.999 73.936 73.921 73.864 73.801 73.734 73.836 73.984 73.701 73.676 74.164 74.389 74.769 74.424 74.256 73.981 73.776 73.166 72.344 71.711 71.346 71.249 71.194 71.114 71.066 71.039 71.094 71.066 71.299 71.561 71.906 72.169 72.846 73.316 73.756 74.516 73.999 73.964 74.099 74.096 74.186 74.126 74.116 74.084 74.251 74.241 74.356 74.231 74.179 74.129 74.114 74.154 74.209 74.244 74.204 74.246 74.359 75.851 77.009 77.309 74.736 74.811 74.904 74.904 74.939 75.006 75.136 75.231 75.326 75.454 75.606 75.736 75.841 75.951 76.076 76.179 76.291 76.434 76.589 76.696 76.836 77.001 77.169 77.306 77.474 77.636 77.804 77.961 78.151 78.306 78.461 78.634 78.789 78.936 79.036 79.166 79.266 79.324 79.391 79.406 79.436 79.406 79.404 79.359 79.329 79.231 79.131 78.996 78.869 78.731 78.586 78.444 78.284 78.084 77.901 77.679 77.466 77.226 76.984 76.786 76.569 76.299 76.086 75.864 75.644 75.451 75.314 75.224 75.291 75.216 72.976 70.976 71.704 72.784 72.296 70.751 70.311 69.936 69.626 69.336 68.949 68.459 67.981 67.459 66.919 66.429 65.934 65.476 65.019 64.574 64.136 63.724 63.284 62.911 62.559 62.184 61.806 61.406 61.121 60.986 60.704 60.116 58.594 58.279 57.461 55.921 55.256 55.609 56.264 55.556 54.791 54.606 54.714 55.221 55.689 55.371 55.219 55.196 55.189 55.186 55.176 55.144 55.116 55.114 55.076 55.026 54.996 55.036 54.924 54.524 54.174 53.901 53.724 53.766 55.439 53.974 54.246 54.681 54.841 55.071 55.269 55.584 55.879 56.154 56.561 56.816 57.131 57.439 57.751 58.041 58.276 58.511 58.659 58.814 58.959 59.124 59.246 59.554 59.694 59.989 60.631 59.921 59.961 60.739 60.989 60.974 60.804 60.531 60.114 60.061 60.026 60.106 60.214 60.011 59.889 59.784 59.691 59.626 59.586 59.584 59.561 59.519 59.621 59.549 59.309 59.234 59.194 59.143 59.064 58.959 58.859 58.732 58.603 58.485 58.348 58.176 58.029 57.867 57.716 57.541 57.404 57.229 57.036 56.866 56.701 56.529 56.364 56.204 56.084 55.929 55.794 55.669
103.202 103.102 103.029 103.001 102.993 102.876 102.81 102.621 102.471 102.407 102.319 102.184 102.096 102.028 102.031 101.771 101.197 100.927 100.955 100.901 100.756 100.656 100.562 100.41 100.254 100.186 100.051 99.888 99.77 99.63 99.445 99.367 99.159 99.068 98.871 98.811 98.803 98.643 98.509 98.348 98.243 98.047 97.897 97.832 97.607 97.472 97.358 97.203 97.08 96.948 96.756 96.6 96.265 96.165 95.895 95.697 95.481 95.183 94.98 94.739 94.465 94.2 93.95 93.738 93.515 93.197 92.833 92.396 92.036 91.651 91.324 90.994 90.691 90.429 90.189 89.946 89.699 89.436 89.136 88.854 88.536 88.206 87.904 87.566 87.254 86.964 86.689 86.409 86.129 85.871 85.661 85.434 85.284 87.259 89.274 88.896 83.641 83.536 83.264 82.616 82.131 81.566 81.126 80.769 80.579 80.496 80.706 81.286 80.826 80.019 79.049 78.854 78.396 78.096 78.024 78.609 77.794 77.471 77.404 77.256 77.149 77.064 76.691 76.084 75.176 75.134 75.056 74.951 74.874 74.726 75.091 78.259 79.536 78.686 74.046 73.981 74.796 74.059 74.039 74.026 74.026 77.461 79.324 77.994 74.681 74.759 74.679 74.639 74.484 74.694 74.584 74.921 75.071 75.714 75.929 75.701 75.414 75.044 74.716 74.409 74.166 73.671 73.289 73.011 72.241 71.771 71.574 71.509 71.454 71.374 71.316 71.804 72.191 73.086 72.869 73.536 73.614 73.739 73.749 74.206 75.126 74.119 74.134 74.221 74.201 74.184 74.294 74.376 74.474 74.451 74.436 74.451 74.371 74.381 74.376 74.374 74.331 74.439 74.379 74.456 74.394 74.436 74.509 74.581 74.651 74.834 75.341 78.056 77.494 75.171 75.356 75.476 75.414 75.374 75.426 75.496 75.604 75.721 75.836 75.974 76.096 76.199 76.336 76.476 76.629 76.764 76.896 77.056 77.199 77.379 77.541 77.684 77.876 78.021 78.226 78.586 78.721 78.804 78.879 79.056 79.206 79.339 79.454 79.564 79.676 79.794 79.826 79.876 79.934 79.924 79.929 79.909 79.864 79.799 79.729 79.599 79.489 79.396 79.261 79.099 78.914 78.764 78.589 78.379 78.164 77.926 77.704 77.446 77.219 76.974 76.754 76.544 76.304 76.056 75.839 75.691 75.559 75.464 75.569 75.384 72.316 71.369 73.106 73.551 71.719 70.656 70.349 70.044 69.721 69.276 68.791 68.276 67.726 67.246 66.764 66.269 65.816 65.356 64.904 64.499 64.091 63.671 63.261 62.856 62.466 62.116 61.764 61.309 60.899 60.686 60.346 59.504 58.869 58.521 57.661 56.001 55.129 55.014 55.891 55.709 54.784 54.489 54.419 54.906 55.386 55.286 55.164 55.129 55.119 55.161 55.144 55.094 55.064 55.049 55.024 54.999 54.964 54.949 54.934 54.389 53.661 53.016 53.079 55.626 55.249 57.644 54.274 54.416 54.571 54.864 55.154 55.269 55.634 55.936 56.249 56.561 56.846 57.139 57.419 57.709 57.941 58.139 58.321 58.476 58.836 59.136 61.076 61.574 61.449 62.076 61.121 59.399 60.074 60.724 61.094 60.779 60.039 59.864 59.824 59.994 60.054 59.801 59.626 59.534 59.479 59.496 59.459 59.431 59.379 59.311 59.301 59.406 59.181 59.054 58.978 58.923 58.834 58.755 58.669 58.569 58.443 58.319 58.178 58.019 57.862 57.697 57.574 57.404 57.246 57.096 56.934 56.769 56.571 56.424 56.266 56.101 55.956 55.804 55.669 55.514 55.411
103.481 103.38 103.34 103.25 103.214 103.146 103.073 103.02 102.924 102.768 102.705 102.565 102.507 102.38 102.363 102.178 101.621 101.408 101.344 101.339 101.195 101.138 101.086 100.878 100.839 100.594 100.508 100.329 100.189 100.102 99.935 99.804 99.6 99.474 99.334 99.217 99.192 99.056 98.932 98.826 98.616 98.473 98.348 98.27 98.142 97.941 97.86 97.638 97.512 97.361 97.108 96.966 96.788 96.651 96.446 96.172 95.951 95.67 95.393 95.131 94.876 94.638 94.405 94.217 93.998 93.705 93.364 92.959 92.596 92.234 91.884 91.529 91.231 90.964 90.701 90.456 90.199 89.926 89.634 89.324 89.024 88.684 88.371 88.066 87.744 87.429 87.141 86.839 86.541 86.269 86.031 85.836 85.629 88.009 90.621 88.996 84.086 84.589 84.016 83.191 82.576 82.056 81.671 81.379 81.114 81.026 80.869 80.639 80.496 79.584 79.404 79.424 78.849 78.276 78.169 78.789 77.801 77.899 77.764 77.424 77.401 77.264 77.001 76.791 75.361 75.154 75.099 75.091 75.066 75.001 75.696 77.316 77.389 77.534 75.846 75.151 75.676 75.199 74.511 74.736 74.876 78.311 79.726 77.984 76.656 76.761 76.471 76.199 76.321 75.804 75.649 75.381 75.371 75.274 74.869 74.586 74.194 73.531 72.969 72.704 72.316 72.231 72.184 72.174 72.036 71.956 72.226 72.444 74.079 74.256 73.804 74.836 75.196 74.459 74.389 74.411 74.484 74.521 74.694 74.826 75.106 74.511 74.461 74.601 74.621 74.571 74.599 74.654 74.684 74.654 74.674 74.716 74.669 74.646 74.741 74.776 74.834 74.854 74.854 74.981 74.949 74.964 75.021 75.076 75.174 75.421 75.731 76.136 76.154 75.709 75.544 75.596 75.634 75.671 75.771 75.856 75.974 76.094 76.224 76.361 76.479 76.609 76.794 76.949 77.081 77.251 77.414 77.586 77.786 77.941 78.116 78.276 78.421 78.614 78.856 79.064 79.394 79.436 79.521 79.686 79.759 79.891 79.989 80.084 80.194 80.294 80.449 80.409 80.429 80.454 80.421 80.416 80.379 80.316 80.241 80.116 80.024 79.899 79.741 79.614 79.434 79.226 79.059 78.874 78.631 78.396 78.166 77.939 77.684 77.441 77.214 76.951 76.716 76.494 76.244 76.064 75.911 75.814 75.804 75.531 73.176 71.414 72.396 73.589 72.481 71.184 70.749 70.439 70.081 69.599 69.091 68.539 68.021 67.544 67.089 66.631 66.176 65.704 65.284 64.874 64.436 64.016 63.614 63.204 62.794 62.429 62.066 61.641 61.279 60.619 60.201 59.991 59.514 59.086 58.606 57.301 56.221 55.161 54.706 55.229 55.759 55.039 54.344 54.196 54.424 55.024 55.309 55.126 55.106 55.154 55.406 55.169 55.059 55.034 55.011 54.976 54.926 54.911 54.894 54.954 55.071 53.881 54.879 53.434 52.361 52.839 55.986 53.971 54.284 54.431 54.646 55.024 55.046 55.359 55.644 55.974 56.239 56.536 56.844 57.071 57.286 57.519 57.696 57.909 58.754 59.289 62.491 63.669 61.194 60.881 59.346 59.234 59.589 60.354 60.571 60.254 59.601 59.811 60.186 59.859 59.481 59.359 59.299 59.291 59.261 59.281 59.269 59.214 59.139 59.114 59.101 59.236 58.901 58.778 58.696 58.674 58.592 58.49 58.39 58.293 58.168 58.038 57.903 57.755 57.598 57.439 57.284 57.13 56.951 56.789 56.639 56.446 56.286 56.109 55.951 55.791 55.624 55.511 55.349 55.251 55.119
103.731 103.69 103.65 103.549 103.464 103.44 103.364 103.351 103.284 103.141 103.042 102.943 102.858 102.763 102.802 102.517 101.96 101.849 101.746 101.702 101.628 101.48 101.423 101.356 101.267 101.123 100.961 100.799 100.594 100.495 100.415 100.193 100.09 99.952 99.822 99.67 99.592 99.49 99.347 99.22 99.009 98.869 98.713 98.631 98.477 98.273 98.219 98.078 97.918 97.748 97.528 97.385 97.11 96.966 96.78 96.569 96.336 96.091 95.862 95.606 95.344 95.096 94.835 94.644 94.442 94.187 93.866 93.494 93.099 92.751 92.394 92.069 91.764 91.486 91.236 90.971 90.704 90.426 90.144 89.846 89.541 89.189 88.879 88.574 88.234 87.921 87.611 87.309 86.991 86.686 86.454 86.271 86.026 85.851 86.476 85.691 84.276 84.744 84.314 83.366 83.066 82.471 82.026 81.739 81.481 81.244 81.131 80.756 80.214 79.724 79.639 79.544 79.014 78.496 78.446 78.921 77.884 77.816 77.796 77.449 77.321 77.121 76.816 76.651 75.459 75.246 75.181 75.166 75.159 75.206 75.226 75.219 75.276 75.256 75.226 75.169 75.146 75.069 74.954 75.321 74.899 76.571 76.811 76.499 75.284 75.254 74.981 74.404 73.966 73.874 73.446 73.309 73.146 73.034 72.931 72.834 72.771 72.639 72.624 72.529 72.564 73.749 73.616 75.259 74.161 74.456 74.994 75.369 76.424 75.974 75.761 75.519 75.286 75.769 75.551 75.219 75.156 74.964 75.214 75.469 76.889 75.116 75.049 75.141 74.949 74.889 74.944 74.939 74.981 75.036 75.101 75.101 75.156 75.189 75.164 75.246 75.226 75.331 75.306 75.451 75.436 75.539 75.606 75.701 75.724 75.926 76.319 77.004 77.471 75.966 75.576 75.636 75.774 76.026 76.136 76.294 76.381 76.484 76.616 77.481 76.916 77.079 77.211 77.361 77.526 77.704 77.914 78.129 78.329 78.554 78.799 78.894 79.019 79.266 79.394 79.724 79.886 79.949 80.111 80.266 80.374 80.524 80.594 80.654 80.731 80.851 80.994 81.124 81.049 80.956 80.936 80.971 80.936 80.894 80.841 80.731 80.561 80.414 80.311 80.196 80.019 79.749 79.576 79.376 79.141 78.924 78.681 78.414 78.164 77.904 77.679 77.436 77.171 76.939 76.694 76.441 76.271 76.126 76.094 76.171 74.991 72.471 72.076 73.949 73.864 71.909 71.176 70.846 70.404 69.934 69.359 68.879 68.359 67.881 67.449 66.976 66.496 66.074 65.631 65.206 64.784 64.386 63.971 63.554 63.149 62.766 62.461 62.364 62.851 64.514 62.354 59.919 59.689 59.484 59.126 58.804 57.986 56.651 55.309 54.474 54.594 55.441 55.156 54.334 54.051 54.071 54.541 55.139 55.179 55.364 55.651 55.654 55.211 55.021 54.989 54.951 54.904 54.869 54.881 54.926 55.009 54.981 56.026 55.721 53.591 54.214 54.379 53.791 53.719 54.151 54.414 54.506 54.611 54.794 55.099 55.384 55.669 55.929 56.184 56.461 56.711 56.926 57.084 57.259 58.161 58.631 58.636 60.224 58.426 58.666 58.714 58.796 58.946 59.189 59.366 59.269 59.166 59.381 62.774 59.501 59.031 58.989 59.014 59.026 59.014 59.021 59.024 58.996 58.916 58.906 58.889 58.839 58.594 58.503 58.464 58.38 58.302 58.184 58.081 57.987 57.871 57.739 57.599 57.443 57.287 57.115 56.971 56.792 56.596 56.429 56.264 56.126 55.929 55.791 55.599 55.451 55.294 55.139 55.021 54.924 54.799
104.072 104.05 103.98 103.909 103.825 103.701 103.688 103.642 103.563 103.507 103.486 103.378 103.267 103.21 103.217 102.941 102.474 102.264 102.271 102.211 102.05 102.028 101.85 101.761 101.72 101.545 101.374 101.263 101.079 100.992 100.88 100.666 100.498 100.387 100.272 100.167 100.019 99.944 99.818 99.679 99.485 99.29 99.124 99.036 98.889 98.719 98.568 98.464 98.255 98.043 97.875 97.691 97.524 97.428 97.236 97.036 96.761 96.502 96.24 96.027 95.763 95.515 95.274 95.09 94.889 94.669 94.361 94.009 93.634 93.309 92.929 92.584 92.294 92.026 91.766 91.509 91.224 90.946 90.661 90.369 90.049 89.729 89.399 89.069 88.734 88.426 88.081 87.784 87.461 87.146 86.879 86.649 86.441 86.209 86.689 86.514 84.684 85.004 84.921 83.781 83.504 82.966 82.429 82.099 81.831 81.569 81.364 81.046 80.451 79.984 79.741 79.561 79.244 78.761 78.654 79.084 78.106 77.859 77.586 77.439 77.084 76.761 76.514 76.111 75.749 75.454 77.304 78.499 77.849 77.479 76.344 76.071 75.991 75.554 75.324 75.281 75.191 75.096 74.991 74.906 74.766 74.666 74.514 74.404 74.281 74.086 74.114 73.976 73.816 73.636 73.451 73.501 73.236 73.259 73.274 73.431 73.841 73.771 74.251 74.584 75.484 75.651 76.691 76.481 75.801 76.046 76.129 76.191 76.431 76.714 76.524 75.996 75.734 76.616 76.606 75.256 75.974 75.394 75.576 75.754 76.079 76.371 75.434 75.324 75.309 75.381 75.396 75.399 75.414 75.519 75.614 75.619 75.654 75.726 75.771 75.831 75.849 75.864 75.906 76.034 76.081 76.166 76.176 76.299 76.364 76.409 77.099 78.519 78.641 76.326 75.916 76.106 76.259 76.474 76.616 76.676 76.701 76.831 77.031 78.289 77.274 77.424 77.579 77.739 77.934 78.164 78.456 78.754 78.899 79.176 79.201 79.576 79.784 79.761 80.184 80.521 80.364 80.611 80.629 80.721 81.381 80.876 80.956 81.124 81.304 81.459 81.426 81.529 81.526 81.444 81.439 81.589 81.544 81.344 81.366 81.294 81.201 80.999 80.849 80.749 80.681 80.364 80.104 79.866 79.649 79.421 79.211 78.936 78.661 78.376 78.154 77.871 77.634 77.364 77.114 76.869 76.661 76.481 76.386 76.329 75.866 74.281 72.086 73.504 73.669 72.386 71.729 71.201 70.819 70.221 69.726 69.214 68.726 68.279 67.824 67.336 66.864 66.454 65.996 65.574 65.161 64.731 64.314 63.904 63.534 63.144 63.479 63.941 64.776 63.921 61.526 60.156 59.744 59.494 59.356 59.236 58.866 58.024 56.979 55.561 54.451 54.116 54.816 55.194 54.446 53.844 53.761 54.016 54.724 55.144 55.566 55.599 55.169 55.116 55.054 54.999 54.939 54.904 54.859 54.884 54.899 54.896 54.591 55.834 54.301 53.614 52.439 53.064 52.836 53.584 53.484 53.591 54.069 54.419 54.549 54.816 55.066 55.326 55.574 55.826 56.071 56.311 56.506 56.721 57.106 57.546 57.584 57.581 57.746 57.929 58.036 58.186 58.309 58.534 58.694 58.991 58.914 58.786 59.451 58.814 58.666 58.659 58.674 58.686 58.746 58.736 58.709 58.666 58.621 58.586 58.584 58.569 58.194 58.166 58.13 58.064 57.971 57.823 57.713 57.624 57.497 57.378 57.238 57.088 56.922 56.748 56.585 56.434 56.256 56.076 55.891 55.761 55.556 55.404 55.271 55.109 54.931 54.829 54.664 54.529 54.481
104.404 104.358 104.249 104.202 104.131 104.068 104.143 103.981 103.889 103.89 103.821 103.703 103.66 103.577 103.585 103.377 102.899 102.73 102.672 102.609 102.535 102.426 102.383 102.249 102.172 102.009 101.833 101.661 101.562 101.401 101.205 101.115 100.965 100.832 100.66 100.541 100.388 100.333 100.223 100.101 99.983 99.822 99.688 99.514 99.216 99.047 98.873 98.816 98.643 98.482 98.331 98.106 98.008 97.744 97.577 97.428 97.141 96.944 96.684 96.477 96.194 95.979 95.732 95.525 95.308 95.101 94.834 94.554 94.161 93.824 93.466 93.121 92.814 92.564 92.304 92.014 91.756 91.479 91.216 90.901 90.591 90.279 89.919 89.584 89.251 88.921 88.594 88.266 87.944 87.599 87.334 87.089 86.861 86.606 86.681 87.254 85.629 85.046 84.761 84.254 83.774 83.206 82.804 82.411 82.081 81.836 81.661 81.379 80.666 80.274 79.941 79.744 79.586 79.086 78.984 80.719 78.256 77.914 77.719 77.451 77.064 76.851 77.849 77.134 75.954 75.644 79.691 81.919 81.704 81.519 81.311 81.019 80.546 80.319 79.089 78.429 77.574 76.581 75.979 75.284 74.884 74.731 74.746 74.771 74.879 75.654 75.599 75.516 76.159 76.364 75.836 76.244 76.191 75.729 75.831 76.371 77.304 76.626 76.214 76.149 76.211 76.274 76.401 76.459 76.249 76.364 76.651 76.569 76.796 76.869 76.689 76.284 75.951 76.051 76.951 75.854 75.924 75.931 76.421 75.934 76.594 76.126 76.004 75.839 75.784 75.859 75.939 75.981 76.049 76.104 76.149 76.159 76.241 76.374 76.331 76.416 76.519 76.441 76.486 76.626 76.651 76.836 76.876 76.891 76.996 77.031 77.404 81.176 81.884 76.764 76.689 76.806 78.676 76.936 76.994 77.596 77.341 77.671 79.096 78.331 78.099 78.271 79.044 80.446 80.731 79.691 80.549 80.196 80.374 80.789 81.294 81.619 81.859 82.336 82.311 83.791 82.671 83.341 84.474 82.656 82.981 82.564 82.111 83.131 82.064 82.764 81.924 82.019 81.921 81.941 81.879 81.894 82.036 81.961 81.761 81.654 81.599 81.624 81.294 81.274 81.076 80.879 80.711 80.351 80.169 79.941 79.706 79.436 79.154 78.901 78.606 78.334 78.079 77.801 77.539 77.301 77.059 76.854 76.811 76.731 76.464 75.076 72.656 72.624 73.939 73.286 72.249 71.584 71.119 70.606 70.189 69.546 69.089 68.641 68.151 67.691 67.259 66.826 66.356 65.961 65.519 65.089 64.676 64.276 63.901 64.976 63.959 64.214 62.164 61.379 61.036 60.609 60.146 59.791 59.421 59.284 59.261 58.964 58.234 57.124 55.834 54.359 53.871 54.139 54.914 54.426 53.694 53.536 53.631 54.181 54.899 55.036 55.021 55.129 55.179 55.024 54.939 54.924 54.866 54.876 54.886 54.819 54.734 54.714 54.831 52.776 53.274 51.669 53.366 52.366 52.541 52.906 53.569 53.956 54.216 54.334 54.486 54.744 54.999 55.189 55.436 55.634 55.836 56.026 56.484 56.764 56.889 57.069 57.159 57.321 57.484 57.631 57.751 57.926 58.159 58.339 58.424 58.406 58.399 58.304 58.319 58.351 58.326 58.366 58.401 58.356 58.349 58.296 58.231 58.156 58.134 58.026 57.839 57.816 57.772 57.687 57.582 57.445 57.329 57.205 57.101 56.969 56.818 56.678 56.542 56.371 56.191 56.024 55.846 55.679 55.506 55.339 55.161 55.031 54.861 54.701 54.579 54.434 54.299 54.189 54.111
104.629 104.546 104.598 104.504 104.393 104.381 104.394 104.33 104.22 104.219 104.132 104.017 103.957 103.969 103.889 103.71 103.317 103.189 103.098 102.995 102.861 102.853 102.743 102.629 102.53 102.38 102.277 102.118 102.026 101.804 101.63 101.521 101.422 101.234 101.059 100.93 100.844 100.737 100.585 100.508 100.256 100.093 99.897 99.777 99.663 99.505 99.328 99.17 98.978 98.822 98.636 98.455 98.279 98.127 97.963 97.785 97.523 97.323 97.074 96.849 96.614 96.375 96.182 95.976 95.788 95.551 95.299 95.021 94.646 94.336 93.984 93.646 93.356 93.086 92.824 92.566 92.276 92.041 91.739 91.441 91.154 90.809 90.469 90.099 89.774 89.444 89.109 88.749 88.429 88.101 87.816 87.544 87.319 87.041 87.144 87.926 86.159 85.434 84.721 84.386 83.921 83.531 83.166 82.739 82.431 82.164 81.954 81.609 81.004 80.531 80.179 79.899 79.696 79.209 79.219 79.311 78.484 78.046 77.884 77.576 77.376 77.479 77.514 77.236 76.046 75.816 80.256 82.089 82.256 82.344 82.391 82.409 82.251 82.191 82.031 81.846 81.671 81.534 80.984 80.849 79.811 76.399 76.376 76.259 77.009 77.079 77.021 77.031 82.029 81.344 78.591 77.084 76.981 76.876 76.909 77.056 77.311 77.026 76.924 76.924 76.846 77.279 76.806 76.686 76.689 76.839 77.011 77.199 77.009 77.034 76.961 76.581 76.499 76.876 77.049 76.576 76.746 76.766 76.679 77.431 78.859 77.816 76.591 76.511 76.491 76.461 76.536 76.641 76.666 76.706 76.724 76.789 76.856 76.991 76.954 77.024 77.094 77.114 77.209 77.336 77.371 77.426 77.494 77.531 77.594 77.754 77.899 80.111 80.176 78.466 78.556 80.516 79.566 79.954 80.444 80.309 80.251 79.444 80.111 80.011 80.251 80.521 82.044 80.981 81.124 81.724 81.626 82.014 82.496 82.409 82.651 82.759 83.146 83.404 84.284 84.376 83.826 85.559 84.159 84.816 85.344 84.069 84.466 84.001 83.724 84.986 84.969 83.669 83.316 83.686 83.904 82.489 83.109 82.469 82.364 81.996 82.204 81.819 81.829 81.721 81.561 81.286 81.109 80.946 80.836 80.571 80.221 79.966 79.671 79.379 79.076 78.796 78.516 78.246 77.989 77.714 77.449 77.229 77.059 77.044 76.929 76.021 73.684 72.454 73.926 73.676 72.674 72.059 71.379 70.954 70.474 69.929 69.474 69.006 68.506 68.089 67.621 67.161 66.729 66.309 65.886 65.436 65.041 64.636 64.516 65.746 65.474 64.119 62.261 61.771 61.366 60.981 60.624 60.161 59.806 59.359 59.246 59.169 58.929 58.296 57.116 56.034 54.591 53.709 53.654 54.364 54.596 53.746 53.399 53.384 53.731 54.489 55.141 54.896 55.131 55.079 54.934 54.899 54.871 54.824 54.799 54.764 54.829 54.869 56.351 54.846 52.784 52.806 54.711 52.521 51.854 52.364 52.809 53.366 53.651 53.974 54.199 54.191 54.429 54.626 54.799 55.011 55.241 55.516 56.699 56.049 56.106 56.336 56.584 56.821 57.029 57.151 57.316 57.449 57.619 57.739 57.831 57.946 58.021 58.001 58.004 57.996 58.001 57.939 57.984 57.971 57.944 57.899 57.859 57.824 57.856 57.701 57.511 57.414 57.369 57.296 57.172 57.018 56.911 56.782 56.661 56.526 56.389 56.247 56.11 55.937 55.751 55.599 55.446 55.289 55.111 54.941 54.784 54.639 54.481 54.334 54.191 54.064 53.951 53.824 53.756
