ncols 469
nrows 29
xllcorner    248058
yllcorner    140040
cellsize     2
NODATA_value -9999
-9999 -9999 -9999 -9999 -9999 -9999 -9999 -9999 -9999 -9999 -9999 -9999 -9999 -9999 -9999 -9999 -9999 -9999 -9999 -9999 -9999 -9999 -9999 -9999 -9999 -9999 -9999 -9999 -9999 -9999 -9999 -9999 -9999 -9999 -9999 -9999 -9999 -9999 -9999 -9999 -9999 -9999 -9999 -9999 -9999 -9999 -9999 -9999 -9999 -9999 -9999 -9999 -9999 -9999 -9999 -9999 -9999 -9999 -9999 -9999 -9999 -9999 -9999 -9999 -9999 -9999 -9999 -9999 -9999 -9999 -9999 -9999 -9999 -9999 -9999 -9999 -9999 -9999 -9999 -9999 -9999 -9999 -9999 -9999 -9999 -9999 -9999 -9999 -9999 -9999 -9999 -9999 -9999 -9999 -9999 -9999 -9999 -9999 -9999 -9999 -9999 -9999 -9999 -9999 -9999 -9999 -9999 -9999 -9999 -9999 -9999 -9999 -9999 -9999 -9999 -9999 -9999 -9999 -9999 -9999 -9999 -9999 -9999 -9999 -9999 -9999 -9999 -9999 -9999 -9999 -9999 -9999 -9999 -9999 -9999 -9999 -9999 -9999 -9999 -9999 -9999 -9999 -9999 -9999 -9999 -9999 -9999 -9999 -9999 -9999 -9999 -9999 -9999 -9999 -9999 -9999 -9999 -9999 -9999 -9999 -9999 -9999 -9999 -9999 -9999 -9999 -9999 -9999 -9999 -9999 -9999 -9999 -9999 -9999 -9999 -9999 -9999 -9999 -9999 -9999 -9999 -9999 -9999 -9999 84.804 84.869 84.842 84.807 84.799 84.772 84.747 84.687 84.637 84.602 84.574 84.507 84.442 84.369 84.279 84.244 84.194 84.839 85.044 84.249 83.734 83.739 83.697 83.649 83.584 83.544 83.464 83.342 83.239 83.087 83.024 83.869 83.572 82.999 82.994 83.017 83.034 83.034 83.082 83.127 83.194 83.314 83.519 83.699 83.764 83.839 83.929 84.072 84.214 84.314 84.477 84.642 84.789 84.974 85.399 85.719 85.794 85.989 86.154 86.374 86.604 86.809 86.984 87.164 87.409 87.772 88.002 88.049 88.144 88.339 88.504 88.707 88.899 89.027 89.189 89.387 89.584 89.779 89.984 90.169 90.382 91.699 92.234 91.389 91.919 91.749 91.664 91.879 92.087 92.277 92.412 92.547 92.744 92.962 93.167 93.392 93.574 93.787 94.014 94.207 94.429 94.639 94.844 95.054 95.267 95.502 95.724 95.957 96.177 96.389 96.599 96.829 97.042 97.257 97.507 97.739 97.962 98.202 98.429 98.679 98.907 99.172 99.427 99.672 99.929 100.202 100.444 100.732 100.999 101.272 101.557 101.844 102.127 102.429 102.724 103.039 103.369 103.699 104.019 104.387 104.689 105.007 105.334 105.627 105.917 106.202 106.507 106.879 107.237 108.017 109.159 108.087 107.182 107.314 109.317 110.287 110.359 110.102 110.294 110.537 110.782 110.989 111.282 111.484 111.682 111.969 112.197 112.462 112.669 112.924 113.157 113.347 113.587 113.822 114.044 114.229 114.454 114.669 114.879 115.072 115.262 115.497 115.689 115.902 116.092 116.264 116.427 116.599 116.814 116.952 117.129 117.347 117.502 117.689 117.879 118.077 118.282 118.417 118.612 118.824 119.019 119.197 119.389 119.544 119.734 119.917 120.107 120.309 120.444 120.627 120.827 121.034 121.189 121.387 121.529 121.684 121.842 122.037 122.239 122.407 122.549 122.719 123.854 123.912 123.132 123.262 124.094 124.447 124.187 124.359 124.492 124.649 124.754 124.874 124.982 125.124 125.237 125.337 125.484 125.577 125.692 125.792 125.899 126.077 126.177 126.324 126.464 126.589 126.772 126.912 127.047 127.172 127.292 127.412 127.527 127.632 127.722 127.814 127.934 128.014 128.119 128.197 128.269 128.314 128.359 128.382 128.462 128.477 128.524 128.539 128.582 128.617 128.659 128.699 128.707 128.759 128.777 128.807 128.807 128.824 128.812 128.837 128.819 128.827 128.817
-9999 -9999 -9999 -9999 -9999 -9999 -9999 -9999 -9999 -9999 -9999 -9999 -9999 -9999 -9999 -9999 -9999 -9999 -9999 -9999 -9999 -9999 -9999 -9999 -9999 -9999 -9999 -9999 -9999 -9999 -9999 -9999 -9999 -9999 -9999 -9999 -9999 -9999 -9999 -9999 -9999 -9999 -9999 -9999 -9999 -9999 -9999 -9999 -9999 -9999 -9999 -9999 -9999 -9999 -9999 -9999 -9999 -9999 -9999 -9999 -9999 -9999 -9999 -9999 -9999 -9999 -9999 -9999 -9999 -9999 -9999 -9999 -9999 -9999 -9999 -9999 -9999 -9999 -9999 -9999 -9999 -9999 -9999 -9999 -9999 -9999 -9999 -9999 -9999 -9999 -9999 -9999 -9999 -9999 -9999 -9999 -9999 -9999 -9999 -9999 -9999 -9999 -9999 -9999 -9999 -9999 -9999 -9999 -9999 -9999 -9999 -9999 -9999 -9999 -9999 -9999 -9999 -9999 -9999 -9999 -9999 -9999 -9999 -9999 -9999 -9999 -9999 -9999 -9999 -9999 -9999 -9999 -9999 -9999 -9999 -9999 -9999 -9999 -9999 -9999 -9999 -9999 -9999 -9999 -9999 -9999 -9999 -9999 -9999 -9999 -9999 -9999 -9999 -9999 -9999 -9999 -9999 -9999 -9999 -9999 -9999 -9999 -9999 -9999 -9999 -9999 -9999 -9999 -9999 -9999 -9999 -9999 -9999 -9999 -9999 -9999 -9999 -9999 -9999 -9999 -9999 -9999 -9999 -9999 84.638 84.667 84.654 84.642 84.627 84.599 84.564 84.517 84.484 84.429 84.384 84.347 84.259 84.202 84.122 84.027 84.007 84.297 84.859 84.209 83.557 83.492 83.467 83.414 83.372 83.319 83.232 83.144 83.024 82.904 82.814 83.684 83.314 82.832 82.842 82.857 82.884 82.882 82.937 83.012 83.062 83.227 83.437 83.589 83.642 83.684 83.837 84.017 84.159 84.279 84.429 84.589 84.744 85.014 85.449 85.689 85.792 85.994 86.157 86.387 86.592 86.774 86.982 87.172 87.462 87.807 87.969 88.014 88.159 88.327 88.492 88.692 88.862 89.034 89.214 89.374 89.574 89.769 89.994 90.162 90.729 92.242 92.192 91.524 91.637 91.474 91.694 91.904 92.072 92.244 92.382 92.524 92.762 92.982 93.164 93.387 93.622 93.802 94.014 94.244 94.449 94.654 94.867 95.104 95.289 95.542 95.769 95.994 96.219 96.452 96.674 96.894 97.122 97.332 97.574 97.804 98.052 98.277 98.524 98.767 99.012 99.252 99.497 99.779 100.029 100.282 100.537 100.807 101.069 101.354 101.634 101.887 102.172 102.464 102.767 103.079 103.417 103.737 104.072 104.389 104.722 105.049 105.374 105.697 105.972 106.259 106.572 106.907 107.252 107.599 108.892 109.322 107.867 107.537 107.784 109.169 110.744 110.699 110.707 110.984 111.019 111.139 111.404 111.512 111.729 111.947 112.197 112.419 112.632 112.854 113.104 113.339 113.557 113.797 114.037 114.252 114.447 114.692 114.907 115.129 115.284 115.472 115.697 115.879 116.012 116.232 116.417 116.604 116.807 117.007 117.164 117.354 117.524 117.684 117.867 118.099 118.269 118.437 118.637 118.779 118.977 119.144 119.342 119.497 119.697 119.892 120.042 120.257 120.427 120.607 120.779 120.947 121.127 121.322 121.472 121.657 121.774 121.994 122.172 122.329 122.514 122.622 124.097 123.734 123.069 123.202 124.347 124.349 124.064 124.259 124.399 124.547 124.659 124.769 124.879 125.014 125.129 125.259 125.384 125.477 125.589 125.724 125.822 125.969 126.087 126.239 126.372 126.522 126.679 126.814 126.972 127.084 127.214 127.314 127.419 127.524 127.652 127.752 127.822 127.934 128.022 128.094 128.164 128.212 128.267 128.319 128.349 128.402 128.429 128.454 128.502 128.532 128.562 128.597 128.634 128.662 128.694 128.689 128.707 128.734 128.717 128.732 128.722 128.724 128.717
-9999 -9999 -9999 -9999 -9999 -9999 -9999 -9999 -9999 -9999 -9999 -9999 -9999 -9999 -9999 -9999 -9999 -9999 -9999 -9999 -9999 -9999 -9999 -9999 -9999 -9999 -9999 -9999 -9999 -9999 -9999 -9999 -9999 -9999 -9999 -9999 -9999 -9999 -9999 -9999 -9999 -9999 -9999 -9999 -9999 -9999 -9999 -9999 -9999 -9999 -9999 -9999 -9999 -9999 -9999 -9999 -9999 -9999 -9999 -9999 -9999 -9999 -9999 -9999 -9999 -9999 -9999 -9999 -9999 -9999 -9999 -9999 -9999 -9999 -9999 -9999 -9999 -9999 -9999 -9999 -9999 -9999 -9999 -9999 -9999 -9999 -9999 -9999 -9999 -9999 -9999 -9999 -9999 -9999 -9999 -9999 -9999 -9999 -9999 -9999 -9999 -9999 -9999 -9999 -9999 -9999 -9999 -9999 -9999 -9999 -9999 -9999 -9999 -9999 -9999 -9999 -9999 -9999 -9999 -9999 -9999 -9999 -9999 -9999 -9999 -9999 -9999 -9999 -9999 -9999 -9999 -9999 -9999 -9999 -9999 -9999 -9999 -9999 -9999 -9999 -9999 -9999 -9999 -9999 -9999 -9999 -9999 -9999 -9999 -9999 -9999 -9999 -9999 -9999 -9999 -9999 -9999 -9999 -9999 -9999 -9999 -9999 -9999 -9999 -9999 -9999 -9999 -9999 -9999 -9999 -9999 -9999 -9999 -9999 -9999 -9999 -9999 -9999 -9999 -9999 -9999 -9999 -9999 84.364 84.442 84.462 84.479 84.452 84.444 84.429 84.409 84.347 84.287 84.249 84.232 84.164 84.104 84.022 83.934 83.857 83.802 84.019 84.912 84.497 83.354 83.274 83.232 83.192 83.137 83.097 83.032 82.922 82.829 82.719 82.632 83.429 83.217 82.652 82.664 82.699 82.732 82.739 82.817 82.889 82.974 83.177 83.387 83.512 83.534 83.624 83.767 83.944 84.079 84.237 84.414 84.564 84.742 85.064 85.462 85.642 85.784 85.967 86.154 86.369 86.554 86.764 86.977 87.179 87.509 87.824 87.922 87.999 88.142 88.299 88.479 88.689 88.872 89.014 89.207 89.397 89.577 89.792 89.979 90.207 91.612 91.807 90.962 91.734 91.374 91.509 91.699 91.882 92.062 92.212 92.362 92.544 92.739 92.954 93.164 93.397 93.609 93.817 94.022 94.252 94.457 94.674 94.897 95.112 95.362 95.589 95.814 96.059 96.277 96.524 96.737 96.969 97.192 97.417 97.657 97.897 98.122 98.377 98.597 98.844 99.079 99.339 99.612 99.864 100.117 100.382 100.629 100.894 101.167 101.427 101.702 101.989 102.274 102.554 102.849 103.174 103.467 103.787 104.122 104.429 104.762 105.092 105.427 105.732 106.044 106.334 106.642 106.927 107.247 107.624 108.237 109.562 109.252 107.864 107.889 108.072 108.677 109.739 110.644 110.869 111.359 111.537 112.094 112.174 112.454 112.744 112.859 113.027 113.024 113.209 113.327 113.309 113.504 113.734 113.972 114.229 114.447 114.679 114.892 115.107 115.322 115.509 115.722 115.887 116.072 116.274 116.439 116.637 116.804 117.034 117.177 117.362 117.549 117.692 117.894 118.082 118.267 118.439 118.624 118.777 118.942 119.147 119.324 119.497 119.654 119.847 120.042 120.204 120.397 120.547 120.712 120.894 121.079 121.272 121.429 121.592 121.724 121.984 122.112 122.312 122.467 122.597 124.059 123.599 123.007 123.207 124.544 124.402 123.952 124.137 124.294 124.432 124.562 124.679 124.784 124.902 125.014 125.142 125.259 125.397 125.504 125.612 125.764 125.857 125.999 126.129 126.274 126.419 126.552 126.707 126.844 126.984 127.114 127.204 127.332 127.429 127.534 127.649 127.739 127.834 127.942 127.997 128.059 128.124 128.169 128.214 128.247 128.292 128.322 128.354 128.392 128.434 128.454 128.477 128.542 128.564 128.589 128.619 128.634 128.637 128.634 128.634 128.619 128.622 128.629
-9999 -9999 -9999 -9999 -9999 -9999 -9999 -9999 -9999 -9999 -9999 -9999 -9999 -9999 -9999 -9999 -9999 -9999 -9999 -9999 -9999 -9999 -9999 -9999 -9999 -9999 -9999 -9999 -9999 -9999 -9999 -9999 -9999 -9999 -9999 -9999 -9999 -9999 -9999 -9999 -9999 -9999 -9999 -9999 -9999 -9999 -9999 -9999 -9999 -9999 -9999 -9999 -9999 -9999 -9999 -9999 -9999 -9999 -9999 -9999 -9999 -9999 -9999 -9999 -9999 -9999 -9999 -9999 -9999 -9999 -9999 -9999 -9999 -9999 -9999 -9999 -9999 -9999 -9999 -9999 -9999 -9999 -9999 -9999 -9999 -9999 -9999 -9999 -9999 -9999 -9999 -9999 -9999 -9999 -9999 -9999 -9999 -9999 -9999 -9999 -9999 -9999 -9999 -9999 -9999 -9999 -9999 -9999 -9999 -9999 -9999 -9999 -9999 -9999 -9999 -9999 -9999 -9999 -9999 -9999 -9999 -9999 -9999 -9999 -9999 -9999 -9999 -9999 -9999 -9999 -9999 -9999 -9999 -9999 -9999 -9999 -9999 -9999 -9999 -9999 -9999 -9999 -9999 -9999 -9999 -9999 -9999 -9999 -9999 -9999 -9999 -9999 -9999 -9999 -9999 -9999 -9999 -9999 -9999 -9999 -9999 -9999 -9999 -9999 -9999 -9999 -9999 -9999 -9999 -9999 -9999 -9999 -9999 -9999 -9999 -9999 -9999 -9999 -9999 -9999 -9999 -9999 -9999 84.171 84.217 84.239 84.244 84.237 84.219 84.214 84.199 84.157 84.114 84.062 84.044 83.984 83.912 83.839 83.739 83.669 83.582 83.544 84.712 84.332 83.264 83.067 83.032 82.979 82.922 82.904 82.819 82.717 82.624 82.537 82.462 83.332 82.974 82.492 82.512 82.537 82.592 82.609 82.707 82.774 82.894 83.097 83.347 83.432 83.452 83.534 83.712 83.897 84.034 84.214 84.384 84.557 84.764 85.094 85.357 85.564 85.779 85.964 86.157 86.362 86.564 86.762 86.947 87.182 87.539 87.782 87.872 87.959 88.144 88.279 88.472 88.674 88.854 89.017 89.232 89.397 89.554 89.807 90.002 90.437 91.974 90.902 91.337 91.544 91.317 91.514 91.709 91.897 92.064 92.209 92.349 92.559 92.747 92.949 93.167 93.384 93.587 93.824 94.024 94.249 94.467 94.694 94.942 95.154 95.392 95.612 95.832 96.087 96.332 96.552 96.792 97.034 97.257 97.502 97.724 97.964 98.209 98.457 98.689 98.939 99.214 99.447 99.679 99.942 100.214 100.474 100.739 100.979 101.239 101.539 101.797 102.082 102.349 102.662 102.939 103.259 103.542 103.864 104.192 104.504 104.829 105.132 105.487 105.804 106.112 106.402 106.712 106.977 107.294 107.637 108.014 108.844 109.814 109.079 108.119 108.237 108.392 108.559 108.749 109.017 109.582 110.019 110.689 111.019 111.707 112.292 112.697 113.134 113.559 113.572 114.119 114.374 114.614 114.519 114.599 114.544 114.589 114.839 114.854 115.064 115.299 115.537 115.717 115.899 116.082 116.274 116.422 116.639 116.809 117.012 117.197 117.359 117.502 117.694 117.839 118.062 118.244 118.434 118.584 118.767 118.929 119.112 119.302 119.467 119.627 119.802 119.997 120.174 120.374 120.532 120.697 120.869 121.052 121.234 121.402 121.544 121.697 121.897 122.082 122.249 122.427 122.692 124.189 123.459 122.899 123.074 123.934 123.787 123.819 124.029 124.182 124.344 124.457 124.559 124.689 124.774 124.924 125.032 125.137 125.284 125.397 125.517 125.652 125.759 125.894 126.012 126.159 126.309 126.432 126.572 126.707 126.837 126.959 127.074 127.219 127.304 127.419 127.524 127.622 127.734 127.807 127.894 127.959 128.007 128.072 128.117 128.164 128.184 128.224 128.259 128.302 128.322 128.347 128.387 128.422 128.457 128.467 128.507 128.512 128.522 128.522 128.554 128.544 128.547 128.512
-9999 -9999 -9999 -9999 -9999 -9999 -9999 -9999 -9999 -9999 -9999 -9999 -9999 -9999 -9999 -9999 -9999 -9999 -9999 -9999 -9999 -9999 -9999 -9999 -9999 -9999 -9999 -9999 -9999 -9999 -9999 -9999 -9999 -9999 -9999 -9999 -9999 -9999 -9999 -9999 -9999 -9999 -9999 -9999 -9999 -9999 -9999 -9999 -9999 -9999 -9999 -9999 -9999 -9999 -9999 -9999 -9999 -9999 -9999 -9999 -9999 -9999 -9999 -9999 -9999 -9999 -9999 -9999 -9999 -9999 -9999 -9999 -9999 -9999 -9999 -9999 -9999 -9999 -9999 -9999 -9999 -9999 -9999 -9999 -9999 -9999 -9999 -9999 -9999 -9999 -9999 -9999 -9999 -9999 -9999 -9999 -9999 -9999 -9999 -9999 -9999 -9999 -9999 -9999 -9999 -9999 -9999 -9999 -9999 -9999 -9999 -9999 -9999 -9999 -9999 -9999 -9999 -9999 -9999 -9999 -9999 -9999 -9999 -9999 -9999 -9999 -9999 -9999 -9999 -9999 -9999 -9999 -9999 -9999 -9999 -9999 -9999 -9999 -9999 -9999 -9999 -9999 -9999 -9999 -9999 -9999 -9999 -9999 -9999 -9999 -9999 -9999 -9999 -9999 -9999 -9999 -9999 -9999 -9999 -9999 -9999 -9999 -9999 -9999 -9999 -9999 -9999 -9999 -9999 -9999 -9999 -9999 -9999 -9999 -9999 -9999 -9999 -9999 -9999 -9999 -9999 -9999 83.994 83.987 84.019 84.034 84.049 84.029 84.017 84.019 84.014 83.972 83.962 83.909 83.879 83.814 83.729 83.642 83.542 83.452 83.399 83.349 84.089 84.289 83.247 82.824 82.834 82.787 82.739 82.684 82.609 82.517 82.439 82.347 82.334 83.234 82.974 82.324 82.364 82.419 82.464 82.489 82.582 82.682 82.839 83.052 83.252 83.354 83.417 83.547 83.702 83.852 84.022 84.182 84.354 84.527 84.772 85.144 85.392 85.579 85.782 85.937 86.119 86.349 86.577 86.742 86.917 87.177 87.562 87.759 87.814 87.932 88.107 88.292 88.467 88.674 88.864 89.019 89.232 89.377 89.552 89.799 90.039 91.357 91.779 90.599 91.609 91.272 91.334 91.539 91.694 91.884 92.047 92.172 92.339 92.554 92.752 92.964 93.197 93.402 93.619 93.827 94.027 94.249 94.487 94.714 94.949 95.177 95.392 95.642 95.884 96.114 96.362 96.612 96.852 97.097 97.334 97.587 97.814 98.054 98.294 98.522 98.774 99.022 99.274 99.524 99.782 100.047 100.299 100.572 100.827 101.082 101.344 101.607 101.879 102.157 102.437 102.734 103.029 103.319 103.634 103.944 104.262 104.582 104.922 105.232 105.557 105.867 106.189 106.502 106.774 107.072 107.327 107.654 108.029 108.429 109.649 110.134 109.532 108.702 108.612 108.737 108.874 109.084 109.244 109.447 109.647 109.832 110.037 110.317 110.702 111.169 111.689 112.192 113.062 113.484 113.929 114.264 114.692 115.067 115.552 115.779 115.799 115.739 115.767 115.914 115.694 115.884 116.062 116.207 116.427 116.602 116.807 116.987 117.202 117.384 117.547 117.774 117.902 118.094 118.277 118.419 118.629 118.802 118.969 119.099 119.282 119.467 119.642 119.857 120.007 120.174 120.367 120.519 120.677 120.844 121.027 121.172 121.362 121.492 121.682 121.882 122.049 122.229 122.407 122.742 124.139 123.197 122.809 122.914 123.137 123.422 123.679 123.899 124.069 124.247 124.364 124.474 124.592 124.697 124.802 124.919 125.032 125.162 125.264 125.399 125.522 125.649 125.767 125.909 126.067 126.169 126.304 126.454 126.587 126.717 126.819 126.957 127.054 127.162 127.289 127.389 127.489 127.582 127.667 127.742 127.807 127.884 127.934 127.997 128.027 128.084 128.127 128.154 128.182 128.232 128.244 128.284 128.314 128.344 128.379 128.394 128.394 128.409 128.419 128.402 128.404 128.414 128.424
-9999 -9999 -9999 -9999 -9999 -9999 -9999 -9999 -9999 -9999 -9999 -9999 -9999 -9999 -9999 -9999 -9999 -9999 -9999 -9999 -9999 -9999 -9999 -9999 -9999 -9999 -9999 -9999 -9999 -9999 -9999 -9999 -9999 -9999 -9999 -9999 -9999 -9999 -9999 -9999 -9999 -9999 -9999 -9999 -9999 -9999 -9999 -9999 -9999 -9999 -9999 -9999 -9999 -9999 -9999 -9999 -9999 -9999 -9999 -9999 -9999 -9999 -9999 -9999 -9999 -9999 -9999 -9999 -9999 -9999 -9999 -9999 -9999 -9999 -9999 -9999 -9999 -9999 -9999 -9999 -9999 -9999 -9999 -9999 -9999 -9999 -9999 -9999 -9999 -9999 -9999 -9999 -9999 -9999 -9999 -9999 -9999 -9999 -9999 -9999 -9999 -9999 -9999 -9999 -9999 -9999 -9999 -9999 -9999 -9999 -9999 -9999 -9999 -9999 -9999 -9999 -9999 -9999 -9999 -9999 -9999 -9999 -9999 -9999 -9999 -9999 -9999 -9999 -9999 -9999 -9999 -9999 -9999 -9999 -9999 -9999 -9999 -9999 -9999 -9999 -9999 -9999 -9999 -9999 -9999 -9999 -9999 -9999 -9999 -9999 -9999 -9999 -9999 -9999 -9999 -9999 -9999 -9999 -9999 -9999 -9999 -9999 -9999 -9999 -9999 -9999 -9999 -9999 -9999 -9999 -9999 -9999 -9999 -9999 -9999 -9999 -9999 -9999 -9999 -9999 -9999 -9999 83.741 83.792 83.789 83.829 83.827 83.827 83.814 83.809 83.809 83.794 83.759 83.709 83.679 83.619 83.532 83.432 83.344 83.244 83.179 83.152 83.532 84.162 83.389 82.659 82.642 82.592 82.542 82.514 82.439 82.357 82.257 82.154 82.099 83.042 82.564 82.184 82.249 82.319 82.349 82.387 82.474 82.599 82.789 83.024 83.204 83.272 83.394 83.522 83.677 83.822 83.999 84.182 84.347 84.484 84.822 85.232 85.432 85.552 85.737 85.922 86.114 86.359 86.547 86.694 86.877 87.229 87.567 87.727 87.769 87.939 88.134 88.297 88.469 88.669 88.852 89.052 89.214 89.374 89.592 89.797 90.164 91.397 90.824 91.384 91.507 91.142 91.362 91.544 91.702 91.867 92.012 92.149 92.347 92.544 92.764 92.974 93.182 93.397 93.639 93.854 94.064 94.309 94.522 94.732 94.977 95.212 95.432 95.684 95.919 96.162 96.409 96.659 96.899 97.164 97.404 97.634 97.884 98.127 98.349 98.597 98.844 99.107 99.342 99.624 99.854 100.109 100.389 100.614 100.917 101.154 101.432 101.682 101.962 102.239 102.507 102.804 103.094 103.399 103.694 104.022 104.342 104.669 104.972 105.294 105.624 105.959 106.279 106.577 106.857 107.139 107.397 107.687 108.004 108.342 109.169 110.272 110.362 110.472 110.272 110.192 110.214 109.989 110.067 110.182 110.049 110.142 110.212 110.349 110.524 110.747 110.969 111.197 111.419 111.662 111.997 112.334 112.744 113.397 114.014 114.554 115.019 115.537 116.067 116.244 116.457 116.817 116.644 116.612 116.704 116.682 116.797 116.929 117.117 117.384 117.562 117.759 117.924 118.137 118.284 118.452 118.617 118.794 118.989 119.112 119.294 119.449 119.642 119.794 120.019 120.137 120.327 120.509 120.677 120.844 120.989 121.147 121.327 121.479 121.652 121.839 121.984 122.174 122.382 122.784 124.204 123.037 122.729 122.869 123.184 123.442 123.634 123.832 124.007 124.164 124.284 124.389 124.522 124.649 124.744 124.862 124.957 125.077 125.199 125.327 125.439 125.569 125.677 125.807 125.907 126.064 126.184 126.309 126.447 126.587 126.712 126.824 126.957 127.072 127.159 127.277 127.359 127.454 127.544 127.604 127.682 127.739 127.789 127.839 127.899 127.934 127.967 128.007 128.047 128.079 128.102 128.132 128.169 128.202 128.237 128.267 128.299 128.309 128.307 128.317 128.312 128.312 128.322
-9999 -9999 -9999 -9999 -9999 -9999 -9999 -9999 -9999 -9999 -9999 -9999 -9999 -9999 -9999 -9999 -9999 -9999 -9999 -9999 -9999 -9999 -9999 -9999 -9999 -9999 -9999 -9999 -9999 -9999 -9999 -9999 -9999 -9999 -9999 -9999 -9999 -9999 -9999 -9999 -9999 -9999 -9999 -9999 -9999 -9999 -9999 -9999 -9999 -9999 -9999 -9999 -9999 -9999 -9999 -9999 -9999 -9999 -9999 -9999 -9999 -9999 -9999 -9999 -9999 -9999 -9999 -9999 -9999 -9999 -9999 -9999 -9999 -9999 -9999 -9999 -9999 -9999 -9999 -9999 -9999 -9999 -9999 -9999 -9999 -9999 -9999 -9999 -9999 -9999 -9999 -9999 -9999 -9999 -9999 -9999 -9999 -9999 -9999 -9999 -9999 -9999 -9999 -9999 -9999 -9999 -9999 -9999 -9999 -9999 -9999 -9999 -9999 -9999 -9999 -9999 -9999 -9999 -9999 -9999 -9999 -9999 -9999 -9999 -9999 -9999 -9999 -9999 -9999 -9999 -9999 -9999 -9999 -9999 -9999 -9999 -9999 -9999 -9999 -9999 -9999 -9999 -9999 -9999 -9999 -9999 -9999 -9999 -9999 -9999 -9999 -9999 -9999 -9999 -9999 -9999 -9999 -9999 -9999 -9999 -9999 -9999 -9999 -9999 -9999 -9999 -9999 -9999 -9999 -9999 -9999 -9999 -9999 -9999 -9999 -9999 -9999 -9999 -9999 -9999 -9999 83.494 83.579 83.582 83.597 83.649 83.639 83.649 83.639 83.649 83.627 83.652 83.582 83.557 83.509 83.452 83.352 83.274 83.184 83.087 83.017 82.954 83.037 83.937 83.669 82.447 82.427 82.382 82.349 82.317 82.272 82.177 82.102 81.982 82.017 82.992 82.454 82.084 82.152 82.194 82.247 82.277 82.397 82.542 82.752 82.972 83.122 83.187 83.307 83.497 83.662 83.814 83.969 84.159 84.329 84.499 84.899 85.299 85.412 85.554 85.734 85.922 86.134 86.327 86.514 86.654 86.884 87.274 87.557 87.634 87.754 87.947 88.114 88.324 88.494 88.667 88.842 89.057 89.204 89.407 89.614 89.784 90.869 91.747 90.182 91.454 91.282 91.174 91.377 91.539 91.714 91.867 91.992 92.152 92.344 92.567 92.817 93.024 93.207 93.437 93.649 93.862 94.089 94.332 94.567 94.799 95.007 95.254 95.507 95.729 95.964 96.214 96.472 96.707 96.917 97.189 97.439 97.687 97.942 98.184 98.427 98.669 98.932 99.172 99.432 99.689 99.934 100.194 100.444 100.724 100.972 101.219 101.502 101.784 102.032 102.324 102.609 102.894 103.167 103.472 103.777 104.089 104.402 104.714 105.039 105.389 105.697 106.032 106.359 106.644 106.954 107.232 107.512 107.782 108.064 108.334 108.687 109.159 109.974 110.462 110.762 111.147 111.482 111.602 111.799 111.964 112.107 112.287 112.339 112.312 111.942 111.939 111.917 111.862 111.872 111.992 112.049 112.244 112.482 112.699 112.917 113.124 113.377 113.772 114.244 114.772 115.382 115.919 116.387 116.897 117.354 117.637 117.752 117.487 117.594 117.817 117.669 117.704 117.897 118.087 118.279 118.474 118.632 118.777 118.997 119.164 119.347 119.504 119.669 119.839 120.002 120.177 120.347 120.487 120.672 120.827 121.004 121.152 121.282 121.449 121.654 121.819 121.994 122.154 122.319 123.047 124.054 122.874 122.659 122.909 123.354 123.532 123.624 123.817 123.954 124.107 124.244 124.367 124.497 124.599 124.714 124.819 124.914 125.017 125.157 125.259 125.364 125.487 125.622 125.729 125.862 125.972 126.102 126.219 126.332 126.459 126.587 126.702 126.812 126.922 127.027 127.157 127.232 127.342 127.409 127.489 127.559 127.607 127.664 127.722 127.764 127.819 127.842 127.877 127.912 127.949 127.964 127.994 128.032 128.047 128.067 128.097 128.134 128.172 128.167 128.179 128.182 128.179 128.207
-9999 -9999 -9999 -9999 -9999 -9999 -9999 -9999 -9999 -9999 -9999 -9999 -9999 -9999 -9999 -9999 -9999 -9999 -9999 -9999 -9999 -9999 -9999 -9999 -9999 -9999 -9999 -9999 -9999 -9999 -9999 -9999 -9999 -9999 -9999 -9999 -9999 -9999 -9999 -9999 -9999 -9999 -9999 -9999 -9999 -9999 -9999 -9999 -9999 -9999 -9999 -9999 -9999 -9999 -9999 -9999 -9999 -9999 -9999 -9999 -9999 -9999 -9999 -9999 -9999 -9999 -9999 -9999 -9999 -9999 -9999 -9999 -9999 -9999 -9999 -9999 -9999 -9999 -9999 -9999 -9999 -9999 -9999 -9999 -9999 -9999 -9999 -9999 -9999 -9999 -9999 -9999 -9999 -9999 -9999 -9999 -9999 -9999 -9999 -9999 -9999 -9999 -9999 -9999 -9999 -9999 -9999 -9999 -9999 -9999 -9999 -9999 -9999 -9999 -9999 -9999 -9999 -9999 -9999 -9999 -9999 -9999 -9999 -9999 -9999 -9999 -9999 -9999 -9999 -9999 -9999 -9999 -9999 -9999 -9999 -9999 -9999 -9999 -9999 -9999 -9999 -9999 -9999 -9999 -9999 -9999 -9999 -9999 -9999 -9999 -9999 -9999 -9999 -9999 -9999 -9999 -9999 -9999 -9999 -9999 -9999 -9999 -9999 -9999 -9999 -9999 -9999 -9999 -9999 -9999 -9999 -9999 -9999 -9999 -9999 -9999 -9999 -9999 -9999 -9999 -9999 83.328 83.357 83.349 83.389 83.432 83.447 83.454 83.449 83.444 83.472 83.437 83.402 83.364 83.309 83.257 83.177 83.097 83.037 82.924 82.834 82.744 82.794 83.732 83.529 82.304 82.222 82.177 82.159 82.114 82.082 82.002 81.924 81.834 81.867 82.704 82.274 82.009 82.062 82.109 82.127 82.187 82.319 82.522 82.729 82.904 83.029 83.097 83.282 83.484 83.644 83.779 83.964 84.152 84.332 84.542 84.989 85.297 85.409 85.554 85.729 85.922 86.139 86.302 86.487 86.644 86.929 87.319 87.552 87.594 87.737 87.922 88.109 88.319 88.487 88.649 88.859 89.034 89.237 89.412 89.627 89.949 91.229 91.184 90.517 91.454 91.007 91.192 91.377 91.549 91.722 91.869 91.974 92.177 92.397 92.617 92.819 93.024 93.257 93.469 93.677 93.914 94.134 94.362 94.569 94.827 95.064 95.304 95.547 95.767 96.009 96.259 96.482 96.734 97.014 97.247 97.512 97.754 98.012 98.264 98.509 98.764 99.007 99.252 99.499 99.749 100.004 100.277 100.509 100.807 101.057 101.314 101.567 101.842 102.102 102.374 102.664 102.959 103.237 103.519 103.834 104.172 104.467 104.802 105.122 105.427 105.759 106.099 106.389 106.689 107.002 107.299 107.599 107.894 108.157 108.412 108.717 108.999 109.234 109.449 109.674 109.952 110.332 110.619 110.954 111.452 111.822 112.217 112.809 113.257 113.384 113.612 113.769 113.924 114.104 114.202 114.067 114.112 113.962 113.767 113.554 113.479 113.589 113.732 113.887 114.087 114.249 114.462 114.727 115.059 115.539 115.982 116.579 117.039 117.604 118.052 118.464 118.829 118.792 118.644 118.884 118.627 118.659 118.792 118.942 119.169 119.367 119.514 119.674 119.854 120.024 120.194 120.337 120.489 120.639 120.807 121.014 121.162 121.287 121.382 121.644 121.782 121.954 122.102 122.292 123.129 123.914 122.702 122.642 123.304 124.159 123.737 123.667 123.802 123.957 124.084 124.212 124.334 124.457 124.562 124.682 124.774 124.879 124.982 125.092 125.204 125.314 125.422 125.547 125.674 125.814 125.907 126.027 126.154 126.259 126.409 126.519 126.634 126.744 126.847 126.957 127.044 127.162 127.229 127.282 127.372 127.439 127.502 127.537 127.589 127.649 127.697 127.719 127.742 127.777 127.797 127.824 127.847 127.882 127.909 127.927 127.954 127.987 128.004 128.012 128.014 128.027 128.047 128.057
-9999 -9999 -9999 -9999 -9999 -9999 -9999 -9999 -9999 -9999 -9999 -9999 -9999 -9999 -9999 -9999 -9999 -9999 -9999 -9999 -9999 -9999 -9999 -9999 -9999 -9999 -9999 -9999 -9999 -9999 -9999 -9999 -9999 -9999 -9999 -9999 -9999 -9999 -9999 -9999 -9999 -9999 -9999 -9999 -9999 -9999 -9999 -9999 -9999 -9999 -9999 -9999 -9999 -9999 -9999 -9999 -9999 -9999 -9999 -9999 -9999 -9999 -9999 -9999 -9999 -9999 -9999 -9999 -9999 -9999 -9999 -9999 -9999 -9999 -9999 -9999 -9999 -9999 -9999 -9999 -9999 -9999 -9999 -9999 -9999 -9999 -9999 -9999 -9999 -9999 -9999 -9999 -9999 -9999 -9999 -9999 -9999 -9999 -9999 -9999 -9999 -9999 -9999 -9999 -9999 -9999 -9999 -9999 -9999 -9999 -9999 -9999 -9999 -9999 -9999 -9999 -9999 -9999 -9999 -9999 -9999 -9999 -9999 -9999 -9999 -9999 -9999 -9999 -9999 -9999 -9999 -9999 -9999 -9999 -9999 -9999 -9999 -9999 -9999 -9999 -9999 -9999 -9999 -9999 -9999 -9999 -9999 -9999 -9999 -9999 -9999 -9999 -9999 -9999 -9999 -9999 -9999 -9999 -9999 -9999 -9999 -9999 -9999 -9999 -9999 -9999 -9999 -9999 -9999 -9999 -9999 -9999 -9999 -9999 -9999 -9999 -9999 -9999 -9999 -9999 83.094 83.142 83.149 83.174 83.189 83.232 83.257 83.272 83.252 83.272 83.274 83.244 83.227 83.172 83.132 83.082 83.014 82.937 82.839 82.724 82.629 82.577 82.507 83.607 83.287 82.262 82.027 82.034 81.967 81.939 81.907 81.857 81.752 81.702 81.702 82.629 82.257 81.889 81.952 82.017 82.027 82.094 82.249 82.487 82.657 82.842 82.964 83.049 83.274 83.459 83.629 83.772 83.972 84.159 84.327 84.617 85.049 85.249 85.394 85.547 85.714 85.899 86.094 86.259 86.454 86.647 86.984 87.362 87.534 87.559 87.732 87.922 88.104 88.334 88.474 88.664 88.864 89.042 89.239 89.439 89.682 90.442 91.114 90.492 91.054 91.282 91.014 91.217 91.384 91.559 91.717 91.832 92.002 92.212 92.419 92.639 92.867 93.064 93.287 93.524 93.727 93.964 94.192 94.394 94.637 94.889 95.122 95.344 95.584 95.852 96.094 96.317 96.549 96.797 97.054 97.322 97.554 97.819 98.062 98.314 98.574 98.842 99.092 99.344 99.597 99.834 100.094 100.339 100.619 100.867 101.132 101.394 101.662 101.909 102.197 102.469 102.739 103.039 103.319 103.612 103.924 104.227 104.519 104.822 105.164 105.482 105.799 106.124 106.437 106.759 107.069 107.364 107.672 107.974 108.262 108.512 108.772 109.024 109.292 109.552 109.782 110.027 110.257 110.479 110.712 110.967 111.182 111.419 111.647 111.877 112.109 112.509 112.887 113.242 113.592 114.027 114.259 114.802 115.122 115.364 115.497 115.667 115.582 115.474 115.137 114.972 114.697 114.674 114.792 114.959 115.164 115.354 115.509 115.689 115.927 116.219 116.677 117.354 117.942 118.442 119.152 119.447 119.697 119.492 119.372 119.329 119.329 119.469 119.664 119.874 120.067 120.232 120.399 120.559 120.714 120.889 120.999 121.124 121.342 121.452 121.637 121.779 121.947 122.094 122.294 123.392 123.684 122.637 122.614 124.222 124.649 123.807 123.679 123.794 123.947 124.094 124.187 124.319 124.412 124.527 124.667 124.779 124.889 124.984 125.079 125.184 125.282 125.412 125.517 125.629 125.752 125.857 125.974 126.104 126.219 126.339 126.439 126.574 126.664 126.794 126.899 126.979 127.079 127.149 127.239 127.302 127.369 127.424 127.464 127.514 127.572 127.604 127.632 127.667 127.674 127.689 127.717 127.722 127.739 127.762 127.784 127.814 127.829 127.847 127.877 127.854 127.912 127.899 127.919
-9999 -9999 -9999 -9999 -9999 -9999 -9999 -9999 -9999 -9999 -9999 -9999 -9999 -9999 -9999 -9999 -9999 -9999 -9999 -9999 -9999 -9999 -9999 -9999 -9999 -9999 -9999 -9999 -9999 -9999 -9999 -9999 -9999 -9999 -9999 -9999 -9999 -9999 -9999 -9999 -9999 -9999 -9999 -9999 -9999 -9999 -9999 -9999 -9999 -9999 -9999 -9999 -9999 -9999 -9999 -9999 -9999 -9999 -9999 -9999 -9999 -9999 -9999 -9999 -9999 -9999 -9999 -9999 -9999 -9999 -9999 -9999 -9999 -9999 -9999 -9999 -9999 -9999 -9999 -9999 -9999 -9999 -9999 -9999 -9999 -9999 -9999 -9999 -9999 -9999 -9999 -9999 -9999 -9999 -9999 -9999 -9999 -9999 -9999 -9999 -9999 -9999 -9999 -9999 -9999 -9999 -9999 -9999 -9999 -9999 -9999 -9999 -9999 -9999 -9999 -9999 -9999 -9999 -9999 -9999 -9999 -9999 -9999 -9999 -9999 -9999 -9999 -9999 -9999 -9999 -9999 -9999 -9999 -9999 -9999 -9999 -9999 -9999 -9999 -9999 -9999 -9999 -9999 -9999 -9999 -9999 -9999 -9999 -9999 -9999 -9999 -9999 -9999 -9999 -9999 -9999 -9999 -9999 -9999 -9999 -9999 -9999 -9999 -9999 -9999 -9999 -9999 -9999 -9999 -9999 -9999 -9999 -9999 -9999 -9999 -9999 -9999 -9999 -9999 -9999 82.918 82.949 82.977 82.989 82.989 83.047 83.079 83.074 83.062 83.057 83.064 83.052 83.037 82.979 82.932 82.887 82.794 82.724 82.647 82.544 82.427 82.357 82.302 83.097 83.327 82.354 81.857 81.827 81.809 81.774 81.749 81.707 81.614 81.539 81.677 82.559 82.012 81.752 81.852 81.892 81.912 82.009 82.199 82.394 82.592 82.777 82.897 83.042 83.229 83.424 83.612 83.772 83.967 84.157 84.337 84.719 85.097 85.202 85.354 85.539 85.689 85.879 86.072 86.249 86.432 86.647 87.052 87.374 87.479 87.547 87.729 87.924 88.134 88.334 88.474 88.654 88.834 89.059 89.257 89.452 89.794 91.664 91.097 90.202 91.364 90.937 91.019 91.214 91.384 91.544 91.687 91.842 92.029 92.227 92.467 92.687 92.907 93.122 93.352 93.554 93.779 94.007 94.222 94.444 94.687 94.939 95.174 95.412 95.632 95.852 96.094 96.374 96.622 96.872 97.129 97.392 97.632 97.884 98.124 98.387 98.667 98.902 99.177 99.424 99.692 99.954 100.179 100.449 100.692 100.959 101.212 101.494 101.737 101.982 102.264 102.542 102.814 103.102 103.394 103.687 103.982 104.279 104.602 104.899 105.217 105.549 105.849 106.172 106.499 106.804 107.124 107.414 107.707 107.984 108.279 108.539 108.809 109.092 109.322 109.562 109.812 110.057 110.294 110.527 110.772 111.014 111.242 111.464 111.707 111.959 112.189 112.419 112.647 112.889 113.059 113.319 113.514 113.719 113.974 114.444 114.982 115.327 115.787 116.327 116.254 116.494 116.717 116.549 116.312 116.064 115.829 115.772 115.652 115.824 115.959 116.092 116.234 116.409 116.549 116.817 117.442 118.152 118.867 119.374 119.817 120.277 120.439 120.239 120.109 120.074 120.039 120.199 120.412 120.552 120.729 120.869 121.027 121.187 121.322 121.469 121.634 121.764 121.924 122.104 122.277 123.472 123.579 122.562 122.679 124.419 124.757 123.542 123.694 123.794 123.927 124.047 124.162 124.282 124.382 124.504 124.627 124.734 124.862 124.974 125.072 125.172 125.264 125.349 125.479 125.589 125.689 125.817 125.934 126.049 126.167 126.277 126.394 126.499 126.617 126.714 126.814 126.927 127.004 127.079 127.169 127.229 127.307 127.344 127.402 127.447 127.487 127.537 127.562 127.597 127.612 127.614 127.632 127.637 127.652 127.669 127.684 127.694 127.697 127.714 127.724 127.744 127.757 127.764 127.807
-9999 -9999 -9999 -9999 -9999 -9999 -9999 -9999 -9999 -9999 -9999 -9999 -9999 -9999 -9999 -9999 -9999 -9999 -9999 -9999 -9999 -9999 -9999 -9999 -9999 -9999 -9999 -9999 -9999 -9999 -9999 -9999 -9999 -9999 -9999 -9999 -9999 -9999 -9999 -9999 -9999 -9999 -9999 -9999 -9999 -9999 -9999 -9999 -9999 -9999 -9999 -9999 -9999 -9999 -9999 -9999 -9999 -9999 -9999 -9999 -9999 -9999 -9999 -9999 -9999 -9999 -9999 -9999 -9999 -9999 -9999 -9999 -9999 -9999 -9999 -9999 -9999 -9999 -9999 -9999 -9999 -9999 -9999 -9999 -9999 -9999 -9999 -9999 -9999 -9999 -9999 -9999 -9999 -9999 -9999 -9999 -9999 -9999 -9999 -9999 -9999 -9999 -9999 -9999 -9999 -9999 -9999 -9999 -9999 -9999 -9999 -9999 -9999 -9999 -9999 -9999 -9999 -9999 -9999 -9999 -9999 -9999 -9999 -9999 -9999 -9999 -9999 -9999 -9999 -9999 -9999 -9999 -9999 -9999 -9999 -9999 -9999 -9999 -9999 -9999 -9999 -9999 -9999 -9999 -9999 -9999 -9999 -9999 -9999 -9999 -9999 -9999 -9999 -9999 -9999 -9999 -9999 -9999 -9999 -9999 -9999 -9999 -9999 -9999 -9999 -9999 -9999 -9999 -9999 -9999 -9999 -9999 -9999 -9999 -9999 -9999 -9999 -9999 -9999 82.624 82.712 82.759 82.782 82.767 82.787 82.809 82.839 82.834 82.864 82.849 82.857 82.847 82.827 82.754 82.719 82.677 82.607 82.507 82.414 82.312 82.224 82.152 82.102 82.384 83.157 82.334 81.692 81.654 81.627 81.609 81.604 81.587 81.479 81.407 81.492 82.402 81.924 81.654 81.719 81.799 81.819 81.929 82.119 82.362 82.532 82.714 82.834 83.017 83.227 83.409 83.589 83.779 83.982 84.162 84.382 84.782 85.082 85.172 85.362 85.497 85.674 85.877 86.074 86.247 86.404 86.682 87.102 87.332 87.412 87.547 87.722 87.912 88.139 88.317 88.489 88.657 88.822 89.054 89.262 89.434 90.272 91.642 89.832 90.827 91.202 90.864 91.027 91.194 91.392 91.549 91.672 91.849 92.069 92.274 92.497 92.702 92.924 93.152 93.382 93.602 93.829 94.054 94.274 94.514 94.754 94.987 95.224 95.457 95.692 95.937 96.184 96.422 96.662 96.922 97.182 97.442 97.714 97.962 98.209 98.479 98.729 99.002 99.244 99.502 99.759 100.042 100.257 100.532 100.769 101.034 101.307 101.567 101.832 102.094 102.367 102.629 102.899 103.172 103.454 103.772 104.082 104.362 104.667 104.954 105.294 105.624 105.917 106.237 106.539 106.862 107.177 107.467 107.772 108.042 108.297 108.572 108.834 109.102 109.354 109.587 109.834 110.069 110.299 110.542 110.782 111.019 111.269 111.502 111.754 111.997 112.222 112.454 112.694 112.912 113.132 113.372 113.587 113.822 114.039 114.249 114.447 114.627 114.804 115.064 115.282 115.799 116.262 116.714 117.077 117.234 117.464 117.562 117.412 117.209 117.114 116.772 116.634 116.559 116.679 116.797 116.909 117.012 117.214 117.589 118.244 118.957 119.689 120.289 120.657 121.037 121.054 120.829 120.612 120.579 120.667 120.882 121.037 121.207 121.364 121.497 121.592 121.724 121.917 122.057 122.267 123.522 123.294 122.462 122.657 124.262 124.662 123.584 123.674 123.759 123.889 124.044 124.134 124.227 124.349 124.464 124.589 124.707 124.814 124.922 125.047 125.134 125.212 125.327 125.429 125.532 125.654 125.774 125.869 125.994 126.109 126.252 126.347 126.449 126.569 126.664 126.747 126.862 126.944 127.037 127.112 127.174 127.229 127.294 127.362 127.387 127.427 127.494 127.509 127.539 127.552 127.559 127.557 127.592 127.594 127.592 127.607 127.634 127.634 127.627 127.624 127.642 127.644 127.667 127.677
-9999 -9999 -9999 -9999 -9999 -9999 -9999 -9999 -9999 -9999 -9999 -9999 -9999 -9999 -9999 -9999 -9999 -9999 -9999 -9999 -9999 -9999 -9999 -9999 -9999 -9999 -9999 -9999 -9999 -9999 -9999 -9999 -9999 -9999 -9999 -9999 -9999 -9999 -9999 -9999 -9999 -9999 -9999 -9999 -9999 -9999 -9999 -9999 -9999 -9999 -9999 -9999 -9999 -9999 -9999 -9999 -9999 -9999 -9999 -9999 -9999 -9999 -9999 -9999 -9999 -9999 -9999 -9999 -9999 -9999 -9999 -9999 -9999 -9999 -9999 -9999 -9999 -9999 -9999 -9999 -9999 -9999 -9999 -9999 -9999 -9999 -9999 -9999 -9999 -9999 -9999 -9999 -9999 -9999 -9999 -9999 -9999 -9999 -9999 -9999 -9999 -9999 -9999 -9999 -9999 -9999 -9999 -9999 -9999 -9999 -9999 -9999 -9999 -9999 -9999 -9999 -9999 -9999 -9999 -9999 -9999 -9999 -9999 -9999 -9999 -9999 -9999 -9999 -9999 -9999 -9999 -9999 -9999 -9999 -9999 -9999 -9999 -9999 -9999 -9999 -9999 -9999 -9999 -9999 -9999 -9999 -9999 -9999 -9999 -9999 -9999 -9999 -9999 -9999 -9999 -9999 -9999 -9999 -9999 -9999 -9999 -9999 -9999 -9999 -9999 -9999 -9999 -9999 -9999 -9999 -9999 -9999 -9999 -9999 -9999 -9999 -9999 -9999 -9999 82.459 82.487 82.539 82.547 82.542 82.547 82.562 82.604 82.627 82.617 82.599 82.627 82.597 82.557 82.532 82.467 82.424 82.332 82.269 82.179 82.067 81.974 81.914 81.902 82.239 83.127 82.314 81.494 81.494 81.459 81.472 81.449 81.417 81.337 81.262 81.462 82.212 81.877 81.549 81.624 81.694 81.722 81.867 82.072 82.297 82.467 82.617 82.789 83.009 83.214 83.409 83.607 83.787 83.972 84.142 84.402 84.832 85.049 85.167 85.334 85.447 85.649 85.869 86.054 86.234 86.399 86.772 87.162 87.332 87.362 87.527 87.724 87.919 88.132 88.309 88.487 88.662 88.829 89.044 89.264 89.399 90.829 91.032 89.869 91.299 90.852 90.809 91.009 91.187 91.379 91.532 91.654 91.882 92.072 92.294 92.539 92.722 92.942 93.189 93.399 93.629 93.864 94.092 94.319 94.557 94.779 95.042 95.262 95.504 95.747 95.992 96.237 96.487 96.737 96.989 97.232 97.499 97.767 98.029 98.279 98.559 98.807 99.062 99.327 99.589 99.852 100.119 100.372 100.652 100.907 101.152 101.424 101.659 101.922 102.184 102.442 102.719 102.977 103.277 103.549 103.847 104.142 104.429 104.712 105.024 105.357 105.679 105.969 106.287 106.599 106.917 107.212 107.509 107.784 108.072 108.332 108.574 108.852 109.122 109.384 109.622 109.872 110.099 110.327 110.569 110.794 111.047 111.267 111.507 111.744 111.982 112.229 112.472 112.707 112.937 113.174 113.397 113.637 113.874 114.069 114.282 114.492 114.669 114.872 115.064 115.252 115.432 115.592 115.782 115.974 116.227 116.539 117.032 117.264 117.812 117.999 118.312 118.409 118.357 118.174 117.879 117.527 117.329 117.339 117.432 117.552 117.724 117.922 118.424 119.132 119.882 120.507 121.004 121.344 121.637 121.574 121.314 121.052 121.177 121.337 121.509 121.644 121.734 121.872 122.037 122.214 123.637 123.067 122.284 122.669 124.207 124.309 123.532 123.649 123.727 123.852 124.007 124.089 124.192 124.329 124.434 124.557 124.679 124.782 124.877 124.999 125.094 125.192 125.279 125.384 125.497 125.619 125.714 125.832 125.937 126.057 126.209 126.302 126.404 126.502 126.602 126.712 126.809 126.902 126.964 127.052 127.107 127.172 127.217 127.279 127.317 127.379 127.412 127.439 127.469 127.482 127.507 127.519 127.532 127.527 127.527 127.524 127.529 127.567 127.559 127.567 127.569 127.562 127.599 127.599
-9999 -9999 -9999 -9999 -9999 -9999 -9999 -9999 -9999 -9999 -9999 -9999 -9999 -9999 -9999 -9999 -9999 -9999 -9999 -9999 -9999 -9999 -9999 -9999 -9999 -9999 -9999 -9999 -9999 -9999 -9999 -9999 -9999 -9999 -9999 -9999 -9999 -9999 -9999 -9999 -9999 -9999 -9999 -9999 -9999 -9999 -9999 -9999 -9999 -9999 -9999 -9999 -9999 -9999 -9999 -9999 -9999 -9999 -9999 -9999 -9999 -9999 -9999 -9999 -9999 -9999 -9999 -9999 -9999 -9999 -9999 -9999 -9999 -9999 -9999 -9999 -9999 -9999 -9999 -9999 -9999 -9999 -9999 -9999 -9999 -9999 -9999 -9999 -9999 -9999 -9999 -9999 -9999 -9999 -9999 -9999 -9999 -9999 -9999 -9999 -9999 -9999 -9999 -9999 -9999 -9999 -9999 -9999 -9999 -9999 -9999 -9999 -9999 -9999 -9999 -9999 -9999 -9999 -9999 -9999 -9999 -9999 -9999 -9999 -9999 -9999 -9999 -9999 -9999 -9999 -9999 -9999 -9999 -9999 -9999 -9999 -9999 -9999 -9999 -9999 -9999 -9999 -9999 -9999 -9999 -9999 -9999 -9999 -9999 -9999 -9999 -9999 -9999 -9999 -9999 -9999 -9999 -9999 -9999 -9999 -9999 -9999 -9999 -9999 -9999 -9999 -9999 -9999 -9999 -9999 -9999 -9999 -9999 -9999 -9999 -9999 -9999 -9999 -9999 82.229 82.277 82.312 82.329 82.337 82.347 82.347 82.377 82.417 82.412 82.407 82.414 82.392 82.344 82.317 82.259 82.202 82.134 82.052 81.994 81.869 81.754 81.722 81.707 81.664 82.877 82.207 81.327 81.317 81.284 81.327 81.312 81.267 81.224 81.134 81.434 82.209 81.609 81.474 81.552 81.607 81.672 81.829 82.032 82.247 82.419 82.544 82.762 82.997 83.197 83.407 83.579 83.799 83.962 84.149 84.454 84.874 85.022 85.157 85.309 85.442 85.614 85.847 86.057 86.197 86.419 86.842 87.167 87.257 87.369 87.537 87.734 87.932 88.124 88.304 88.484 88.684 88.857 89.042 89.267 89.677 90.872 90.484 90.464 91.112 90.617 90.787 90.984 91.187 91.392 91.504 91.674 91.874 92.124 92.332 92.537 92.732 92.959 93.182 93.422 93.667 93.884 94.112 94.374 94.579 94.839 95.077 95.307 95.552 95.779 96.049 96.297 96.542 96.767 97.037 97.297 97.582 97.819 98.087 98.342 98.619 98.882 99.152 99.414 99.694 99.942 100.179 100.469 100.719 100.997 101.249 101.502 101.764 102.019 102.287 102.552 102.809 103.067 103.337 103.634 103.927 104.227 104.512 104.824 105.144 105.439 105.752 106.057 106.359 106.679 106.982 107.259 107.562 107.839 108.122 108.384 108.644 108.897 109.147 109.394 109.647 109.894 110.137 110.372 110.604 110.832 111.067 111.299 111.542 111.757 111.984 112.259 112.464 112.712 112.952 113.179 113.409 113.639 113.869 114.089 114.294 114.504 114.722 114.919 115.089 115.289 115.474 115.662 115.839 116.009 116.184 116.339 116.499 116.649 116.772 116.919 117.249 117.907 118.337 118.732 119.019 119.232 119.177 118.999 118.569 118.257 118.087 118.027 118.169 118.272 118.424 118.792 119.449 120.097 120.882 121.472 121.844 121.984 121.749 121.422 121.462 121.667 121.772 121.844 121.984 122.252 123.709 122.854 122.129 122.514 124.094 124.332 123.487 123.629 123.707 123.809 123.934 124.052 124.149 124.287 124.417 124.537 124.634 124.739 124.849 124.939 125.057 125.152 125.232 125.349 125.452 125.539 125.664 125.767 125.877 126.002 126.112 126.237 126.344 126.444 126.562 126.634 126.744 126.842 126.912 126.984 127.054 127.104 127.157 127.192 127.242 127.304 127.364 127.392 127.409 127.429 127.437 127.444 127.462 127.462 127.479 127.492 127.492 127.484 127.497 127.489 127.484 127.497 127.509 127.522
-9999 -9999 -9999 -9999 -9999 -9999 -9999 -9999 -9999 -9999 -9999 -9999 -9999 -9999 -9999 -9999 -9999 -9999 -9999 -9999 -9999 -9999 -9999 -9999 -9999 -9999 -9999 -9999 -9999 -9999 -9999 -9999 -9999 -9999 -9999 -9999 -9999 -9999 -9999 -9999 -9999 -9999 -9999 -9999 -9999 -9999 -9999 -9999 -9999 -9999 -9999 -9999 -9999 -9999 -9999 -9999 -9999 -9999 -9999 -9999 -9999 -9999 -9999 -9999 -9999 -9999 -9999 -9999 -9999 -9999 -9999 -9999 -9999 -9999 -9999 -9999 -9999 -9999 -9999 -9999 -9999 -9999 -9999 -9999 -9999 -9999 -9999 -9999 -9999 -9999 -9999 -9999 -9999 -9999 -9999 -9999 -9999 -9999 -9999 -9999 -9999 -9999 -9999 -9999 -9999 -9999 -9999 -9999 -9999 -9999 -9999 -9999 -9999 -9999 -9999 -9999 -9999 -9999 -9999 -9999 -9999 -9999 -9999 -9999 -9999 -9999 -9999 -9999 -9999 -9999 -9999 -9999 -9999 -9999 -9999 -9999 -9999 -9999 -9999 -9999 -9999 -9999 -9999 -9999 -9999 -9999 -9999 -9999 -9999 -9999 -9999 -9999 -9999 -9999 -9999 -9999 -9999 -9999 -9999 -9999 -9999 -9999 -9999 -9999 -9999 -9999 -9999 -9999 -9999 -9999 -9999 -9999 -9999 -9999 -9999 -9999 -9999 -9999 82.009 82.057 82.089 82.132 82.159 82.154 82.159 82.162 82.237 82.224 82.214 82.214 82.202 82.202 82.154 82.094 82.044 82.012 81.922 81.834 81.757 81.689 81.592 81.512 81.492 81.492 82.569 82.204 81.187 81.162 81.134 81.159 81.162 81.134 81.077 81.032 81.374 82.172 81.619 81.402 81.469 81.522 81.619 81.804 82.049 82.227 82.394 82.524 82.759 82.987 83.209 83.394 83.589 83.787 83.954 84.162 84.519 84.854 84.977 85.129 85.252 85.424 85.642 85.839 86.034 86.169 86.467 86.902 87.164 87.229 87.357 87.552 87.734 87.974 88.132 88.312 88.499 88.692 88.847 89.059 89.254 90.452 91.564 90.582 91.047 90.757 90.579 90.752 90.974 91.152 91.327 91.474 91.674 91.899 92.112 92.332 92.539 92.769 92.994 93.214 93.454 93.677 93.907 94.159 94.377 94.624 94.899 95.117 95.364 95.594 95.849 96.107 96.339 96.597 96.844 97.124 97.367 97.634 97.894 98.159 98.424 98.702 98.944 99.202 99.499 99.752 100.017 100.294 100.547 100.807 101.069 101.327 101.584 101.829 102.097 102.349 102.624 102.874 103.174 103.452 103.727 104.017 104.299 104.602 104.892 105.209 105.504 105.807 106.117 106.419 106.704 107.024 107.284 107.587 107.874 108.162 108.422 108.672 108.944 109.194 109.437 109.652 109.909 110.152 110.394 110.607 110.862 111.089 111.334 111.567 111.799 112.044 112.279 112.512 112.749 112.972 113.222 113.447 113.669 113.897 114.092 114.294 114.499 114.712 114.889 115.109 115.294 115.489 115.689 115.849 116.019 116.204 116.372 116.547 116.699 116.862 117.019 117.167 117.332 117.454 117.617 117.907 118.254 118.917 119.322 119.717 119.817 119.844 119.677 119.257 118.754 118.614 118.689 118.777 118.929 119.237 119.889 120.734 121.394 121.982 122.312 122.224 122.179 121.957 121.847 121.854 122.097 123.589 122.567 121.987 122.432 124.052 124.147 123.479 123.589 123.694 123.767 123.907 124.009 124.104 124.242 124.359 124.484 124.584 124.702 124.799 124.932 125.009 125.112 125.212 125.304 125.409 125.497 125.604 125.714 125.819 125.954 126.069 126.167 126.259 126.374 126.477 126.587 126.654 126.744 126.839 126.919 126.964 127.019 127.092 127.114 127.194 127.232 127.302 127.334 127.352 127.379 127.369 127.387 127.389 127.392 127.384 127.404 127.409 127.417 127.419 127.404 127.419 127.402 127.404 127.427
-9999 -9999 -9999 -9999 -9999 -9999 -9999 -9999 -9999 -9999 -9999 -9999 -9999 -9999 -9999 -9999 -9999 -9999 -9999 -9999 -9999 -9999 -9999 -9999 -9999 -9999 -9999 -9999 -9999 -9999 -9999 -9999 -9999 -9999 -9999 -9999 -9999 -9999 -9999 -9999 -9999 -9999 -9999 -9999 -9999 -9999 -9999 -9999 -9999 -9999 -9999 -9999 -9999 -9999 -9999 -9999 -9999 -9999 -9999 -9999 -9999 -9999 -9999 -9999 -9999 -9999 -9999 -9999 -9999 -9999 -9999 -9999 -9999 -9999 -9999 -9999 -9999 -9999 -9999 -9999 -9999 -9999 -9999 -9999 -9999 -9999 -9999 -9999 -9999 -9999 -9999 -9999 -9999 -9999 -9999 -9999 -9999 -9999 -9999 -9999 -9999 -9999 -9999 -9999 -9999 -9999 -9999 -9999 -9999 -9999 -9999 -9999 -9999 -9999 -9999 -9999 -9999 -9999 -9999 -9999 -9999 -9999 -9999 -9999 -9999 -9999 -9999 -9999 -9999 -9999 -9999 -9999 -9999 -9999 -9999 -9999 -9999 -9999 -9999 -9999 -9999 -9999 -9999 -9999 -9999 -9999 -9999 -9999 -9999 -9999 -9999 -9999 -9999 -9999 -9999 -9999 -9999 -9999 -9999 -9999 -9999 -9999 -9999 -9999 -9999 -9999 -9999 -9999 -9999 -9999 -9999 -9999 -9999 -9999 -9999 -9999 -9999 -9999 81.784 81.842 81.887 81.934 81.969 81.964 81.974 81.984 82.012 82.017 82.022 81.994 81.979 81.969 81.929 81.892 81.834 81.789 81.719 81.649 81.554 81.484 81.399 81.334 81.309 81.304 82.387 82.079 81.067 81.007 81.009 81.002 81.029 81.029 80.972 80.899 81.197 82.042 81.344 81.309 81.359 81.427 81.584 81.769 82.012 82.169 82.337 82.517 82.767 82.999 83.222 83.394 83.569 83.759 83.947 84.187 84.589 84.829 84.952 85.112 85.247 85.412 85.612 85.824 86.004 86.182 86.534 86.942 87.137 87.204 87.359 87.557 87.779 87.959 88.119 88.307 88.524 88.692 88.872 89.084 89.502 90.897 90.352 89.727 91.024 90.534 90.557 90.754 90.959 91.129 91.269 91.462 91.669 91.897 92.102 92.324 92.564 92.762 93.009 93.244 93.482 93.712 93.929 94.189 94.427 94.674 94.882 95.157 95.389 95.647 95.897 96.147 96.377 96.629 96.887 97.164 97.439 97.692 97.974 98.229 98.479 98.767 99.027 99.322 99.602 99.839 100.112 100.374 100.634 100.909 101.167 101.442 101.672 101.924 102.184 102.432 102.687 102.972 103.239 103.514 103.799 104.072 104.374 104.679 104.964 105.269 105.574 105.867 106.169 106.457 106.769 107.052 107.367 107.667 107.919 108.187 108.469 108.724 108.972 109.212 109.462 109.707 109.942 110.192 110.424 110.669 110.897 111.129 111.359 111.597 111.839 112.062 112.317 112.534 112.764 112.987 113.234 113.479 113.672 113.909 114.117 114.322 114.504 114.722 114.917 115.107 115.267 115.469 115.667 115.839 116.027 116.204 116.382 116.552 116.729 116.922 117.067 117.207 117.382 117.524 117.687 117.839 118.002 118.134 118.292 118.569 119.184 119.522 120.092 120.389 120.489 120.352 120.029 119.462 119.084 119.174 119.297 119.447 119.782 120.424 121.277 121.999 122.494 122.922 122.752 122.249 121.999 122.409 122.149 121.824 122.294 123.947 124.104 123.439 123.589 123.647 123.759 123.867 123.952 124.079 124.212 124.317 124.442 124.557 124.677 124.757 124.862 124.967 125.049 125.162 125.269 125.344 125.454 125.574 125.682 125.787 125.867 126.007 126.114 126.209 126.322 126.409 126.519 126.614 126.682 126.757 126.799 126.894 126.929 126.999 127.047 127.109 127.174 127.222 127.257 127.294 127.292 127.327 127.317 127.332 127.309 127.307 127.322 127.324 127.329 127.334 127.314 127.322 127.314 127.297 127.294
-9999 -9999 -9999 -9999 -9999 -9999 -9999 -9999 -9999 -9999 -9999 -9999 -9999 -9999 -9999 -9999 -9999 -9999 -9999 -9999 -9999 -9999 -9999 -9999 -9999 -9999 -9999 -9999 -9999 -9999 -9999 -9999 -9999 -9999 -9999 -9999 -9999 -9999 -9999 -9999 -9999 -9999 -9999 -9999 -9999 -9999 -9999 -9999 -9999 -9999 -9999 -9999 -9999 -9999 -9999 -9999 -9999 -9999 -9999 -9999 -9999 -9999 -9999 -9999 -9999 -9999 -9999 -9999 -9999 -9999 -9999 -9999 -9999 -9999 -9999 -9999 -9999 -9999 -9999 -9999 -9999 -9999 -9999 -9999 -9999 -9999 -9999 -9999 -9999 -9999 -9999 -9999 -9999 -9999 -9999 -9999 -9999 -9999 -9999 -9999 -9999 -9999 -9999 -9999 -9999 -9999 -9999 -9999 -9999 -9999 -9999 -9999 -9999 -9999 -9999 -9999 -9999 -9999 -9999 -9999 -9999 -9999 -9999 -9999 -9999 -9999 -9999 -9999 -9999 -9999 -9999 -9999 -9999 -9999 -9999 -9999 -9999 -9999 -9999 -9999 -9999 -9999 -9999 -9999 -9999 -9999 -9999 -9999 -9999 -9999 -9999 -9999 -9999 -9999 -9999 -9999 -9999 -9999 -9999 -9999 -9999 -9999 -9999 -9999 -9999 -9999 -9999 -9999 -9999 -9999 -9999 -9999 -9999 -9999 -9999 -9999 -9999 -9999 81.609 81.654 81.694 81.744 81.779 81.797 81.784 81.787 81.802 81.807 81.807 81.774 81.754 81.744 81.699 81.687 81.639 81.569 81.517 81.432 81.362 81.297 81.212 81.152 81.164 81.107 81.942 81.827 80.947 80.864 80.874 80.892 80.909 80.922 80.852 80.824 81.207 81.934 81.299 81.207 81.287 81.382 81.537 81.769 81.989 82.144 82.347 82.517 82.759 82.999 83.214 83.382 83.559 83.747 83.922 84.244 84.629 84.794 84.929 85.117 85.239 85.387 85.582 85.802 85.989 86.207 86.599 86.927 87.057 87.187 87.359 87.574 87.769 87.974 88.124 88.329 88.524 88.704 88.877 89.097 90.012 91.522 89.969 90.559 90.959 90.339 90.512 90.729 90.927 91.112 91.299 91.474 91.664 91.907 92.107 92.329 92.562 92.794 93.022 93.267 93.512 93.757 93.984 94.244 94.504 94.717 94.952 95.214 95.462 95.697 95.954 96.209 96.477 96.717 96.979 97.237 97.499 97.784 98.049 98.302 98.589 98.839 99.097 99.397 99.649 99.907 100.182 100.439 100.704 100.984 101.202 101.484 101.742 102.004 102.264 102.507 102.744 103.037 103.309 103.589 103.874 104.152 104.457 104.752 105.022 105.329 105.644 105.927 106.257 106.517 106.824 107.097 107.404 107.682 107.939 108.224 108.489 108.759 109.004 109.249 109.497 109.732 109.982 110.212 110.467 110.699 110.947 111.152 111.402 111.612 111.864 112.099 112.337 112.582 112.807 113.044 113.269 113.477 113.709 113.919 114.132 114.357 114.539 114.729 114.922 115.112 115.294 115.477 115.654 115.857 116.024 116.214 116.374 116.549 116.752 116.917 117.067 117.242 117.387 117.537 117.722 117.864 118.054 118.189 118.347 118.494 118.639 118.794 118.889 119.107 119.614 120.317 120.879 120.992 120.892 120.357 119.832 119.582 119.709 119.872 120.034 120.422 121.117 122.007 122.587 122.902 122.429 121.862 121.672 121.677 122.347 124.042 124.444 123.387 123.564 123.629 123.734 123.827 123.924 124.039 124.172 124.279 124.399 124.544 124.642 124.742 124.834 124.952 125.027 125.102 125.199 125.289 125.384 125.487 125.612 125.717 125.837 125.944 126.072 126.137 126.254 126.354 126.447 126.524 126.599 126.664 126.727 126.794 126.854 126.917 126.982 127.054 127.104 127.152 127.177 127.212 127.232 127.234 127.224 127.244 127.237 127.252 127.232 127.249 127.237 127.239 127.224 127.229 127.207 127.202 127.207
-9999 -9999 -9999 -9999 -9999 -9999 -9999 -9999 -9999 -9999 -9999 -9999 -9999 -9999 -9999 -9999 -9999 -9999 -9999 -9999 -9999 -9999 -9999 -9999 -9999 -9999 -9999 -9999 -9999 -9999 -9999 -9999 -9999 -9999 -9999 -9999 -9999 -9999 -9999 -9999 -9999 -9999 -9999 -9999 -9999 -9999 -9999 -9999 -9999 -9999 -9999 -9999 -9999 -9999 -9999 -9999 -9999 -9999 -9999 -9999 -9999 -9999 -9999 -9999 -9999 -9999 -9999 -9999 -9999 -9999 -9999 -9999 -9999 -9999 -9999 -9999 -9999 -9999 -9999 -9999 -9999 -9999 -9999 -9999 -9999 -9999 -9999 -9999 -9999 -9999 -9999 -9999 -9999 -9999 -9999 -9999 -9999 -9999 -9999 -9999 -9999 -9999 -9999 -9999 -9999 -9999 -9999 -9999 -9999 -9999 -9999 -9999 -9999 -9999 -9999 -9999 -9999 -9999 -9999 -9999 -9999 -9999 -9999 -9999 -9999 -9999 -9999 -9999 -9999 -9999 -9999 -9999 -9999 -9999 -9999 -9999 -9999 -9999 -9999 -9999 -9999 -9999 -9999 -9999 -9999 -9999 -9999 -9999 -9999 -9999 -9999 -9999 -9999 -9999 -9999 -9999 -9999 -9999 -9999 -9999 -9999 -9999 -9999 -9999 -9999 -9999 -9999 -9999 -9999 -9999 -9999 -9999 -9999 -9999 -9999 -9999 -9999 81.394 81.432 81.452 81.517 81.564 81.579 81.602 81.622 81.572 81.569 81.602 81.572 81.552 81.534 81.512 81.492 81.452 81.402 81.339 81.267 81.189 81.134 81.084 81.032 80.994 80.974 80.907 81.932 81.674 80.907 80.714 80.757 80.794 80.797 80.794 80.754 80.707 81.097 81.779 81.099 81.134 81.217 81.342 81.509 81.782 81.944 82.134 82.337 82.509 82.772 82.994 83.197 83.337 83.549 83.744 83.904 84.254 84.649 84.762 84.917 85.069 85.214 85.397 85.604 85.814 86.009 86.237 86.629 86.917 87.019 87.184 87.374 87.572 87.782 87.982 88.124 88.324 88.524 88.712 88.917 89.179 90.554 92.122 89.849 90.774 90.477 90.329 90.472 90.697 90.909 91.094 91.294 91.482 91.699 91.927 92.139 92.357 92.577 92.822 93.057 93.302 93.527 93.764 94.009 94.274 94.502 94.734 94.982 95.232 95.469 95.724 95.984 96.242 96.497 96.759 97.019 97.284 97.559 97.837 98.114 98.389 98.669 98.932 99.204 99.484 99.747 100.027 100.279 100.519 100.777 101.049 101.314 101.577 101.842 102.087 102.322 102.559 102.842 103.114 103.379 103.647 103.934 104.207 104.512 104.789 105.074 105.399 105.684 106.004 106.277 106.572 106.854 107.167 107.427 107.697 107.959 108.252 108.504 108.767 109.012 109.272 109.509 109.744 110.004 110.219 110.469 110.704 110.957 111.169 111.419 111.647 111.889 112.142 112.367 112.599 112.832 113.049 113.297 113.504 113.742 113.949 114.152 114.357 114.544 114.737 114.927 115.132 115.319 115.504 115.737 115.854 116.032 116.202 116.377 116.562 116.744 116.899 117.072 117.234 117.384 117.567 117.699 117.879 118.057 118.194 118.367 118.517 118.682 118.847 119.002 119.162 119.347 119.459 119.767 120.164 120.579 121.277 121.414 121.032 120.802 120.264 120.147 120.287 120.434 120.654 120.979 121.587 122.134 121.467 121.437 121.524 122.177 123.662 124.319 123.329 123.489 123.614 123.702 123.822 123.932 124.037 124.169 124.274 124.387 124.487 124.604 124.697 124.794 124.902 124.974 125.054 125.137 125.244 125.344 125.444 125.542 125.667 125.769 125.887 125.994 126.097 126.192 126.299 126.384 126.467 126.539 126.599 126.649 126.704 126.787 126.842 126.922 126.957 127.019 127.059 127.107 127.132 127.142 127.144 127.167 127.147 127.142 127.147 127.129 127.137 127.139 127.144 127.119 127.114 127.109 127.102 127.102
-9999 -9999 -9999 -9999 -9999 -9999 -9999 -9999 -9999 -9999 -9999 -9999 -9999 -9999 -9999 -9999 -9999 -9999 -9999 -9999 -9999 -9999 -9999 -9999 -9999 -9999 -9999 -9999 -9999 -9999 -9999 -9999 -9999 -9999 -9999 -9999 -9999 -9999 -9999 -9999 -9999 -9999 -9999 -9999 -9999 -9999 -9999 -9999 -9999 -9999 -9999 -9999 -9999 -9999 -9999 -9999 -9999 -9999 -9999 -9999 -9999 -9999 -9999 -9999 -9999 -9999 -9999 -9999 -9999 -9999 -9999 -9999 -9999 -9999 -9999 -9999 -9999 -9999 -9999 -9999 -9999 -9999 -9999 -9999 -9999 -9999 -9999 -9999 -9999 -9999 -9999 -9999 -9999 -9999 -9999 -9999 -9999 -9999 -9999 -9999 -9999 -9999 -9999 -9999 -9999 -9999 -9999 -9999 -9999 -9999 -9999 -9999 -9999 -9999 -9999 -9999 -9999 -9999 -9999 -9999 -9999 -9999 -9999 -9999 -9999 -9999 -9999 -9999 -9999 -9999 -9999 -9999 -9999 -9999 -9999 -9999 -9999 -9999 -9999 -9999 -9999 -9999 -9999 -9999 -9999 -9999 -9999 -9999 -9999 -9999 -9999 -9999 -9999 -9999 -9999 -9999 -9999 -9999 -9999 -9999 -9999 -9999 -9999 -9999 -9999 -9999 -9999 -9999 -9999 -9999 -9999 -9999 -9999 -9999 -9999 -9999 -9999 81.169 81.174 81.249 81.327 81.354 81.379 81.384 81.382 81.362 81.357 81.372 81.329 81.332 81.317 81.274 81.244 81.202 81.157 81.097 81.019 80.967 80.917 80.872 80.849 80.787 80.747 80.687 81.699 81.709 80.774 80.584 80.629 80.669 80.679 80.687 80.639 80.597 81.014 81.824 80.994 81.082 81.179 81.289 81.502 81.782 81.952 82.119 82.304 82.499 82.762 82.974 83.169 83.334 83.537 83.732 83.929 84.319 84.592 84.714 84.889 85.017 85.174 85.372 85.599 85.822 85.989 86.292 86.692 86.892 87.002 87.182 87.377 87.577 87.789 87.964 88.132 88.337 88.524 88.739 88.929 89.577 90.634 90.259 90.199 91.577 90.452 90.307 90.464 90.672 90.892 91.104 91.302 91.527 91.722 91.899 92.149 92.372 92.604 92.847 93.059 93.299 93.557 93.792 94.034 94.284 94.517 94.754 95.014 95.259 95.514 95.772 96.039 96.294 96.542 96.804 97.074 97.339 97.607 97.892 98.164 98.457 98.717 99.002 99.279 99.534 99.814 100.099 100.334 100.589 100.877 101.127 101.374 101.642 101.909 102.164 102.399 102.664 102.932 103.214 103.452 103.732 104.012 104.304 104.572 104.849 105.157 105.449 105.752 106.029 106.327 106.622 106.887 107.157 107.459 107.722 107.989 108.272 108.519 108.779 109.042 109.279 109.522 109.772 110.012 110.249 110.502 110.709 110.964 111.194 111.417 111.657 111.899 112.134 112.387 112.597 112.822 113.079 113.297 113.514 113.747 113.967 114.169 114.379 114.564 114.767 114.957 115.139 115.327 115.497 115.682 115.839 116.054 116.197 116.367 116.564 116.714 116.897 117.082 117.232 117.384 117.562 117.704 117.894 118.049 118.202 118.379 118.524 118.694 118.852 119.024 119.187 119.357 119.507 119.657 119.779 119.914 120.234 120.567 121.199 121.707 121.937 121.577 120.982 120.664 120.709 120.827 120.922 121.029 121.192 121.332 121.462 122.029 123.387 124.207 123.287 123.462 123.592 123.684 123.789 123.884 124.007 124.142 124.254 124.372 124.477 124.607 124.684 124.774 124.859 124.909 124.989 125.099 125.172 125.284 125.384 125.474 125.609 125.692 125.812 125.917 126.017 126.147 126.222 126.292 126.372 126.442 126.522 126.569 126.607 126.697 126.754 126.822 126.892 126.934 126.992 127.014 127.039 127.062 127.079 127.079 127.054 127.059 127.052 127.049 127.054 127.054 127.039 127.037 127.019 126.979 126.974 126.967
-9999 -9999 -9999 -9999 -9999 -9999 -9999 -9999 -9999 -9999 -9999 -9999 -9999 -9999 -9999 -9999 -9999 -9999 -9999 -9999 -9999 -9999 -9999 -9999 -9999 -9999 -9999 -9999 -9999 -9999 -9999 -9999 -9999 -9999 -9999 -9999 -9999 -9999 -9999 -9999 -9999 -9999 -9999 -9999 -9999 -9999 -9999 -9999 -9999 -9999 -9999 -9999 -9999 -9999 -9999 -9999 -9999 -9999 -9999 -9999 -9999 -9999 -9999 -9999 -9999 -9999 -9999 -9999 -9999 -9999 -9999 -9999 -9999 -9999 -9999 -9999 -9999 -9999 -9999 -9999 -9999 -9999 -9999 -9999 -9999 -9999 -9999 -9999 -9999 -9999 -9999 -9999 -9999 -9999 -9999 -9999 -9999 -9999 -9999 -9999 -9999 -9999 -9999 -9999 -9999 -9999 -9999 -9999 -9999 -9999 -9999 -9999 -9999 -9999 -9999 -9999 -9999 -9999 -9999 -9999 -9999 -9999 -9999 -9999 -9999 -9999 -9999 -9999 -9999 -9999 -9999 -9999 -9999 -9999 -9999 -9999 -9999 -9999 -9999 -9999 -9999 -9999 -9999 -9999 -9999 -9999 -9999 -9999 -9999 -9999 -9999 -9999 -9999 -9999 -9999 -9999 -9999 -9999 -9999 -9999 -9999 -9999 -9999 -9999 -9999 -9999 -9999 -9999 -9999 -9999 -9999 -9999 -9999 -9999 -9999 -9999 80.864 80.917 80.997 81.049 81.114 81.162 81.182 81.179 81.179 81.167 81.147 81.137 81.114 81.094 81.067 81.032 80.987 80.942 80.894 80.857 80.797 80.739 80.712 80.669 80.644 80.579 80.499 80.384 81.274 81.537 80.739 80.437 80.487 80.542 80.562 80.589 80.559 80.499 81.099 81.652 80.967 81.024 81.152 81.254 81.517 81.784 81.947 82.137 82.302 82.509 82.747 82.974 83.159 83.332 83.524 83.717 83.949 84.354 84.537 84.679 84.869 84.987 85.157 85.364 85.602 85.789 85.967 86.317 86.712 86.867 86.969 87.159 87.364 87.574 87.787 87.937 88.112 88.329 88.542 88.782 89.042 90.524 90.804 90.232 92.064 90.927 90.249 90.324 90.647 90.789 90.984 91.169 91.364 91.582 91.782 91.967 92.224 92.429 92.657 92.892 93.102 93.367 93.607 93.844 94.067 94.287 94.542 94.809 95.047 95.282 95.552 95.814 96.074 96.344 96.602 96.852 97.127 97.407 97.689 97.929 98.237 98.514 98.789 99.089 99.367 99.634 99.904 100.177 100.437 100.692 100.937 101.207 101.452 101.689 101.939 102.192 102.449 102.729 102.964 103.242 103.504 103.764 104.057 104.319 104.619 104.887 105.184 105.477 105.789 106.072 106.374 106.654 106.934 107.212 107.477 107.744 108.019 108.287 108.552 108.809 109.079 109.317 109.557 109.804 110.022 110.259 110.497 110.732 110.972 111.182 111.422 111.667 111.897 112.149 112.357 112.594 112.832 113.052 113.292 113.514 113.734 113.954 114.169 114.367 114.574 114.752 114.942 115.134 115.304 115.517 115.694 115.854 116.037 116.202 116.397 116.567 116.727 116.899 117.062 117.234 117.389 117.524 117.692 117.854 118.017 118.187 118.349 118.524 118.687 118.852 119.027 119.184 119.364 119.512 119.654 119.799 119.972 120.122 120.284 120.429 120.609 121.032 121.924 122.247 122.159 121.722 121.369 121.157 121.194 121.317 121.422 121.544 121.819 123.212 124.262 123.384 123.372 123.537 123.667 123.767 123.869 123.994 124.117 124.244 124.362 124.474 124.587 124.674 124.749 124.844 124.889 124.972 125.054 125.152 125.232 125.334 125.444 125.552 125.672 125.774 125.872 125.964 126.047 126.142 126.207 126.292 126.359 126.414 126.499 126.577 126.624 126.684 126.737 126.817 126.849 126.907 126.942 126.967 126.979 127.007 126.974 126.987 126.972 126.972 126.972 126.964 126.972 126.954 126.942 126.924 126.887 126.864 126.857
-9999 -9999 -9999 -9999 -9999 -9999 -9999 -9999 -9999 -9999 -9999 -9999 -9999 -9999 -9999 -9999 -9999 -9999 -9999 -9999 -9999 -9999 -9999 -9999 -9999 -9999 -9999 -9999 -9999 -9999 -9999 -9999 -9999 -9999 -9999 -9999 -9999 -9999 -9999 -9999 -9999 -9999 -9999 -9999 -9999 -9999 -9999 -9999 -9999 -9999 -9999 -9999 -9999 -9999 -9999 -9999 -9999 -9999 -9999 -9999 -9999 -9999 -9999 -9999 -9999 -9999 -9999 -9999 -9999 -9999 -9999 -9999 -9999 -9999 -9999 -9999 -9999 -9999 -9999 -9999 -9999 -9999 -9999 -9999 -9999 -9999 -9999 -9999 -9999 -9999 -9999 -9999 -9999 -9999 -9999 -9999 -9999 -9999 -9999 -9999 -9999 -9999 -9999 -9999 -9999 -9999 -9999 -9999 -9999 -9999 -9999 -9999 -9999 -9999 -9999 -9999 -9999 -9999 -9999 -9999 -9999 -9999 -9999 -9999 -9999 -9999 -9999 -9999 -9999 -9999 -9999 -9999 -9999 -9999 -9999 -9999 -9999 -9999 -9999 -9999 -9999 -9999 -9999 -9999 -9999 -9999 -9999 -9999 -9999 -9999 -9999 -9999 -9999 -9999 -9999 -9999 -9999 -9999 -9999 -9999 -9999 -9999 -9999 -9999 -9999 -9999 -9999 -9999 -9999 -9999 -9999 -9999 -9999 -9999 -9999 -9999 80.674 80.692 80.752 80.827 80.884 80.924 80.964 80.979 80.959 80.944 80.927 80.922 80.909 80.877 80.842 80.812 80.762 80.707 80.649 80.607 80.569 80.527 80.482 80.457 80.409 80.342 80.229 80.507 81.209 81.209 80.419 80.327 80.397 80.419 80.479 80.499 80.444 80.417 81.037 81.554 80.894 80.992 81.127 81.229 81.494 81.752 81.924 82.124 82.289 82.522 82.757 82.974 83.154 83.334 83.529 83.674 83.964 84.359 84.494 84.642 84.802 84.949 85.137 85.354 85.584 85.759 85.964 86.374 86.689 86.827 86.952 87.164 87.369 87.582 87.779 87.919 88.122 88.319 88.564 88.774 89.329 90.669 91.279 90.504 90.864 90.792 90.292 90.624 91.604 91.627 91.857 92.062 92.179 92.257 92.439 92.464 92.692 92.864 92.937 93.049 93.307 93.497 93.694 93.944 94.167 94.387 94.617 94.872 95.122 95.374 95.637 95.869 96.139 96.409 96.667 96.939 97.209 97.497 97.749 98.009 98.302 98.569 98.869 99.152 99.424 99.702 99.984 100.234 100.519 100.759 101.019 101.269 101.509 101.754 102.014 102.252 102.509 102.779 103.042 103.299 103.542 103.812 104.097 104.377 104.674 104.947 105.232 105.532 105.809 106.097 106.402 106.649 106.962 107.224 107.487 107.762 108.014 108.287 108.542 108.794 109.037 109.302 109.552 109.784 110.024 110.257 110.484 110.717 110.962 111.184 111.427 111.662 111.894 112.142 112.369 112.617 112.852 113.052 113.299 113.539 113.762 113.982 114.172 114.392 114.567 114.772 114.952 115.134 115.324 115.509 115.674 115.842 116.027 116.219 116.409 116.559 116.732 116.897 117.044 117.212 117.367 117.514 117.684 117.849 118.017 118.162 118.349 118.497 118.657 118.827 118.992 119.189 119.334 119.497 119.649 119.802 119.969 120.159 120.319 120.474 120.627 120.779 120.972 121.149 121.667 122.264 122.732 122.844 122.622 122.034 121.554 121.634 121.724 122.412 123.817 123.782 123.339 123.482 123.649 123.739 123.844 123.972 124.099 124.239 124.337 124.437 124.539 124.634 124.734 124.814 124.869 124.927 125.017 125.099 125.179 125.282 125.374 125.494 125.599 125.702 125.797 125.889 125.974 126.057 126.132 126.204 126.269 126.339 126.414 126.487 126.544 126.609 126.679 126.719 126.772 126.812 126.849 126.879 126.887 126.904 126.892 126.889 126.879 126.894 126.882 126.889 126.889 126.882 126.852 126.824 126.819 126.764 126.742
-9999 -9999 -9999 -9999 -9999 -9999 -9999 -9999 -9999 -9999 -9999 -9999 -9999 -9999 -9999 -9999 -9999 -9999 -9999 -9999 -9999 -9999 -9999 -9999 -9999 -9999 -9999 -9999 -9999 -9999 -9999 -9999 -9999 -9999 -9999 -9999 -9999 -9999 -9999 -9999 -9999 -9999 -9999 -9999 -9999 -9999 -9999 -9999 -9999 -9999 -9999 -9999 -9999 -9999 -9999 -9999 -9999 -9999 -9999 -9999 -9999 -9999 -9999 -9999 -9999 -9999 -9999 -9999 -9999 -9999 -9999 -9999 -9999 -9999 -9999 -9999 -9999 -9999 -9999 -9999 -9999 -9999 -9999 -9999 -9999 -9999 -9999 -9999 -9999 -9999 -9999 -9999 -9999 -9999 -9999 -9999 -9999 -9999 -9999 -9999 -9999 -9999 -9999 -9999 -9999 -9999 -9999 -9999 -9999 -9999 -9999 -9999 -9999 -9999 -9999 -9999 -9999 -9999 -9999 -9999 -9999 -9999 -9999 -9999 -9999 -9999 -9999 -9999 -9999 -9999 -9999 -9999 -9999 -9999 -9999 -9999 -9999 -9999 -9999 -9999 -9999 -9999 -9999 -9999 -9999 -9999 -9999 -9999 -9999 -9999 -9999 -9999 -9999 -9999 -9999 -9999 -9999 -9999 -9999 -9999 -9999 -9999 -9999 -9999 -9999 -9999 -9999 -9999 -9999 -9999 -9999 -9999 -9999 -9999 -9999 -9999 80.277 80.369 80.472 80.592 80.662 80.722 80.744 80.752 80.792 80.759 80.722 80.684 80.687 80.664 80.612 80.592 80.532 80.497 80.442 80.382 80.344 80.319 80.287 80.242 80.152 80.052 80.187 81.047 81.019 80.354 80.122 80.212 80.254 80.294 80.372 80.399 80.349 80.317 81.192 81.182 80.834 80.967 81.082 81.229 81.509 81.737 81.904 82.067 82.314 82.552 82.774 82.979 83.152 83.357 83.514 83.679 84.009 84.342 84.447 84.629 84.772 84.919 85.119 85.344 85.559 85.719 85.974 86.434 86.664 86.757 86.949 87.137 87.362 87.564 87.749 87.922 88.142 88.357 88.594 88.797 90.104 91.399 89.977 89.852 89.829 90.072 90.259 90.349 90.719 91.127 91.614 91.777 92.014 92.472 92.719 93.099 93.347 93.594 93.839 94.014 94.327 94.502 94.572 94.639 94.877 95.084 95.264 95.474 95.604 95.849 96.034 96.229 96.492 96.799 96.927 97.129 97.342 97.614 97.854 98.124 98.434 98.689 98.989 99.269 99.544 99.819 100.082 100.367 100.609 100.829 101.087 101.344 101.592 101.847 102.074 102.332 102.577 102.839 103.087 103.342 103.597 103.877 104.167 104.444 104.712 104.984 105.284 105.572 105.854 106.142 106.409 106.707 106.977 107.247 107.527 107.772 108.037 108.284 108.539 108.814 109.054 109.307 109.552 109.772 110.012 110.267 110.484 110.727 110.937 111.164 111.394 111.624 111.854 112.089 112.324 112.567 112.802 113.022 113.284 113.517 113.714 113.937 114.144 114.364 114.552 114.739 114.917 115.119 115.304 115.492 115.687 115.854 116.022 116.209 116.384 116.562 116.724 116.887 117.062 117.219 117.369 117.502 117.669 117.827 117.997 118.157 118.337 118.494 118.662 118.819 118.972 119.149 119.297 119.439 119.617 119.789 119.954 120.147 120.299 120.464 120.627 120.812 121.047 121.077 121.204 121.324 121.642 122.344 122.922 122.507 121.769 121.719 121.809 121.959 123.182 123.912 123.742 123.467 123.609 123.744 123.834 123.962 124.114 124.217 124.332 124.439 124.522 124.604 124.704 124.792 124.852 124.897 124.977 125.062 125.149 125.259 125.349 125.424 125.529 125.639 125.754 125.837 125.899 125.984 126.057 126.114 126.182 126.234 126.317 126.397 126.477 126.517 126.569 126.627 126.682 126.727 126.759 126.799 126.802 126.792 126.804 126.802 126.809 126.802 126.819 126.782 126.797 126.782 126.764 126.734 126.692 126.667 126.634
-9999 -9999 -9999 -9999 -9999 -9999 -9999 -9999 -9999 -9999 -9999 -9999 -9999 -9999 -9999 -9999 -9999 -9999 -9999 -9999 -9999 -9999 -9999 -9999 -9999 -9999 -9999 -9999 -9999 -9999 -9999 -9999 -9999 -9999 -9999 -9999 -9999 -9999 -9999 -9999 -9999 -9999 -9999 -9999 -9999 -9999 -9999 -9999 -9999 -9999 -9999 -9999 -9999 -9999 -9999 -9999 -9999 -9999 -9999 -9999 -9999 -9999 -9999 -9999 -9999 -9999 -9999 -9999 -9999 -9999 -9999 -9999 -9999 -9999 -9999 -9999 -9999 -9999 -9999 -9999 -9999 -9999 -9999 -9999 -9999 -9999 -9999 -9999 -9999 -9999 -9999 -9999 -9999 -9999 -9999 -9999 -9999 -9999 -9999 -9999 -9999 -9999 -9999 -9999 -9999 -9999 -9999 -9999 -9999 -9999 -9999 -9999 -9999 -9999 -9999 -9999 -9999 -9999 -9999 -9999 -9999 -9999 -9999 -9999 -9999 -9999 -9999 -9999 -9999 -9999 -9999 -9999 -9999 -9999 -9999 -9999 -9999 -9999 -9999 -9999 -9999 -9999 -9999 -9999 -9999 -9999 -9999 -9999 -9999 -9999 -9999 -9999 -9999 -9999 -9999 -9999 -9999 -9999 -9999 -9999 -9999 -9999 -9999 -9999 -9999 -9999 -9999 -9999 -9999 -9999 -9999 -9999 -9999 -9999 -9999 79.714 79.822 79.859 79.989 80.157 80.297 80.389 80.434 80.479 80.527 80.532 80.509 80.499 80.509 80.457 80.407 80.362 80.324 80.282 80.224 80.182 80.159 80.127 80.044 79.959 79.977 80.189 80.729 80.842 80.272 79.872 79.957 80.039 80.099 80.189 80.257 80.279 80.252 80.214 81.117 81.157 80.772 80.944 81.039 81.209 81.547 81.739 81.939 82.117 82.322 82.554 82.787 82.989 83.149 83.364 83.484 83.687 84.092 84.329 84.449 84.609 84.762 84.914 85.102 85.299 85.522 85.719 86.059 86.487 86.637 86.697 86.924 87.149 87.354 87.544 87.719 87.919 88.132 88.357 88.569 89.139 90.379 90.059 89.457 89.767 89.874 90.164 90.304 90.474 90.652 90.822 91.042 91.302 91.499 91.714 91.962 92.217 92.507 92.764 93.112 93.539 93.787 94.242 94.492 94.922 95.124 95.567 95.902 96.184 96.472 96.739 97.044 97.207 97.717 97.964 98.234 98.632 98.629 98.769 98.989 99.189 99.349 99.599 100.044 100.129 100.282 100.424 100.699 100.914 101.149 101.354 101.427 101.647 101.742 102.067 102.197 102.472 102.704 102.947 103.169 103.432 103.694 103.952 104.239 104.527 104.787 105.049 105.352 105.617 105.909 106.192 106.477 106.744 106.997 107.272 107.549 107.824 108.072 108.309 108.577 108.849 109.092 109.324 109.577 109.812 110.037 110.259 110.472 110.707 110.922 111.154 111.377 111.609 111.819 112.057 112.304 112.557 112.787 113.024 113.252 113.477 113.707 113.914 114.137 114.347 114.537 114.729 114.907 115.097 115.272 115.477 115.642 115.839 116.037 116.199 116.367 116.544 116.702 116.872 117.042 117.202 117.379 117.517 117.672 117.819 117.982 118.154 118.314 118.484 118.647 118.787 118.949 119.114 119.244 119.439 119.589 119.747 119.939 120.109 120.272 120.442 120.599 120.769 120.992 121.077 121.232 121.379 121.544 121.672 121.734 121.847 122.499 122.799 122.077 121.984 122.154 123.382 124.089 124.007 123.644 123.724 123.844 123.942 124.084 124.199 124.294 124.382 124.489 124.579 124.654 124.707 124.794 124.874 124.954 125.022 125.102 125.197 125.289 125.394 125.499 125.607 125.682 125.777 125.849 125.907 125.972 126.034 126.117 126.179 126.239 126.307 126.369 126.427 126.472 126.554 126.584 126.627 126.664 126.692 126.722 126.724 126.712 126.697 126.712 126.682 126.727 126.714 126.699 126.699 126.667 126.647 126.594 126.574 126.532
-9999 -9999 -9999 -9999 -9999 -9999 -9999 -9999 -9999 -9999 -9999 -9999 -9999 -9999 -9999 -9999 -9999 -9999 -9999 -9999 -9999 -9999 -9999 -9999 -9999 -9999 -9999 -9999 -9999 -9999 -9999 -9999 -9999 -9999 -9999 -9999 -9999 -9999 -9999 -9999 -9999 -9999 -9999 -9999 -9999 -9999 -9999 -9999 -9999 -9999 -9999 -9999 -9999 -9999 -9999 -9999 -9999 -9999 -9999 -9999 -9999 -9999 -9999 -9999 -9999 -9999 -9999 -9999 -9999 -9999 -9999 -9999 -9999 -9999 -9999 -9999 -9999 -9999 -9999 -9999 -9999 -9999 -9999 -9999 -9999 -9999 -9999 -9999 -9999 -9999 -9999 -9999 -9999 -9999 -9999 -9999 -9999 -9999 -9999 -9999 -9999 -9999 -9999 -9999 -9999 -9999 -9999 -9999 -9999 -9999 -9999 -9999 -9999 -9999 -9999 -9999 -9999 -9999 -9999 -9999 -9999 -9999 -9999 -9999 -9999 -9999 -9999 -9999 -9999 -9999 -9999 -9999 -9999 -9999 -9999 -9999 -9999 -9999 -9999 -9999 -9999 -9999 -9999 -9999 -9999 -9999 -9999 -9999 -9999 -9999 -9999 -9999 -9999 -9999 -9999 -9999 -9999 -9999 -9999 -9999 -9999 -9999 -9999 -9999 -9999 -9999 -9999 -9999 -9999 -9999 -9999 -9999 -9999 -9999 -9999 79.539 79.537 79.512 79.517 79.587 79.744 79.884 79.984 80.067 80.147 80.192 80.234 80.272 80.289 80.289 80.224 80.184 80.147 80.109 80.047 79.994 79.942 79.887 79.822 80.034 80.492 80.397 80.384 79.744 79.469 79.617 79.782 79.829 79.934 80.007 80.097 80.139 80.127 80.222 81.217 81.097 80.742 80.887 81.029 81.234 81.509 81.724 81.919 82.127 82.339 82.572 82.797 82.997 83.152 83.344 83.492 83.722 84.137 84.284 84.412 84.567 84.729 84.892 85.059 85.317 85.484 85.712 86.099 86.469 86.534 86.669 86.869 87.117 87.339 87.519 87.709 87.929 88.132 88.359 88.617 89.602 89.982 89.397 89.429 89.682 89.997 90.179 90.389 90.557 90.737 90.909 91.109 91.332 91.569 91.812 92.054 92.279 92.519 92.759 92.997 93.262 93.509 93.767 94.009 94.259 94.537 94.827 95.134 95.384 95.704 95.987 96.452 96.667 96.997 97.277 97.599 98.034 98.224 98.727 99.067 99.259 99.657 99.964 100.227 100.322 101.009 101.404 101.707 101.967 102.094 102.452 102.699 102.869 102.889 103.174 103.304 103.534 103.554 103.677 103.849 104.007 104.272 104.619 104.887 105.089 105.272 105.559 105.592 105.819 106.069 106.397 106.604 106.832 107.074 107.364 107.622 107.879 108.132 108.389 108.652 108.877 109.147 109.382 109.609 109.842 110.084 110.289 110.534 110.749 110.962 111.187 111.409 111.622 111.839 112.067 112.304 112.529 112.789 113.027 113.239 113.472 113.689 113.917 114.134 114.347 114.544 114.734 114.939 115.124 115.304 115.479 115.657 115.857 116.032 116.202 116.384 116.549 116.729 116.887 117.052 117.207 117.364 117.519 117.674 117.824 117.972 118.137 118.299 118.462 118.634 118.789 118.949 119.097 119.252 119.409 119.589 119.767 119.934 120.122 120.264 120.414 120.594 120.739 120.922 121.067 121.204 121.344 121.482 121.587 121.689 122.189 123.497 123.829 123.239 122.442 122.174 122.379 123.182 124.134 124.487 124.064 123.784 123.927 124.027 124.134 124.269 124.347 124.434 124.519 124.614 124.662 124.729 124.799 124.867 124.959 125.022 125.124 125.239 125.352 125.434 125.532 125.637 125.724 125.794 125.852 125.922 125.989 126.064 126.129 126.179 126.247 126.299 126.359 126.417 126.459 126.482 126.532 126.559 126.584 126.607 126.607 126.607 126.592 126.597 126.604 126.627 126.629 126.624 126.607 126.589 126.567 126.512 126.459 126.459
-9999 -9999 -9999 -9999 -9999 -9999 -9999 -9999 -9999 -9999 -9999 -9999 -9999 -9999 -9999 -9999 -9999 -9999 -9999 -9999 -9999 -9999 -9999 -9999 -9999 -9999 -9999 -9999 -9999 -9999 -9999 -9999 -9999 -9999 -9999 -9999 -9999 -9999 -9999 -9999 -9999 -9999 -9999 -9999 -9999 -9999 -9999 -9999 -9999 -9999 -9999 -9999 -9999 -9999 -9999 -9999 -9999 -9999 -9999 -9999 -9999 -9999 -9999 -9999 -9999 -9999 -9999 -9999 -9999 -9999 -9999 -9999 -9999 -9999 -9999 -9999 -9999 -9999 -9999 -9999 -9999 -9999 -9999 -9999 -9999 -9999 -9999 -9999 -9999 -9999 -9999 -9999 -9999 -9999 -9999 -9999 -9999 -9999 -9999 -9999 -9999 -9999 -9999 -9999 -9999 -9999 -9999 -9999 -9999 -9999 -9999 -9999 -9999 -9999 -9999 -9999 -9999 -9999 -9999 -9999 -9999 -9999 -9999 -9999 -9999 -9999 -9999 -9999 -9999 -9999 -9999 -9999 -9999 -9999 -9999 -9999 -9999 -9999 -9999 -9999 -9999 -9999 -9999 -9999 -9999 -9999 -9999 -9999 -9999 -9999 -9999 -9999 -9999 -9999 -9999 -9999 -9999 -9999 -9999 -9999 -9999 -9999 -9999 -9999 -9999 -9999 -9999 -9999 -9999 -9999 -9999 -9999 -9999 -9999 -9999 79.594 79.539 79.472 79.374 79.254 79.227 79.232 79.274 79.449 79.602 79.692 79.834 79.967 80.039 80.047 80.022 80.007 79.957 79.927 79.872 79.787 79.677 79.704 80.249 80.814 80.692 80.847 79.214 79.287 79.497 79.462 79.579 79.692 79.752 79.834 79.959 80.004 80.007 80.052 81.234 80.932 80.707 80.859 81.002 81.234 81.514 81.727 81.919 82.107 82.349 82.594 82.819 82.994 83.162 83.339 83.502 83.799 84.159 84.249 84.394 84.552 84.684 84.842 85.057 85.289 85.442 85.702 86.112 86.392 86.457 86.614 86.847 87.094 87.304 87.479 87.679 87.909 88.117 88.362 88.764 90.077 89.594 89.279 89.469 89.769 90.034 90.247 90.412 90.602 90.772 90.947 91.177 91.402 91.629 91.852 92.099 92.322 92.577 92.812 93.064 93.319 93.577 93.827 94.094 94.354 94.619 94.889 95.164 95.434 95.727 96.027 96.299 96.589 96.884 97.172 97.459 97.752 98.027 98.307 98.619 98.887 99.159 99.414 99.689 99.939 100.167 100.477 100.722 101.034 101.304 101.507 101.902 102.247 102.472 102.934 103.154 103.382 103.489 104.007 104.264 104.489 105.017 105.277 105.614 105.897 106.142 106.469 106.572 106.899 107.044 107.332 107.514 107.767 107.959 108.292 108.557 108.687 108.887 109.022 109.287 109.604 109.804 109.934 110.067 110.329 110.462 110.664 110.747 110.892 111.137 111.339 111.507 111.704 111.929 112.142 112.367 112.592 112.817 113.039 113.294 113.489 113.717 113.944 114.144 114.367 114.559 114.774 114.974 115.147 115.329 115.504 115.679 115.867 116.067 116.227 116.432 116.587 116.757 116.909 117.067 117.224 117.364 117.532 117.684 117.849 118.012 118.174 118.314 118.492 118.662 118.814 118.967 119.124 119.304 119.439 119.627 119.779 119.949 120.109 120.262 120.417 120.607 120.754 120.912 121.057 121.209 121.344 121.419 121.519 121.687 122.382 123.704 123.579 123.384 123.359 122.907 122.364 122.484 123.049 124.189 124.632 124.322 123.912 124.049 124.137 124.204 124.302 124.382 124.469 124.562 124.609 124.664 124.744 124.812 124.887 124.964 125.044 125.149 125.277 125.369 125.447 125.552 125.624 125.699 125.767 125.832 125.899 125.967 126.054 126.107 126.159 126.237 126.269 126.319 126.352 126.394 126.434 126.464 126.489 126.514 126.504 126.514 126.514 126.517 126.509 126.522 126.544 126.532 126.532 126.512 126.474 126.447 126.407 126.389
-9999 -9999 -9999 -9999 -9999 -9999 -9999 -9999 -9999 -9999 -9999 -9999 -9999 -9999 -9999 -9999 -9999 -9999 -9999 -9999 -9999 -9999 -9999 -9999 -9999 -9999 -9999 -9999 -9999 -9999 -9999 -9999 -9999 -9999 -9999 -9999 -9999 -9999 -9999 -9999 -9999 -9999 -9999 -9999 -9999 -9999 -9999 -9999 -9999 -9999 -9999 -9999 -9999 -9999 -9999 -9999 -9999 -9999 -9999 -9999 -9999 -9999 -9999 -9999 -9999 -9999 -9999 -9999 -9999 -9999 -9999 -9999 -9999 -9999 -9999 -9999 -9999 -9999 -9999 -9999 -9999 -9999 -9999 -9999 -9999 -9999 -9999 -9999 -9999 -9999 -9999 -9999 -9999 -9999 -9999 -9999 -9999 -9999 -9999 -9999 -9999 -9999 -9999 -9999 -9999 -9999 -9999 -9999 -9999 -9999 -9999 -9999 -9999 -9999 -9999 -9999 -9999 -9999 -9999 -9999 -9999 -9999 -9999 -9999 -9999 -9999 -9999 -9999 -9999 -9999 -9999 -9999 -9999 -9999 -9999 -9999 -9999 -9999 -9999 -9999 -9999 -9999 -9999 -9999 -9999 -9999 -9999 -9999 -9999 -9999 -9999 -9999 -9999 -9999 -9999 -9999 -9999 -9999 -9999 -9999 -9999 -9999 -9999 -9999 -9999 -9999 -9999 -9999 -9999 -9999 -9999 -9999 -9999 -9999 78.884 78.954 79.129 79.367 79.307 79.222 79.034 78.949 78.872 78.977 79.089 79.187 79.324 79.542 79.719 79.797 79.832 79.789 79.764 79.717 79.627 79.692 80.142 80.337 80.724 82.064 80.457 78.622 78.762 79.187 79.339 79.332 79.409 79.514 79.569 79.659 79.794 79.852 79.899 80.054 81.137 80.727 80.664 80.814 80.982 81.237 81.504 81.742 81.899 82.119 82.357 82.592 82.799 82.959 83.139 83.297 83.514 83.892 84.164 84.247 84.382 84.512 84.664 84.844 85.047 85.219 85.389 85.722 86.114 86.349 86.409 86.592 86.822 87.059 87.267 87.452 87.637 87.907 88.132 88.399 89.444 89.619 89.122 89.187 89.522 89.807 90.052 90.274 90.412 90.632 90.824 91.012 91.227 91.464 91.687 91.919 92.152 92.389 92.632 92.877 93.144 93.392 93.642 93.892 94.182 94.442 94.697 94.952 95.222 95.507 95.799 96.072 96.364 96.649 96.942 97.219 97.537 97.819 98.112 98.399 98.669 98.957 99.234 99.509 99.777 100.017 100.262 100.552 100.769 101.022 101.284 101.494 101.754 102.017 102.237 102.484 102.732 102.957 103.199 103.429 103.669 103.907 104.154 104.479 104.849 105.154 105.372 105.722 106.157 106.419 106.689 106.969 107.274 107.732 107.869 108.209 108.547 108.774 109.092 109.244 109.544 109.984 110.202 110.507 110.727 110.889 111.322 111.534 111.764 111.939 112.052 112.222 112.534 112.679 112.807 112.944 113.044 113.259 113.522 113.774 114.014 114.132 114.237 114.397 114.644 114.799 115.092 115.244 115.564 115.612 115.639 115.802 116.107 116.192 116.462 116.567 116.687 116.889 116.932 117.194 117.239 117.394 117.637 117.719 117.947 118.099 118.287 118.399 118.567 118.739 118.989 119.252 119.197 119.327 119.469 119.677 119.857 119.987 120.137 120.354 120.417 120.604 120.807 121.009 121.184 121.202 121.277 121.389 121.549 121.699 121.782 122.677 123.549 122.597 122.619 122.782 123.487 123.374 122.642 122.692 122.939 123.897 124.539 124.567 124.122 124.099 124.217 124.272 124.352 124.442 124.487 124.559 124.597 124.679 124.744 124.817 124.894 124.972 125.079 125.194 125.279 125.369 125.449 125.529 125.607 125.679 125.742 125.792 125.894 125.969 126.022 126.077 126.147 126.194 126.214 126.259 126.292 126.329 126.372 126.402 126.417 126.414 126.422 126.407 126.414 126.434 126.462 126.469 126.474 126.454 126.417 126.397 126.349 126.319 126.284
-9999 -9999 -9999 -9999 -9999 -9999 -9999 -9999 -9999 -9999 -9999 -9999 -9999 -9999 -9999 -9999 -9999 -9999 -9999 -9999 -9999 -9999 -9999 -9999 -9999 -9999 -9999 -9999 -9999 -9999 -9999 -9999 -9999 -9999 -9999 -9999 -9999 -9999 -9999 -9999 -9999 -9999 -9999 -9999 -9999 -9999 -9999 -9999 -9999 -9999 -9999 -9999 -9999 -9999 -9999 -9999 -9999 -9999 -9999 -9999 -9999 -9999 -9999 -9999 -9999 -9999 -9999 -9999 -9999 -9999 -9999 -9999 -9999 -9999 -9999 -9999 -9999 -9999 -9999 -9999 -9999 -9999 -9999 -9999 -9999 -9999 -9999 -9999 -9999 -9999 -9999 -9999 -9999 -9999 -9999 -9999 -9999 -9999 -9999 -9999 -9999 -9999 -9999 -9999 -9999 -9999 -9999 -9999 -9999 -9999 -9999 -9999 -9999 -9999 -9999 -9999 -9999 -9999 -9999 -9999 -9999 -9999 -9999 -9999 -9999 -9999 -9999 -9999 -9999 -9999 -9999 -9999 -9999 -9999 -9999 -9999 -9999 -9999 -9999 -9999 -9999 -9999 -9999 -9999 -9999 -9999 -9999 -9999 -9999 -9999 -9999 -9999 -9999 -9999 -9999 -9999 -9999 -9999 -9999 -9999 -9999 -9999 -9999 -9999 -9999 -9999 -9999 -9999 -9999 -9999 -9999 -9999 -9999 -9999 77.529 77.687 78.227 78.657 78.997 78.932 78.907 78.644 78.619 78.594 78.692 78.879 79.419 79.259 79.747 79.749 79.702 79.812 79.907 80.067 79.799 80.029 80.222 80.834 81.357 79.754 79.192 78.662 78.944 79.152 79.239 79.234 79.257 79.357 79.429 79.564 79.677 79.762 79.789 80.134 81.047 80.542 80.619 80.802 80.969 81.267 81.502 81.739 81.914 82.112 82.387 82.589 82.784 82.954 83.152 83.312 83.564 83.964 84.147 84.219 84.352 84.489 84.639 84.819 85.017 85.194 85.387 85.724 86.119 86.259 86.334 86.557 86.779 87.012 87.262 87.419 87.634 87.879 88.124 88.494 89.934 89.564 88.957 89.244 89.574 89.839 90.067 90.249 90.449 90.644 90.864 91.077 91.267 91.514 91.722 91.944 92.184 92.444 92.682 92.952 93.194 93.454 93.729 93.977 94.252 94.502 94.777 95.052 95.342 95.622 95.862 96.174 96.464 96.752 97.039 97.324 97.607 97.897 98.184 98.487 98.787 99.062 99.314 99.582 99.832 100.097 100.349 100.602 100.839 101.094 101.312 101.562 101.812 102.047 102.292 102.524 102.784 103.019 103.262 103.514 103.784 104.012 104.269 104.517 104.774 105.044 105.284 105.537 105.807 106.062 106.337 106.584 106.834 107.102 107.344 107.589 107.857 108.077 108.344 108.559 108.814 109.044 109.287 109.617 109.864 110.044 110.257 110.459 110.807 111.162 111.259 111.652 111.934 112.184 112.449 112.964 113.062 113.407 113.707 113.942 114.189 114.452 114.629 114.917 115.177 115.352 115.712 115.857 116.012 116.139 116.399 116.557 116.792 116.942 117.179 117.379 117.524 117.727 117.919 118.012 118.284 118.392 118.487 118.712 118.749 118.942 119.027 119.182 119.464 119.369 119.614 119.887 119.987 120.207 120.387 120.557 120.714 120.834 121.024 121.189 121.362 121.427 121.624 121.789 121.937 121.939 122.022 122.227 122.422 122.602 122.544 122.894 123.157 122.319 122.432 122.487 122.799 123.717 123.822 123.057 122.849 123.004 123.544 124.524 124.999 124.657 124.362 124.239 124.352 124.379 124.447 124.527 124.572 124.617 124.684 124.767 124.847 124.932 125.007 125.099 125.197 125.282 125.354 125.442 125.507 125.589 125.672 125.747 125.804 125.862 125.914 125.969 126.027 126.064 126.127 126.164 126.202 126.224 126.257 126.282 126.294 126.312 126.304 126.304 126.324 126.344 126.372 126.377 126.377 126.349 126.344 126.302 126.274 126.227 126.204
-9999 -9999 -9999 -9999 -9999 -9999 -9999 -9999 -9999 -9999 -9999 -9999 -9999 -9999 -9999 -9999 -9999 -9999 -9999 -9999 -9999 -9999 -9999 -9999 -9999 -9999 -9999 -9999 -9999 -9999 -9999 -9999 -9999 -9999 -9999 -9999 -9999 -9999 -9999 -9999 -9999 -9999 -9999 -9999 -9999 -9999 -9999 -9999 -9999 -9999 -9999 -9999 -9999 -9999 -9999 -9999 -9999 -9999 -9999 -9999 -9999 -9999 -9999 -9999 -9999 -9999 -9999 -9999 -9999 -9999 -9999 -9999 -9999 -9999 -9999 -9999 -9999 -9999 -9999 -9999 -9999 -9999 -9999 -9999 -9999 -9999 -9999 -9999 -9999 -9999 -9999 -9999 -9999 -9999 -9999 -9999 -9999 -9999 -9999 -9999 -9999 -9999 -9999 -9999 -9999 -9999 -9999 -9999 -9999 -9999 -9999 -9999 -9999 -9999 -9999 -9999 -9999 -9999 -9999 -9999 -9999 -9999 -9999 -9999 -9999 -9999 -9999 -9999 -9999 -9999 -9999 -9999 -9999 -9999 -9999 -9999 -9999 -9999 -9999 -9999 -9999 -9999 -9999 -9999 -9999 -9999 -9999 -9999 -9999 -9999 -9999 -9999 -9999 -9999 -9999 -9999 -9999 -9999 -9999 -9999 -9999 -9999 -9999 -9999 -9999 -9999 -9999 -9999 -9999 -9999 -9999 -9999 -9999 -9999 76.272 76.292 76.589 77.229 78.014 78.597 78.667 78.339 78.314 78.217 78.302 78.332 79.219 79.082 79.279 79.817 79.999 80.224 80.214 79.814 79.644 79.702 79.872 79.267 78.537 78.519 78.742 78.792 78.909 79.047 79.162 79.184 79.209 79.219 79.287 79.439 79.552 79.629 79.664 79.934 80.917 80.442 80.572 80.767 80.964 81.249 81.447 81.679 81.897 82.117 82.347 82.572 82.767 82.929 83.132 83.297 83.612 83.974 84.084 84.177 84.309 84.457 84.619 84.792 84.994 85.174 85.372 85.777 86.092 86.174 86.297 86.529 86.747 87.002 87.207 87.392 87.609 87.842 88.077 89.184 89.762 88.924 88.954 89.279 89.594 89.867 90.062 90.217 90.432 90.642 90.864 91.087 91.307 91.514 91.764 91.984 92.229 92.442 92.709 92.989 93.244 93.504 93.764 94.022 94.284 94.572 94.847 95.132 95.427 95.714 95.984 96.272 96.559 96.842 97.132 97.444 97.714 98.012 98.289 98.589 98.879 99.149 99.422 99.674 99.924 100.192 100.444 100.679 100.914 101.167 101.397 101.614 101.844 102.104 102.342 102.582 102.847 103.077 103.302 103.559 103.814 104.029 104.299 104.552 104.804 105.082 105.319 105.587 105.839 106.084 106.379 106.624 106.897 107.154 107.409 107.657 107.889 108.134 108.404 108.614 108.859 109.087 109.302 109.532 109.749 109.962 110.179 110.409 110.612 110.802 110.992 111.227 111.419 111.617 111.819 112.032 112.257 112.512 112.734 112.939 113.199 113.434 113.679 113.887 114.157 114.347 114.517 114.752 115.012 115.237 115.417 115.642 115.814 115.999 116.157 116.449 116.712 116.844 117.037 117.354 117.474 117.542 117.799 117.777 117.827 117.947 118.324 118.244 118.477 118.572 118.694 118.819 119.049 119.154 119.419 119.637 119.857 119.759 120.012 120.054 120.199 120.527 120.537 120.804 120.959 120.989 121.247 121.359 121.537 121.804 121.889 121.939 122.059 122.284 122.424 122.537 122.629 122.749 123.517 124.197 123.602 123.122 123.174 123.352 123.969 124.769 125.044 124.722 124.294 124.362 124.432 124.474 124.542 124.582 124.619 124.702 124.777 124.867 124.937 125.004 125.107 125.189 125.277 125.342 125.412 125.499 125.572 125.637 125.712 125.782 125.844 125.887 125.914 125.967 126.019 126.044 126.069 126.114 126.137 126.154 126.172 126.169 126.192 126.199 126.219 126.234 126.269 126.279 126.277 126.284 126.259 126.224 126.194 126.169 126.119
-9999 -9999 -9999 -9999 -9999 -9999 -9999 -9999 -9999 -9999 -9999 -9999 -9999 -9999 -9999 -9999 -9999 -9999 -9999 -9999 -9999 -9999 -9999 -9999 -9999 -9999 -9999 -9999 -9999 -9999 -9999 -9999 -9999 -9999 -9999 -9999 -9999 -9999 -9999 -9999 -9999 -9999 -9999 -9999 -9999 -9999 -9999 -9999 -9999 -9999 -9999 -9999 -9999 -9999 -9999 -9999 -9999 -9999 -9999 -9999 -9999 -9999 -9999 -9999 -9999 -9999 -9999 -9999 -9999 -9999 -9999 -9999 -9999 -9999 -9999 -9999 -9999 -9999 -9999 -9999 -9999 -9999 -9999 -9999 -9999 -9999 -9999 -9999 -9999 -9999 -9999 -9999 -9999 -9999 -9999 -9999 -9999 -9999 -9999 -9999 -9999 -9999 -9999 -9999 -9999 -9999 -9999 -9999 -9999 -9999 -9999 -9999 -9999 -9999 -9999 -9999 -9999 -9999 -9999 -9999 -9999 -9999 -9999 -9999 -9999 -9999 -9999 -9999 -9999 -9999 -9999 -9999 -9999 -9999 -9999 -9999 -9999 -9999 -9999 -9999 -9999 -9999 -9999 -9999 -9999 -9999 -9999 -9999 -9999 -9999 -9999 -9999 -9999 -9999 -9999 -9999 -9999 -9999 -9999 -9999 -9999 -9999 -9999 -9999 -9999 -9999 -9999 -9999 -9999 -9999 -9999 -9999 -9999 77.604 77.232 77.382 76.577 76.364 76.969 77.929 78.327 77.987 77.899 78.489 77.882 78.722 78.002 78.309 78.964 78.902 79.244 78.834 78.764 78.327 78.242 78.357 77.894 77.914 78.214 78.612 78.674 78.749 78.849 78.972 79.079 79.092 79.064 79.069 79.172 79.309 79.454 79.524 79.577 80.184 80.764 80.397 80.539 80.719 80.942 81.189 81.402 81.634 81.882 82.119 82.342 82.574 82.739 82.937 83.102 83.309 83.662 83.962 84.067 84.167 84.289 84.439 84.602 84.792 84.972 85.129 85.419 85.809 86.027 86.099 86.274 86.497 86.724 86.962 87.152 87.372 87.599 87.834 88.069 89.474 89.492 88.709 88.987 89.324 89.612 89.849 90.027 90.214 90.439 90.642 90.872 91.082 91.324 91.557 91.789 92.052 92.267 92.512 92.759 93.024 93.274 93.544 93.789 94.087 94.357 94.619 94.927 95.192 95.489 95.772 96.072 96.349 96.652 96.947 97.267 97.547 97.829 98.117 98.417 98.694 98.982 99.222 99.482 99.752 100.012 100.269 100.529 100.742 100.979 101.209 101.462 101.699 101.927 102.182 102.404 102.654 102.877 103.129 103.382 103.619 103.862 104.102 104.352 104.594 104.864 105.132 105.379 105.647 105.897 106.152 106.387 106.667 106.929 107.167 107.439 107.687 107.922 108.159 108.394 108.634 108.874 109.084 109.304 109.527 109.749 109.962 110.179 110.414 110.602 110.807 111.007 111.209 111.422 111.659 111.862 112.084 112.314 112.534 112.762 112.984 113.202 113.427 113.637 113.869 114.087 114.287 114.494 114.712 114.917 115.097 115.314 115.517 115.704 115.909 116.079 116.232 116.432 116.604 116.777 116.947 117.094 117.249 117.394 117.552 117.674 117.844 117.962 118.132 118.277 118.412 118.557 118.747 118.892 119.037 119.214 119.377 119.527 119.709 119.854 120.009 120.162 120.327 120.477 120.612 120.789 120.927 121.079 121.229 121.399 121.544 121.689 121.857 122.054 122.262 122.449 122.532 122.634 122.752 122.882 123.377 124.064 124.267 123.642 123.349 123.452 123.607 124.179 124.872 124.959 124.622 124.367 124.452 124.519 124.522 124.609 124.652 124.707 124.787 124.867 124.942 125.032 125.107 125.197 125.269 125.367 125.407 125.489 125.567 125.632 125.689 125.764 125.799 125.842 125.884 125.899 125.944 125.962 125.999 126.004 126.044 126.069 126.069 126.069 126.074 126.109 126.124 126.154 126.194 126.209 126.222 126.174 126.149 126.117 126.067 126.037
-9999 -9999 -9999 -9999 -9999 -9999 -9999 -9999 -9999 -9999 -9999 -9999 -9999 -9999 -9999 -9999 -9999 -9999 -9999 -9999 -9999 -9999 -9999 -9999 -9999 -9999 -9999 -9999 -9999 -9999 -9999 -9999 -9999 -9999 -9999 -9999 -9999 -9999 -9999 -9999 -9999 -9999 -9999 -9999 -9999 -9999 -9999 -9999 -9999 -9999 -9999 -9999 -9999 -9999 -9999 -9999 -9999 -9999 -9999 -9999 -9999 -9999 -9999 -9999 -9999 -9999 -9999 -9999 -9999 -9999 -9999 -9999 -9999 -9999 -9999 -9999 -9999 -9999 -9999 -9999 -9999 -9999 -9999 -9999 -9999 -9999 -9999 -9999 -9999 -9999 -9999 -9999 -9999 -9999 -9999 -9999 -9999 -9999 -9999 -9999 -9999 -9999 -9999 -9999 -9999 -9999 -9999 -9999 -9999 -9999 -9999 -9999 -9999 -9999 -9999 -9999 -9999 -9999 -9999 -9999 -9999 -9999 -9999 -9999 -9999 -9999 -9999 -9999 -9999 -9999 -9999 -9999 -9999 -9999 -9999 -9999 -9999 -9999 -9999 -9999 -9999 -9999 -9999 -9999 -9999 -9999 -9999 -9999 -9999 -9999 -9999 -9999 -9999 -9999 -9999 -9999 -9999 -9999 -9999 -9999 -9999 -9999 -9999 -9999 -9999 -9999 -9999 -9999 -9999 -9999 -9999 -9999 -9999 78.111 78.554 79.137 77.804 76.752 77.119 78.084 78.167 78.019 78.177 77.524 77.494 78.069 77.357 78.104 78.409 78.524 78.097 78.014 77.694 77.892 78.024 78.059 78.079 78.147 78.369 78.532 78.624 78.729 78.812 78.839 78.909 78.809 78.872 78.954 79.064 79.212 79.357 79.412 79.504 80.134 80.727 80.337 80.497 80.704 80.944 81.177 81.389 81.612 81.832 82.072 82.322 82.539 82.719 82.887 83.079 83.347 83.732 83.919 84.004 84.142 84.262 84.419 84.569 84.759 84.934 85.117 85.452 85.822 85.994 86.067 86.269 86.482 86.709 86.912 87.102 87.354 87.569 87.799 88.737 89.609 89.029 88.669 89.012 89.367 89.632 89.847 90.029 90.217 90.432 90.639 90.862 91.109 91.347 91.557 91.814 92.052 92.299 92.557 92.794 93.077 93.327 93.587 93.879 94.132 94.404 94.677 94.949 95.259 95.534 95.827 96.157 96.442 96.739 97.032 97.344 97.637 97.957 98.212 98.517 98.774 99.064 99.332 99.597 99.844 100.092 100.347 100.582 100.847 101.052 101.284 101.539 101.759 101.992 102.227 102.469 102.699 102.919 103.162 103.419 103.654 103.897 104.152 104.389 104.674 104.904 105.164 105.439 105.687 105.957 106.214 106.452 106.722 106.972 107.222 107.474 107.699 107.959 108.197 108.429 108.662 108.904 109.117 109.359 109.562 109.782 109.989 110.199 110.424 110.614 110.804 111.017 111.212 111.449 111.662 111.869 112.092 112.317 112.534 112.762 112.964 113.214 113.422 113.639 113.849 114.052 114.267 114.502 114.694 114.892 115.097 115.297 115.522 115.677 115.877 116.057 116.262 116.412 116.604 116.779 116.919 117.077 117.237 117.374 117.539 117.684 117.824 117.969 118.099 118.259 118.399 118.554 118.704 118.839 119.027 119.202 119.372 119.519 119.647 119.819 119.962 120.134 120.274 120.442 120.587 120.757 120.912 121.042 121.227 121.377 121.537 121.704 121.839 122.034 122.239 122.412 122.497 122.624 122.714 122.849 122.999 123.177 123.692 124.437 124.219 123.722 123.547 123.617 123.794 124.427 125.159 125.039 124.517 124.422 124.514 124.542 124.594 124.629 124.699 124.812 124.887 124.964 125.049 125.112 125.184 125.267 125.329 125.417 125.487 125.559 125.629 125.682 125.732 125.774 125.784 125.812 125.842 125.847 125.887 125.902 125.917 125.939 125.937 125.957 125.954 125.984 126.004 126.059 126.077 126.117 126.087 126.067 126.027 126.014 125.959 125.929
