ncols 430
nrows 31
xllcorner    248092
yllcorner    136632
cellsize     2
NODATA_value -9999
14.012 13.922 13.889 13.924 13.967 13.984 14.009 14.044 14.059 14.097 14.112 14.137 14.159 14.184 14.282 14.322 14.389 15.447 17.734 18.212 18.039 16.559 18.549 18.019 17.962 15.932 18.767 16.662 18.392 15.584 15.559 15.564 15.562 15.559 15.559 15.589 16.999 18.832 15.714 15.822 15.757 17.902 16.587 15.894 15.937 15.949 15.992 15.989 16.107 16.077 16.054 16.059 16.087 16.014 16.284 16.049 16.027 18.659 16.054 16.062 16.082 16.094 19.489 20.712 19.249 16.174 17.774 16.754 17.087 16.719 16.802 18.004 22.104 23.897 23.694 21.329 17.604 17.367 17.959 18.502 16.849 16.917 18.719 17.079 17.282 17.132 22.812 23.252 19.329 17.182 17.292 17.374 17.512 17.602 17.554 17.594 17.754 17.787 17.852 17.879 17.872 17.824 17.679 17.694 17.697 17.664 17.664 17.699 17.802 19.054 19.869 18.462 19.219 18.062 18.119 18.177 18.869 18.244 18.277 18.464 18.467 18.322 18.229 18.284 18.282 18.294 18.314 18.337 18.374 18.409 18.442 18.474 18.517 18.879 18.879 18.892 19.037 19.362 20.859 19.817 19.579 19.584 17.137 17.107 17.182 19.337 19.847 21.809 26.154 27.492 26.907 27.209 27.542 22.874 21.924 19.137 19.154 19.209 19.244 19.227 19.487 20.199 19.617 19.497 19.579 19.372 22.669 24.022 23.757 22.417 19.254 19.287 19.769 19.147 19.174 19.189 21.377 20.119 19.324 19.464 25.117 26.247 26.414 25.272 19.667 19.287 19.604 19.277 19.297 20.189 19.104 19.122 19.117 19.122 19.132 19.159 19.259 19.322 19.282 19.114 19.109 19.637 19.927 19.057 24.184 21.516 23.039 24.104 17.739 19.034 18.104 17.626 17.599 20.336 21.619 22.916 22.359 21.114 17.434 17.669 19.336 21.736 21.494 22.066 22.206 22.376 16.559 16.501 16.439 16.334 16.119 16.201 19.374 22.226 22.476 20.969 15.696 15.584 15.391 15.299 15.604 17.051 15.919 15.166 15.264 15.146 15.474 16.844 15.864 17.709 16.376 16.404 16.856 18.541 16.109 15.419 15.999 15.794 14.356 15.861 15.396 16.201 15.576 13.679 14.689 13.649 13.164 13.411 14.931 15.824 19.196 14.834 19.244 15.441 18.851 14.346 12.514 12.389 14.149 14.594 15.431 13.766 12.549 13.944 15.216 15.501 17.454 20.344 20.794 20.949 18.401 13.489 17.531 17.844 18.186 22.689 16.521 25.086 20.954 17.529 15.369 14.089 17.349 18.159 19.026 18.264 17.491 13.211 13.219 15.884 16.641 17.796 17.894 16.751 13.326 13.336 13.306 13.306 13.326 13.316 13.319 13.331 13.331 13.351 13.389 13.411 13.416 14.741 13.591 14.086 15.616 14.559 15.236 14.089 13.826 13.839 13.814 13.789 13.784 13.714 13.606 13.664 13.609 13.529 13.854 13.816 13.619 13.736 13.694 13.659 13.621 13.876 13.724 13.734 21.141 21.644 22.234 22.829 23.406 23.091 22.519 21.924 21.346 20.776 19.356 17.746 16.329 16.326 19.054 20.199 21.364 22.489 23.081 21.934 17.761 13.194 13.151 15.984 18.991 19.111 17.874 17.454 17.146 17.561 19.459 18.944 18.951 20.616 21.646 22.646 21.916 22.181 21.874 22.034 22.276 27.179 28.969 29.831 28.939 25.414 24.656 27.244 26.651 24.766 25.236 26.321 26.379 26.456 29.431 29.701 35.811 36.351 38.521 37.996 36.626 35.339 31.434 30.069 30.406 30.281 31.236 29.819 32.441 35.254 34.211 32.024 32.251 32.361 32.504 32.611
15.187 14.102 14.067 14.034 13.994 13.952 13.979 14.022 14.052 14.082 14.112 14.144 14.157 14.202 14.204 14.222 14.237 14.357 14.377 15.047 16.722 15.614 16.112 17.949 17.857 15.564 15.649 15.607 16.454 15.862 16.824 15.767 15.762 15.799 15.799 16.237 17.874 17.722 18.154 16.279 15.712 17.634 15.814 15.892 15.909 15.912 15.954 16.742 16.162 16.042 16.019 16.029 15.949 16.027 17.247 19.982 19.582 19.082 18.799 16.772 16.069 16.424 19.804 20.467 18.919 16.857 18.852 18.099 17.367 16.699 16.652 16.639 21.974 24.289 23.209 21.097 16.739 16.759 17.582 16.952 16.782 16.884 18.309 17.104 17.177 17.009 23.089 24.439 24.314 22.972 17.142 17.337 17.462 17.429 17.457 17.489 17.559 17.597 17.619 17.774 17.814 17.797 17.679 17.594 17.602 17.599 17.594 17.639 17.729 18.094 19.419 18.837 20.632 18.002 18.029 18.099 20.047 18.164 18.197 18.237 18.219 18.347 18.144 20.597 20.529 18.452 18.249 18.262 18.289 18.322 18.357 18.404 22.047 24.457 18.819 19.052 18.932 19.094 19.529 19.729 21.979 22.054 17.072 17.079 17.119 18.994 19.192 25.297 26.602 27.682 26.364 25.999 26.247 22.382 20.279 19.262 19.529 19.302 19.084 19.254 19.817 19.737 19.592 21.244 22.047 20.744 23.072 24.492 23.354 21.309 19.239 19.237 19.222 19.117 19.112 19.119 21.484 19.274 19.534 19.947 25.229 26.392 26.287 25.117 19.267 20.097 19.462 19.167 19.199 20.672 19.089 20.027 19.082 21.392 20.534 20.182 19.037 19.082 19.134 19.927 20.494 19.167 19.754 18.702 19.051 19.041 18.821 23.394 20.999 18.874 17.861 17.624 17.591 17.586 21.759 23.036 22.219 20.964 17.354 17.269 17.189 17.074 16.901 16.754 16.571 16.611 16.526 16.469 16.384 16.189 16.046 16.136 21.034 22.549 22.134 19.486 15.609 15.471 15.371 15.284 15.271 17.334 17.561 16.026 18.476 18.414 18.371 18.361 15.051 14.724 14.749 14.736 14.761 18.039 15.394 14.819 14.759 15.524 17.039 20.696 17.436 16.326 13.564 19.046 18.896 15.959 14.169 12.926 14.546 16.246 16.324 18.001 19.796 18.801 17.711 17.014 17.321 15.449 15.749 15.799 16.054 15.236 12.366 14.214 17.071 20.099 20.101 23.639 24.449 23.369 19.231 14.209 11.251 22.006 22.781 19.521 18.934 15.419 19.196 15.574 15.386 14.696 17.486 18.314 18.966 18.144 17.344 13.204 13.201 15.884 16.756 17.896 17.754 16.631 13.299 13.329 13.326 13.316 13.309 13.309 13.314 13.291 13.289 13.301 13.336 13.366 13.379 13.416 13.496 13.569 14.189 13.866 13.986 13.799 13.806 13.819 13.811 15.229 14.364 13.766 13.594 13.639 13.604 13.489 13.674 15.634 15.701 14.734 13.559 13.579 13.609 13.626 13.684 13.719 15.701 20.106 20.916 21.484 22.054 22.654 23.269 23.296 22.674 22.064 20.509 19.461 19.126 18.384 19.326 20.496 21.641 22.784 22.769 22.064 13.824 13.151 13.081 18.126 19.674 18.779 19.269 18.276 14.076 17.309 18.769 18.761 19.011 19.889 21.791 23.256 21.016 21.421 21.584 21.821 24.094 25.541 28.209 29.991 29.804 28.874 25.876 25.879 26.951 25.104 25.474 26.671 27.014 26.449 28.936 29.786 35.591 36.961 38.914 38.246 36.876 35.534 29.529 29.516 29.556 29.791 30.701 29.836 30.509 33.506 32.731 31.896 32.074 32.334 32.484 33.976
14.822 14.954 14.257 14.214 14.177 14.157 14.159 14.159 14.039 14.042 14.084 14.117 14.162 14.202 14.229 14.249 14.264 14.272 14.299 14.329 14.407 14.464 14.559 15.117 15.694 15.722 16.852 16.604 19.067 17.182 15.824 15.882 15.962 16.567 18.332 16.992 18.282 16.784 18.112 17.922 15.584 16.219 16.049 15.867 15.899 15.914 15.909 16.029 16.024 16.007 16.019 16.039 15.879 17.264 19.722 21.527 21.139 20.799 20.494 20.167 19.804 16.057 20.569 20.602 17.329 16.722 16.374 18.932 16.702 16.877 16.929 17.914 22.424 24.697 22.749 19.882 16.797 16.702 16.632 16.702 16.764 16.854 17.402 17.099 19.832 20.967 23.349 24.714 24.069 22.692 17.092 17.244 17.389 17.327 17.372 17.397 17.474 17.517 17.554 17.702 17.784 17.789 17.637 17.497 17.504 17.509 17.522 17.554 17.619 17.729 18.982 20.014 20.077 17.982 18.014 18.032 18.042 18.104 18.119 18.112 18.097 18.257 19.402 20.797 20.739 18.519 18.192 19.807 19.939 18.399 18.314 18.329 24.482 24.287 18.854 21.164 24.254 18.764 19.834 20.734 21.704 21.619 16.992 17.042 17.064 18.782 19.022 19.262 19.412 25.859 26.064 22.819 24.849 22.162 18.994 19.089 19.249 19.034 18.962 19.059 19.992 20.012 19.527 21.757 23.384 23.227 23.499 24.327 22.929 20.624 19.169 19.237 19.259 19.039 19.042 19.847 21.432 19.207 19.372 19.147 24.567 25.724 26.522 25.359 23.929 19.099 19.077 20.072 19.099 24.547 24.767 24.847 24.814 24.664 24.539 21.707 20.204 21.524 19.072 19.637 20.897 19.209 19.487 18.649 18.684 19.471 20.144 19.694 19.594 18.699 18.369 19.174 20.594 18.599 17.489 17.464 17.436 17.414 17.309 17.209 19.919 19.934 20.101 19.126 16.559 16.456 16.491 16.449 16.311 17.239 17.896 16.686 16.494 16.466 21.639 16.334 15.564 15.464 15.414 15.319 15.254 15.609 15.941 15.266 19.981 19.891 19.859 19.901 15.499 15.209 15.344 17.226 17.089 14.834 14.859 14.834 14.811 14.674 19.484 22.406 21.656 13.619 13.474 13.584 21.184 21.236 22.111 19.724 16.929 20.021 17.869 18.924 20.759 19.004 15.664 15.509 13.081 12.499 13.716 13.159 14.266 14.609 12.239 15.846 20.711 21.924 21.396 26.199 24.846 22.209 15.466 14.571 11.176 11.234 12.656 19.981 20.864 23.714 18.514 12.734 15.344 13.574 17.636 18.476 18.784 17.994 17.204 13.271 13.891 15.894 16.886 18.016 17.634 16.484 13.384 13.294 13.291 13.309 13.306 13.314 13.311 13.289 13.264 13.251 13.274 13.274 13.739 13.374 13.434 13.501 15.081 13.806 13.731 13.776 13.801 13.809 13.796 15.144 14.869 13.691 13.569 13.629 13.596 13.474 13.631 14.029 14.314 14.279 13.761 14.514 13.794 13.596 13.634 13.624 15.699 17.216 17.424 17.704 20.766 21.324 21.894 22.466 23.059 23.399 20.396 20.506 20.154 19.799 19.471 20.839 21.966 23.141 22.439 21.316 13.169 13.086 13.209 18.401 16.886 14.719 17.076 15.446 15.289 19.514 18.586 18.761 18.966 21.356 21.159 20.571 20.916 21.201 21.526 21.809 24.226 23.981 27.431 29.189 29.564 27.734 24.304 24.501 26.686 25.206 25.804 27.646 28.539 28.666 27.001 29.161 34.671 36.216 38.094 38.399 37.041 35.746 32.291 29.484 29.526 29.584 29.714 29.774 29.794 32.096 32.264 31.796 31.891 32.104 32.376 32.504
14.584 14.774 14.447 14.459 14.337 15.524 15.654 15.634 15.667 14.234 14.242 14.127 14.129 14.164 14.207 14.247 14.277 14.307 14.324 14.344 14.367 14.364 14.382 14.454 14.492 14.594 15.239 15.807 15.674 17.677 16.644 16.019 15.809 15.834 17.064 17.734 16.647 16.414 16.282 17.257 15.524 15.584 16.102 17.487 15.887 15.902 15.934 15.964 15.979 15.954 16.027 15.777 15.802 16.137 22.604 22.882 22.584 22.297 21.987 21.699 21.289 20.769 20.594 20.594 16.127 16.179 17.614 20.929 19.607 16.447 16.499 21.574 23.812 23.247 21.369 19.627 16.649 16.662 16.807 16.834 16.704 16.847 16.914 17.084 17.064 18.327 23.624 24.982 23.812 21.719 17.344 17.212 17.322 17.237 17.279 17.322 18.684 17.432 17.534 17.604 17.654 17.649 17.554 17.384 17.429 17.427 17.454 17.479 17.492 17.557 17.647 18.724 18.079 18.202 17.892 19.617 18.294 18.034 18.282 19.452 18.002 17.972 20.897 21.007 20.947 18.084 18.129 20.772 20.719 20.669 20.629 18.562 24.889 24.874 24.444 23.904 24.659 23.572 20.124 19.689 19.764 18.694 16.942 17.012 17.112 19.074 19.359 20.197 19.454 22.507 22.227 19.569 19.544 20.802 18.962 19.214 20.669 18.972 20.957 19.634 19.877 20.304 20.862 19.427 22.187 22.642 23.952 23.907 23.722 19.117 19.279 19.179 19.242 18.959 18.967 21.179 19.849 19.179 19.184 19.782 24.737 25.869 26.367 25.217 21.832 19.427 19.294 19.757 19.069 24.679 25.924 26.112 25.979 25.839 25.707 25.199 25.077 24.952 24.822 24.907 24.922 24.762 21.109 18.604 18.631 18.719 19.514 18.734 19.091 18.319 18.299 18.244 18.406 18.021 18.004 19.036 19.906 19.246 18.896 17.769 19.341 19.631 20.504 20.821 20.724 16.446 16.491 16.431 19.609 22.041 21.729 19.951 17.186 15.916 15.806 15.699 15.654 15.889 15.544 15.839 16.796 17.389 16.776 17.206 19.139 19.104 19.114 19.166 15.481 14.844 14.634 17.114 16.074 14.784 14.759 14.819 14.899 15.124 15.806 20.694 18.546 13.959 15.904 13.479 15.326 17.761 21.034 21.321 20.326 17.186 16.689 18.326 17.566 17.329 16.594 12.656 12.766 12.281 12.129 12.149 12.851 12.996 12.969 15.006 16.711 21.039 24.111 25.209 23.456 22.324 16.954 13.664 11.081 11.109 12.896 14.309 17.614 17.976 12.714 12.701 15.219 15.129 17.776 18.606 18.674 17.861 16.876 13.241 15.111 15.881 15.884 16.101 17.054 16.384 15.161 14.721 14.479 13.261 13.979 13.884 14.226 14.389 13.226 14.459 13.229 13.276 14.014 14.714 13.411 13.449 14.519 13.926 13.669 13.719 13.829 13.781 13.791 14.029 14.351 13.699 13.566 13.594 13.594 13.469 13.604 14.141 13.714 13.646 13.689 13.681 13.724 13.784 14.069 13.524 15.191 17.986 17.029 16.346 14.576 13.526 20.589 21.144 21.696 22.006 19.344 19.666 20.014 20.361 20.496 21.181 22.281 23.321 22.116 21.006 13.066 13.016 15.271 18.656 18.554 18.121 17.879 13.729 16.394 17.706 18.984 18.829 21.364 20.396 20.621 20.539 20.796 21.151 21.471 21.701 22.556 24.686 28.359 28.604 30.171 28.276 25.541 26.019 25.781 25.029 25.116 25.574 25.964 26.241 26.679 28.889 33.646 36.471 37.851 38.786 37.199 36.201 33.081 29.466 29.536 29.589 29.664 29.736 29.724 31.954 32.024 31.669 31.731 31.904 32.196 32.396
14.547 14.544 14.524 14.519 14.882 14.954 14.919 14.947 15.617 16.222 15.719 15.702 14.317 14.309 14.217 14.207 14.244 14.279 14.329 14.349 14.377 14.384 14.394 14.404 14.417 14.419 14.489 14.559 14.667 15.174 15.807 15.859 16.552 16.654 15.897 16.072 18.514 16.034 16.189 15.747 15.402 15.517 15.657 16.194 16.177 16.749 15.954 15.939 15.944 17.439 19.039 15.704 15.964 16.272 21.389 21.837 22.309 22.794 23.194 23.497 22.704 22.347 22.022 21.607 21.269 17.769 16.417 17.884 16.887 16.439 18.467 21.892 24.309 22.812 20.197 16.604 16.637 16.607 16.724 16.892 16.854 16.914 16.949 17.122 17.132 21.549 23.852 24.917 23.522 17.989 17.562 17.344 18.862 17.377 17.402 19.387 20.094 20.064 18.219 17.517 17.519 17.547 17.484 17.344 17.339 17.349 17.389 17.407 17.422 17.454 17.479 17.517 17.577 17.624 17.672 17.697 17.829 17.832 17.864 18.732 18.199 17.904 18.827 17.904 18.297 18.009 18.042 20.954 20.919 20.874 20.819 22.779 25.297 26.092 26.554 25.307 24.914 19.584 24.584 24.264 21.754 20.092 16.999 16.952 18.962 19.177 20.394 19.214 19.437 19.437 19.837 19.549 19.369 19.944 19.377 18.954 19.212 18.937 19.034 19.009 20.377 21.572 21.534 21.477 19.132 19.269 19.242 22.652 22.517 19.234 19.099 19.137 19.304 18.897 18.897 21.177 19.127 19.159 20.189 19.139 24.874 26.009 26.244 25.089 21.604 19.372 20.174 19.684 19.114 25.784 26.112 26.004 26.087 26.209 26.354 26.389 26.217 26.107 25.972 26.192 26.059 25.887 19.587 18.529 18.571 18.611 18.641 19.044 20.529 18.269 18.244 18.249 18.139 17.971 17.804 17.651 19.236 19.429 19.564 19.726 22.439 22.116 22.001 17.871 19.149 16.439 16.484 16.424 22.781 23.339 23.234 22.999 22.776 22.114 21.929 19.721 19.641 18.826 18.634 18.406 17.934 18.251 17.749 18.129 17.829 17.994 17.296 17.209 14.736 14.894 14.906 14.549 14.651 14.656 14.584 15.684 16.094 15.669 14.624 14.136 15.249 16.849 15.281 15.181 14.614 18.216 22.044 20.991 20.151 17.049 17.211 20.044 14.566 13.191 12.056 11.946 13.401 12.064 12.106 12.799 12.866 13.376 14.461 15.946 19.761 19.716 21.811 16.034 20.946 15.699 14.366 12.639 10.999 10.969 12.579 13.819 12.674 12.711 12.676 13.776 15.081 16.481 17.901 18.734 18.524 17.719 15.249 13.096 14.966 15.539 15.639 15.769 15.866 13.219 13.229 14.126 14.029 13.229 13.239 13.796 14.611 14.464 13.196 13.591 13.214 13.251 13.281 13.279 13.371 14.071 13.754 13.526 14.901 14.414 13.656 13.676 14.576 13.771 13.739 13.681 13.569 13.556 13.574 13.469 13.559 14.791 13.949 13.669 13.664 13.646 13.671 13.674 13.701 14.286 14.999 13.604 13.854 16.356 13.426 13.284 13.284 13.776 19.934 13.521 13.159 13.651 17.991 19.311 19.659 21.466 22.589 23.034 21.831 15.804 13.004 12.956 17.139 18.929 19.294 19.369 19.171 15.076 15.956 17.956 18.761 18.964 21.301 20.361 20.381 20.389 20.716 21.116 21.414 21.661 22.209 22.821 26.286 27.644 28.171 26.449 24.146 23.996 24.841 24.931 25.121 25.704 25.886 26.184 26.546 27.969 32.036 36.269 37.596 38.844 37.456 36.124 29.551 29.431 29.496 29.589 29.611 29.699 29.694 30.214 32.444 31.551 31.559 31.694 31.971 32.281
14.584 14.602 15.717 14.647 16.449 14.909 14.952 14.959 14.942 14.942 14.929 16.034 15.484 16.959 15.722 14.387 14.382 14.312 14.297 14.319 14.362 14.384 14.412 14.427 14.444 14.464 14.459 14.457 14.452 14.529 14.627 14.687 14.987 15.892 16.109 16.824 16.757 16.092 16.662 16.772 15.852 15.417 15.634 15.729 15.787 15.822 15.879 15.929 15.927 16.027 17.557 15.619 16.029 16.042 15.904 15.832 18.297 20.727 21.252 21.712 22.152 22.639 23.029 23.032 22.799 16.007 17.199 17.057 16.887 16.414 17.452 22.379 24.527 22.354 17.382 16.532 16.482 16.442 19.407 16.507 16.494 19.334 16.807 17.049 20.399 22.777 24.132 24.652 23.287 17.449 17.252 17.297 17.344 17.364 17.329 19.517 17.487 17.494 22.602 23.464 18.569 17.432 17.392 17.274 17.259 17.282 17.314 17.342 17.332 17.392 17.424 17.449 17.487 18.354 19.249 18.067 17.637 17.694 17.717 17.764 17.807 17.839 19.087 18.102 17.894 17.932 17.952 18.024 18.187 19.539 21.024 24.229 24.632 25.069 25.477 25.772 24.562 22.437 24.614 25.049 20.314 20.634 17.052 16.892 18.984 19.059 19.089 19.167 19.154 19.252 19.534 19.547 19.349 18.984 18.852 18.742 19.047 20.074 19.132 19.034 21.274 21.379 21.502 21.612 18.749 18.734 18.737 19.182 19.229 19.044 19.579 19.129 19.237 18.847 18.937 20.792 19.032 19.099 19.177 19.127 25.004 26.142 26.094 24.967 19.284 19.037 19.849 19.349 19.047 24.812 24.947 24.827 24.957 25.072 25.222 25.647 25.779 25.924 26.052 25.937 26.002 26.154 18.979 18.452 18.499 18.524 18.874 18.609 24.801 23.564 18.214 18.206 18.094 17.916 17.749 17.606 17.319 17.169 18.106 19.101 22.299 22.621 23.439 22.899 17.679 16.444 16.476 16.414 22.129 23.049 23.294 23.536 23.819 23.296 23.209 19.641 19.449 19.284 19.501 17.826 16.416 16.381 16.289 16.599 16.261 18.019 17.491 16.361 16.856 15.346 17.526 15.824 17.134 17.534 17.481 17.484 15.614 15.709 14.854 15.361 15.831 15.821 14.646 17.019 18.881 22.896 22.366 21.146 18.259 18.101 16.629 16.564 16.154 12.529 11.991 11.999 13.354 14.821 14.404 15.426 14.341 12.181 14.981 15.456 21.466 21.749 21.014 18.751 24.844 20.796 14.084 12.571 10.994 11.101 12.549 12.594 12.679 12.684 12.644 15.006 14.319 17.244 18.064 18.894 18.406 17.589 13.181 13.086 17.474 19.211 16.364 15.809 13.429 13.134 13.191 13.189 13.921 13.164 13.391 13.171 13.176 13.204 13.626 13.439 13.204 13.224 13.244 14.169 14.104 13.351 16.431 16.424 15.486 13.454 13.601 13.631 13.664 13.686 13.696 14.149 13.501 13.526 13.566 13.744 13.529 14.969 13.589 13.659 13.654 13.624 13.644 13.706 13.691 13.594 13.981 13.954 14.056 14.151 13.941 14.401 13.856 13.264 16.074 16.476 14.626 13.084 13.059 13.091 17.329 18.509 22.996 22.681 21.504 13.461 12.951 12.909 17.814 19.146 18.104 18.266 17.891 15.861 16.736 17.526 19.041 19.179 19.821 19.241 19.664 20.226 21.176 21.169 21.364 21.556 22.036 22.421 23.576 23.916 23.799 23.829 23.929 24.184 24.589 24.991 25.086 25.211 25.899 26.221 26.684 27.131 28.799 31.324 28.781 27.704 27.989 29.699 30.031 29.509 29.874 30.406 29.591 29.659 29.656 29.861 32.539 33.136 31.424 31.506 31.644 32.354
14.604 14.619 16.187 14.712 14.752 15.147 14.992 14.934 14.952 14.942 14.917 14.909 16.842 14.972 15.159 15.279 15.462 17.119 14.459 14.467 14.412 14.377 14.402 14.437 14.462 14.489 14.512 14.499 15.089 14.552 14.514 14.517 14.569 14.657 14.702 14.742 16.494 17.422 16.419 16.529 15.807 15.827 15.844 15.794 15.749 15.809 15.862 15.907 15.852 15.729 15.574 15.587 15.989 17.379 15.919 15.827 15.749 15.862 15.899 15.869 16.502 20.459 21.107 21.524 21.832 15.842 17.717 16.412 16.447 16.452 16.464 17.319 19.677 21.927 19.572 16.469 22.102 20.169 20.807 22.009 19.137 20.699 16.674 16.829 16.914 16.969 17.002 17.034 17.477 18.567 17.514 17.727 17.319 17.327 17.294 17.379 17.444 20.459 23.114 25.412 23.647 20.622 17.574 17.199 17.174 17.217 17.242 17.277 17.309 17.394 17.384 17.407 17.434 17.474 17.504 17.529 17.567 18.899 18.759 17.944 17.727 17.714 17.754 17.797 17.829 17.852 17.882 17.937 17.979 18.179 18.357 18.474 18.729 22.207 24.184 24.637 24.169 20.264 19.699 18.917 18.782 20.649 16.847 17.022 18.944 19.177 19.234 18.999 19.059 19.092 19.214 19.272 19.332 18.844 18.714 18.889 18.642 18.937 21.294 19.452 20.147 19.354 21.147 20.479 18.744 18.754 18.794 18.794 19.252 19.699 19.399 19.017 18.787 18.789 19.544 21.184 18.932 18.962 18.979 18.922 23.197 25.384 26.554 25.844 23.199 18.987 18.927 19.349 20.049 19.072 19.929 19.114 19.774 19.144 23.142 24.502 24.659 24.779 24.907 24.704 24.849 24.987 18.609 18.417 18.446 20.891 22.166 20.939 23.034 20.026 18.211 18.129 17.976 17.851 17.686 17.544 17.989 17.184 17.856 16.434 17.839 22.516 23.701 22.511 16.289 16.446 16.474 16.389 20.634 21.541 21.884 22.109 22.354 21.834 22.099 19.631 19.129 16.444 16.629 16.621 16.346 16.249 16.164 16.026 16.284 15.894 16.534 15.699 16.886 18.141 16.911 14.931 15.134 14.876 14.771 14.721 14.614 15.029 14.619 15.709 15.094 14.751 14.871 17.471 20.419 21.016 20.414 17.401 15.956 17.049 15.771 19.106 17.136 13.504 11.986 12.724 13.024 14.934 15.071 13.534 12.086 12.196 14.934 16.714 17.034 20.364 19.064 20.191 22.356 14.811 16.296 12.064 10.999 12.539 12.501 12.521 12.564 12.604 12.574 15.061 13.869 17.394 18.201 19.041 18.266 17.471 13.086 13.071 17.619 19.821 18.421 18.204 12.991 13.119 13.204 13.186 13.149 13.119 13.174 13.184 13.174 13.126 13.591 13.439 13.221 13.199 13.156 14.064 14.079 13.329 16.426 16.434 16.441 16.429 16.456 13.351 13.591 13.609 13.626 13.724 13.464 13.481 13.901 13.569 13.486 14.411 16.046 13.651 13.629 13.666 13.666 13.681 13.631 13.594 13.581 13.576 13.831 13.721 13.659 15.531 13.594 14.249 16.054 16.471 15.191 13.239 13.371 12.969 12.941 12.914 12.861 12.856 16.206 12.984 12.896 12.864 18.039 19.386 17.806 15.501 13.304 16.186 16.296 17.884 18.214 18.676 19.751 19.151 19.504 20.189 20.821 21.094 21.344 21.536 22.044 24.604 22.829 23.466 23.906 23.949 23.991 24.444 24.799 27.046 25.044 25.156 25.941 26.031 26.331 30.336 27.054 27.729 28.161 28.416 28.059 28.256 28.536 28.839 29.061 29.349 29.539 29.616 29.624 29.641 32.504 32.494 31.286 31.386 31.449 31.551
14.622 14.614 14.739 14.759 16.079 14.857 15.192 14.939 14.922 14.932 14.902 14.889 15.944 15.019 14.922 14.959 15.019 15.627 15.657 15.479 14.647 14.524 14.549 14.459 14.467 14.499 14.529 14.532 14.539 14.547 14.552 14.562 14.554 14.554 14.552 14.572 14.717 14.764 14.797 14.952 16.074 17.404 15.889 17.059 16.424 19.232 17.154 16.469 15.499 15.484 15.424 16.067 16.144 16.079 15.772 15.752 15.672 15.869 15.927 16.019 15.947 16.072 16.147 15.884 17.297 15.784 17.554 17.412 17.099 16.607 16.857 16.469 16.649 16.447 16.412 16.419 23.472 23.189 22.954 23.369 23.104 22.837 16.637 16.779 16.904 16.994 17.029 17.052 17.112 17.147 17.209 17.229 17.272 17.249 18.507 17.919 17.439 20.172 23.709 25.419 23.127 17.989 17.312 17.062 17.094 17.129 17.142 17.242 17.524 17.844 17.589 17.474 17.412 17.412 17.397 17.492 17.499 17.539 17.554 17.732 19.074 17.649 17.702 17.747 17.767 17.799 17.822 17.877 17.992 18.127 18.397 18.427 18.414 19.919 18.729 18.814 19.084 20.184 19.012 18.727 18.899 17.917 16.817 19.209 18.957 18.817 18.902 18.932 18.902 18.994 18.969 19.049 21.232 20.527 22.452 20.099 19.067 19.444 18.619 19.762 19.069 19.042 19.042 19.322 22.394 22.244 18.832 18.782 18.802 18.792 19.222 18.939 18.727 18.734 20.542 21.102 18.852 18.867 18.924 20.402 24.387 25.522 26.704 25.727 24.584 19.152 18.884 19.492 19.734 19.157 18.974 19.012 19.839 19.377 18.954 19.034 18.972 18.914 19.749 18.894 19.322 20.842 18.339 18.354 18.386 21.114 22.324 21.456 18.531 18.251 18.149 18.036 17.919 17.754 17.611 17.519 17.314 17.184 17.324 16.289 19.081 22.909 23.451 22.184 16.326 16.454 16.456 18.724 16.449 16.814 18.346 16.751 16.519 16.574 19.529 19.634 19.006 16.361 16.751 16.586 16.354 16.279 16.179 16.081 15.979 16.309 15.834 15.809 15.794 17.534 15.001 14.894 14.876 14.806 15.586 14.961 17.456 16.961 16.559 16.501 14.951 14.379 14.299 15.859 16.619 18.919 16.444 17.021 16.084 17.001 16.831 16.574 15.271 12.799 12.014 11.981 11.966 11.996 12.009 12.056 12.174 12.231 14.736 19.469 17.559 18.416 22.199 22.209 21.091 19.629 17.299 13.699 11.001 12.486 12.484 12.569 12.584 12.586 12.546 15.046 14.924 17.554 18.374 18.974 18.134 17.334 13.021 13.099 18.191 19.716 18.344 18.491 13.036 16.714 18.896 19.226 17.001 13.156 13.181 13.204 13.209 15.011 16.719 16.689 16.659 16.709 13.096 13.124 16.776 17.959 16.441 16.454 16.441 16.439 16.439 16.434 15.494 13.349 13.571 13.516 13.419 13.436 13.504 13.854 13.379 14.369 13.649 13.634 13.664 13.641 13.654 13.656 13.639 13.606 13.594 13.589 14.326 18.026 14.739 13.606 13.841 14.214 15.666 14.941 15.401 15.561 18.064 17.949 16.246 12.901 12.856 14.784 12.834 12.851 12.854 12.826 13.949 13.416 12.954 12.999 13.309 15.871 16.301 19.089 15.821 17.641 18.946 19.066 19.581 20.934 20.661 20.999 21.336 21.526 22.149 24.709 23.081 23.126 23.884 25.156 24.124 24.254 24.454 25.891 25.284 26.314 26.929 26.539 26.291 27.166 26.866 27.121 27.386 27.639 28.001 29.986 31.389 31.771 29.339 30.456 29.504 29.564 29.579 29.496 32.491 31.186 31.161 31.296 31.396 31.439
14.624 15.367 14.769 14.789 14.827 15.479 15.447 15.717 16.074 14.882 15.512 14.874 15.092 14.944 14.974 14.992 15.024 15.044 15.054 15.059 15.937 16.542 14.597 14.619 14.502 14.522 14.547 14.564 14.567 14.574 14.577 14.584 14.589 14.609 14.607 14.604 14.614 14.624 14.622 14.692 14.779 14.834 14.874 16.854 16.177 20.012 19.877 16.994 15.197 15.314 15.224 16.137 16.147 16.387 15.662 15.654 15.707 15.812 15.882 15.942 17.447 16.659 16.104 15.842 16.697 16.034 17.362 16.584 17.564 16.459 16.509 16.524 16.402 16.537 16.684 17.099 24.082 24.287 24.327 24.167 24.372 24.014 16.637 16.839 17.044 17.094 17.114 17.099 17.112 17.144 17.192 17.202 17.219 17.374 17.549 17.277 18.122 22.692 24.212 24.932 22.619 17.269 17.034 16.964 17.017 17.052 17.152 17.637 18.092 18.122 18.467 17.504 17.499 17.507 17.494 17.489 17.549 17.492 17.519 17.544 17.579 17.607 17.662 17.689 17.727 17.747 17.759 17.814 17.967 18.072 18.512 18.532 18.507 20.662 20.044 18.559 18.582 19.652 18.727 18.742 18.597 16.887 16.777 18.624 20.134 18.694 18.784 19.082 18.817 18.814 18.774 18.904 19.662 20.867 20.519 19.024 18.569 18.589 18.599 19.809 19.054 19.039 19.004 20.579 22.794 24.032 22.837 21.507 18.779 18.737 18.654 18.659 18.669 18.669 21.007 20.552 18.824 18.872 18.852 18.892 24.537 25.674 26.717 25.592 24.459 18.882 18.864 18.854 18.869 18.864 18.869 18.877 18.994 19.074 20.764 20.054 19.147 20.297 18.767 18.712 19.064 19.169 18.259 18.319 18.344 21.254 22.421 21.396 18.386 18.169 18.044 17.924 17.806 17.661 17.534 17.406 17.334 17.149 17.179 16.294 21.321 23.231 23.101 19.549 16.371 16.456 16.449 16.886 16.464 16.484 16.529 16.561 16.604 16.621 20.136 20.509 20.224 19.911 18.314 16.754 16.349 16.281 16.179 16.094 15.986 15.909 15.906 15.889 15.959 16.981 14.889 14.866 14.789 14.729 16.376 17.899 18.784 17.069 16.954 14.444 14.806 14.339 16.094 14.531 16.614 16.221 14.429 15.324 12.186 14.626 19.004 16.479 12.356 11.994 11.994 12.019 11.981 12.054 12.031 12.064 12.124 14.886 16.634 18.936 18.216 22.311 16.769 23.521 22.701 20.829 18.929 14.869 11.179 12.491 12.446 12.556 12.559 12.529 12.479 15.074 15.826 15.821 15.824 15.834 16.291 16.276 12.996 14.691 18.124 19.446 17.191 16.271 13.059 16.869 19.054 19.041 16.841 13.096 13.161 13.244 13.234 15.611 16.859 16.684 16.651 16.831 13.044 15.089 17.346 18.121 16.926 16.439 16.419 16.434 16.431 16.434 16.436 16.201 13.351 13.834 13.394 13.389 13.466 13.434 13.324 13.839 13.624 13.591 13.616 13.639 13.629 13.641 13.626 13.601 13.596 13.611 16.124 17.314 17.669 13.599 15.164 13.596 13.599 12.906 15.574 16.471 19.436 19.161 18.926 18.666 18.404 18.194 17.981 13.916 12.819 12.786 14.621 15.811 14.619 14.799 15.471 15.739 18.019 19.646 19.216 19.049 18.964 23.504 23.186 20.634 20.584 20.921 21.259 22.564 22.161 22.516 22.864 24.211 23.836 23.951 24.116 24.349 24.504 24.756 25.024 25.299 25.559 25.886 28.669 27.856 27.749 27.696 27.641 27.606 31.716 32.326 32.614 31.919 29.341 29.399 29.956 29.506 29.534 29.479 31.361 31.116 31.094 31.249 31.331 31.731
14.629 16.692 14.784 14.794 18.137 17.669 15.172 15.037 14.987 15.032 15.134 15.457 15.099 14.979 15.194 15.054 15.004 15.027 15.054 15.052 15.117 15.767 15.574 14.674 14.597 14.569 14.599 14.622 14.627 14.622 14.602 14.582 14.599 14.609 14.627 14.644 14.654 14.654 14.674 14.667 14.667 14.662 14.649 14.789 14.879 14.882 17.024 16.102 14.994 15.034 15.022 16.309 16.277 15.884 15.577 15.554 15.669 15.729 15.829 15.857 16.354 15.454 15.487 15.502 15.567 17.532 16.519 16.414 16.807 17.037 16.659 16.259 16.212 16.509 16.682 19.154 22.719 22.944 23.142 22.762 23.069 16.809 16.672 16.912 17.174 17.269 17.272 17.137 17.159 17.187 17.189 17.197 17.179 17.492 17.189 17.217 21.229 23.422 25.197 22.967 18.312 17.644 16.932 16.892 16.934 16.934 17.097 17.559 17.909 18.019 18.009 17.529 17.522 18.669 17.537 17.589 17.702 17.614 17.619 17.642 17.574 17.567 17.602 17.642 17.682 17.682 17.707 17.754 17.934 18.104 18.527 18.599 18.819 18.782 18.642 20.867 20.734 18.972 18.809 19.689 18.792 16.722 16.742 20.662 18.854 18.907 19.882 20.017 18.662 18.639 18.644 19.142 19.032 18.769 18.469 18.502 18.612 19.104 19.944 19.519 19.044 19.027 18.959 21.887 23.212 23.782 22.437 19.929 18.689 18.739 18.737 18.617 18.614 18.612 20.912 18.909 18.822 18.844 18.859 18.849 24.669 25.804 26.609 25.474 24.474 18.999 18.802 18.807 23.084 22.597 18.852 18.844 18.844 18.847 18.842 18.834 18.762 18.697 18.609 18.534 18.447 18.569 18.777 18.292 18.321 20.186 21.899 21.309 18.246 18.224 18.101 17.844 17.759 23.851 17.841 19.031 17.351 17.254 18.259 17.656 22.006 23.564 22.761 16.169 16.379 16.451 16.439 17.166 16.636 16.511 16.569 16.601 16.611 16.616 20.481 21.049 21.356 21.271 20.076 19.284 16.346 16.326 16.164 16.066 16.039 15.946 15.919 15.946 16.659 16.459 14.816 14.751 14.609 16.954 18.069 18.954 19.431 18.489 16.951 14.401 14.356 14.346 15.626 14.029 14.014 13.714 13.556 13.396 13.754 12.124 13.026 11.981 13.216 15.254 14.426 11.966 12.024 14.324 13.964 12.044 12.076 13.146 18.069 20.091 19.401 14.304 20.244 26.211 19.524 20.156 22.179 21.069 21.669 15.971 12.426 12.534 12.551 12.506 13.949 14.216 14.944 14.999 14.836 15.529 14.789 13.296 12.959 14.666 18.299 19.234 16.969 15.566 14.624 17.059 19.271 18.851 16.656 13.034 17.416 17.259 19.544 18.126 16.704 16.679 16.651 16.629 13.106 16.756 17.964 17.496 15.616 14.539 16.441 14.431 16.429 16.439 16.449 16.434 13.326 13.379 13.406 13.364 13.446 13.406 13.319 13.656 14.054 13.704 13.594 13.594 13.591 13.596 13.591 13.591 13.531 13.676 14.074 15.359 15.549 14.466 15.134 13.679 18.281 14.451 13.194 13.049 19.056 19.241 19.471 19.679 19.664 19.449 19.244 13.526 12.794 12.774 13.771 15.609 14.606 15.084 15.039 18.226 19.479 20.766 19.276 16.434 17.824 20.594 21.981 20.049 22.081 21.754 21.446 21.794 22.234 22.581 22.921 23.429 23.779 23.874 23.981 24.294 24.454 26.019 25.744 26.231 26.124 26.144 28.734 26.786 27.424 33.676 36.624 38.179 38.886 37.199 35.671 31.986 29.291 29.766 29.541 29.501 29.491 29.441 35.321 36.506 30.999 31.199 31.901 31.394
14.624 15.379 15.684 14.852 18.789 19.609 18.774 18.327 16.509 15.232 15.294 17.014 14.984 15.027 15.117 15.019 18.539 21.694 15.154 15.024 15.044 15.224 15.234 15.584 14.819 14.654 14.674 14.697 14.714 14.847 14.852 14.812 14.784 14.759 14.639 14.642 14.664 14.662 14.677 14.712 14.714 14.719 14.714 14.724 14.727 14.729 14.739 14.787 14.852 14.899 14.954 14.994 16.997 17.709 17.697 15.562 17.927 15.797 15.759 15.787 16.432 15.419 15.442 15.467 16.572 17.264 17.252 16.354 16.364 16.609 16.569 16.179 16.179 16.689 16.597 16.617 16.712 18.069 19.307 17.064 20.264 16.577 16.722 16.962 17.187 17.292 17.337 17.244 17.262 17.304 17.322 17.194 17.169 17.517 19.124 17.179 22.582 23.959 24.727 22.384 17.109 16.862 16.859 17.177 17.289 16.897 17.214 17.587 17.812 18.129 17.569 17.642 17.539 17.937 17.552 17.557 17.572 17.599 17.629 17.649 17.684 17.667 17.679 17.639 17.642 19.542 19.587 18.104 17.917 18.364 19.257 18.539 18.562 18.589 18.957 18.502 19.344 19.432 20.042 19.487 18.984 16.712 18.322 18.504 18.584 18.599 20.009 18.607 18.574 18.799 18.539 19.107 19.712 18.397 20.379 19.469 18.502 19.467 19.112 19.534 19.387 19.677 18.727 22.264 23.624 23.349 22.032 18.667 18.614 18.629 19.092 18.562 18.559 19.062 20.752 18.732 18.794 18.992 19.044 19.287 24.804 25.947 26.479 25.324 24.489 18.849 18.727 19.359 20.899 19.994 19.289 19.774 18.729 18.757 19.157 19.089 18.709 18.644 18.689 18.482 18.407 18.342 18.257 18.252 18.256 19.019 19.566 18.374 18.349 18.279 18.669 17.794 21.379 20.106 22.699 19.309 17.256 17.161 16.831 18.301 22.381 23.019 21.649 16.229 16.384 16.451 16.439 16.499 16.551 16.596 16.709 17.084 16.636 17.511 17.929 19.669 19.971 20.291 19.509 17.719 16.374 16.601 16.379 17.361 16.609 15.911 15.884 15.896 16.029 14.989 15.689 14.599 17.331 18.231 19.144 19.266 18.316 17.434 14.654 14.389 14.374 14.341 14.999 13.754 13.724 13.629 13.489 13.429 13.484 12.341 12.011 11.954 18.749 17.926 14.941 12.559 17.524 15.851 13.979 12.524 12.061 14.901 14.586 18.586 19.224 23.249 22.254 22.649 13.934 20.596 22.646 19.309 20.549 18.876 12.434 12.546 12.526 12.476 14.961 16.626 16.821 16.809 16.811 16.796 16.786 13.634 12.926 15.459 18.519 19.034 16.754 15.296 14.204 18.184 19.441 18.644 17.396 15.689 19.669 19.591 19.721 17.851 16.714 16.664 16.639 15.706 13.911 17.329 18.119 16.896 13.631 13.601 13.399 13.266 13.289 13.409 16.234 13.651 13.326 13.396 16.744 13.329 13.416 13.406 13.301 13.381 13.511 13.636 15.141 14.104 13.541 13.614 13.601 13.606 13.531 13.651 14.771 13.729 15.316 14.834 14.006 14.119 14.599 14.654 14.229 15.034 19.129 18.274 18.136 18.336 18.544 18.769 19.086 12.724 12.776 12.744 13.329 15.571 14.646 14.906 15.466 18.549 19.931 20.794 20.769 16.174 16.836 17.121 18.474 19.279 20.409 21.171 21.481 21.891 22.234 22.569 22.854 23.689 26.034 26.094 25.319 25.569 24.434 25.721 25.451 25.474 25.596 25.889 26.084 26.781 28.509 30.536 35.054 37.859 39.214 37.441 35.864 34.039 29.281 29.351 29.659 30.411 29.434 29.394 33.561 35.229 30.889 31.086 31.134 33.419
14.964 14.847 14.759 16.149 19.272 20.744 19.659 17.989 17.114 14.937 16.367 15.987 15.012 15.027 15.004 15.904 18.894 20.237 21.489 20.122 18.807 15.837 15.222 15.784 14.877 14.719 14.719 14.739 14.809 14.919 14.924 14.917 14.929 14.897 14.874 14.854 14.789 14.674 14.672 14.692 14.719 14.747 14.777 14.777 14.772 14.769 14.769 14.769 14.774 14.757 14.769 14.862 14.992 15.012 15.022 15.347 16.482 15.934 16.109 16.164 16.064 15.384 15.394 15.399 16.034 18.199 17.117 16.342 16.339 16.792 17.012 16.264 16.267 16.592 16.864 16.487 16.507 16.479 16.639 16.514 16.547 16.669 16.742 16.914 17.122 17.249 17.229 17.184 17.289 17.367 17.332 17.159 18.002 17.107 17.152 18.429 22.247 24.512 24.149 22.554 18.034 16.772 17.304 16.742 17.019 16.872 17.317 17.599 17.754 18.404 17.507 17.529 17.534 23.192 24.289 20.557 17.549 17.604 17.604 23.479 22.409 18.872 17.764 17.767 17.797 17.757 17.762 17.772 17.887 18.504 19.499 18.757 18.474 18.459 18.512 18.377 18.697 18.307 18.527 18.747 18.847 16.684 18.934 18.392 19.152 18.594 18.612 18.727 18.619 18.539 18.472 19.132 18.352 19.674 18.409 18.442 18.879 18.564 19.897 21.387 21.592 18.807 19.562 22.734 24.024 22.932 21.624 18.707 18.567 18.594 18.972 18.504 18.499 20.722 20.999 18.624 18.727 19.707 19.059 19.674 24.944 26.082 26.329 25.157 23.069 18.792 18.654 19.477 20.177 18.624 18.607 18.579 18.549 18.549 18.749 19.097 19.629 18.597 19.329 18.722 19.644 18.259 18.202 18.197 18.206 18.266 18.299 18.404 18.664 18.084 17.959 18.586 19.649 22.999 19.104 21.861 18.336 20.874 16.721 16.409 18.241 22.679 18.619 16.231 16.381 16.436 21.969 23.344 19.271 19.071 18.746 18.666 18.154 16.984 17.084 17.071 16.846 17.474 16.994 16.454 16.364 16.574 16.229 17.146 16.929 17.096 16.314 15.974 17.176 14.866 14.861 14.459 18.394 19.284 19.086 18.181 17.281 14.389 14.434 14.334 14.294 14.214 13.936 17.241 16.239 13.786 14.974 13.754 13.416 13.831 12.894 18.649 19.186 17.739 18.294 12.209 14.776 18.896 17.186 18.329 16.059 17.469 20.554 16.111 12.701 20.241 18.676 16.404 13.656 16.974 18.224 11.006 19.424 13.391 12.416 12.514 12.509 12.449 15.006 17.559 17.551 17.541 17.539 17.524 17.529 12.979 12.891 17.444 18.729 18.761 16.539 15.366 15.074 17.391 19.634 18.454 17.476 15.836 17.371 17.696 19.819 17.599 12.999 13.031 13.061 13.091 16.746 17.936 17.476 16.409 13.631 13.729 13.291 13.316 13.306 13.296 13.314 13.354 13.374 13.419 13.381 13.296 13.376 13.401 13.311 13.329 13.476 13.676 13.836 13.806 15.124 13.691 13.571 13.724 13.486 13.509 14.536 14.416 13.464 13.454 13.461 13.446 13.919 13.431 13.596 17.151 19.391 18.056 12.946 12.794 13.456 16.316 17.786 12.716 12.759 12.919 14.034 16.671 14.756 14.919 15.546 18.804 20.226 20.781 20.746 19.801 16.999 18.471 18.389 18.766 20.306 20.836 21.864 21.941 22.804 23.484 23.911 23.939 26.029 26.066 26.744 26.684 24.556 25.824 25.546 25.404 25.571 25.841 26.091 26.771 30.841 32.651 36.126 37.651 39.271 37.709 36.144 29.334 29.329 30.181 29.771 30.291 29.364 29.326 34.114 31.294 30.771 31.014 30.984 33.209
16.594 15.677 14.822 18.204 19.737 20.589 19.044 17.632 16.354 15.012 14.937 15.329 15.027 15.032 15.024 17.714 19.312 20.687 21.099 19.777 19.224 18.827 18.429 15.799 14.949 14.812 14.797 14.832 15.219 17.677 17.157 17.464 16.327 16.214 15.479 14.942 14.869 14.789 14.759 14.832 14.827 14.747 14.762 14.772 14.789 14.799 14.812 14.809 14.817 14.807 14.804 14.797 14.799 14.807 14.907 15.007 15.034 15.052 15.182 16.744 16.467 15.239 15.272 15.329 15.522 18.274 16.684 16.419 16.332 16.724 16.742 16.819 16.857 16.769 16.967 17.212 16.494 16.744 16.524 16.514 16.687 16.679 16.737 16.822 17.009 16.989 17.007 17.057 17.209 17.372 17.279 17.154 17.332 17.027 16.999 22.224 23.674 24.534 22.164 19.922 16.927 16.682 16.612 16.667 16.654 16.792 17.347 17.609 17.802 17.917 17.474 17.497 17.479 23.502 24.572 24.409 23.304 17.607 19.074 24.577 24.264 23.967 23.684 22.992 22.892 17.972 17.754 17.822 17.882 18.399 18.449 18.449 18.414 21.167 18.404 18.407 18.247 18.069 18.019 18.052 16.692 16.642 18.954 18.314 18.479 18.467 19.702 18.739 18.427 18.372 18.604 18.564 19.662 18.827 18.334 18.372 21.112 19.837 19.814 18.892 19.152 18.722 21.747 23.099 23.907 22.542 20.124 18.687 18.564 18.544 18.564 18.444 18.417 20.729 18.652 18.544 18.647 18.659 19.037 22.542 25.069 26.209 26.199 25.047 20.147 19.277 18.629 18.594 19.617 18.507 18.529 18.517 18.882 18.889 18.909 19.154 20.894 18.479 18.829 18.984 19.754 18.239 18.164 18.164 18.141 19.291 18.844 18.506 18.579 18.064 17.956 19.406 19.234 17.611 21.936 23.746 21.076 20.931 17.044 16.259 16.264 17.154 16.121 16.244 16.366 16.394 22.166 23.599 22.284 16.554 16.581 16.501 16.829 16.729 16.756 16.691 16.796 17.856 17.119 16.431 16.344 16.529 18.806 18.114 18.529 15.934 15.931 16.964 16.184 15.209 14.824 14.869 14.584 18.911 18.016 17.139 16.821 14.369 14.749 14.299 14.176 14.206 19.084 18.499 17.866 17.224 16.629 16.426 12.796 16.634 15.774 18.624 21.831 18.036 20.679 21.491 17.546 21.574 22.549 17.441 18.889 16.749 17.194 14.979 13.179 13.494 18.024 16.416 18.136 19.529 22.076 19.024 12.414 12.329 12.406 12.484 12.499 12.431 14.929 18.291 18.259 18.286 18.269 18.259 18.271 14.214 12.876 16.691 18.949 18.589 16.719 16.564 16.401 17.559 19.904 18.404 16.084 15.871 15.756 17.799 19.764 17.671 12.969 12.994 13.031 13.304 16.896 18.226 17.044 13.239 13.636 13.314 13.311 13.324 13.344 13.329 16.374 17.549 16.256 15.024 13.364 13.301 13.344 13.381 13.299 13.331 13.384 13.566 13.964 13.824 13.779 13.744 14.369 16.504 14.059 15.294 15.464 14.496 14.286 14.034 13.484 13.481 13.456 13.799 13.391 16.599 19.354 17.246 14.911 12.999 12.721 12.639 13.626 12.696 12.729 12.934 12.756 16.171 15.779 15.046 15.574 19.059 20.486 20.781 20.134 18.746 16.704 17.579 18.389 18.979 20.206 20.839 21.884 21.956 22.829 22.069 22.446 24.859 26.039 26.086 26.729 26.666 24.669 25.579 25.374 25.319 25.524 25.801 26.036 26.776 29.134 32.411 35.886 37.459 39.089 37.919 36.384 31.994 30.169 30.171 32.716 29.286 29.304 29.289 31.561 30.769 30.641 30.846 30.901 32.431
17.589 18.272 17.039 18.629 20.217 20.152 18.597 14.942 14.939 15.277 15.764 15.749 15.029 15.039 15.012 18.379 19.569 21.067 20.719 19.869 20.284 20.164 19.779 15.304 15.034 14.899 14.897 14.989 17.652 15.499 15.412 15.359 17.724 17.557 15.889 16.309 17.389 14.917 16.049 17.662 16.404 14.987 14.889 14.894 14.782 14.797 14.827 14.837 14.842 14.849 14.849 14.852 14.859 14.857 14.859 14.854 14.854 14.862 14.964 15.049 15.079 15.067 15.092 15.137 17.547 17.449 17.244 17.779 17.789 16.839 16.814 17.692 18.097 17.929 17.064 18.564 16.964 16.477 16.522 16.499 16.637 16.644 16.687 16.754 16.797 16.827 16.864 16.939 17.012 17.117 17.129 17.124 17.102 17.017 16.949 21.957 24.269 24.012 22.244 16.872 16.749 16.592 16.549 16.572 16.562 16.802 17.344 17.637 17.814 17.439 17.442 17.487 21.052 23.819 24.912 24.097 22.982 17.552 20.947 24.992 25.264 25.082 24.802 24.484 24.194 23.902 23.602 17.794 18.532 19.147 18.509 18.437 18.524 19.494 18.382 18.287 18.189 18.082 18.057 18.017 16.582 16.602 20.002 18.319 18.339 18.459 19.029 18.484 19.422 18.749 19.789 19.514 21.392 18.262 18.282 18.097 18.154 18.809 19.572 18.789 18.867 18.604 24.012 23.787 23.449 22.112 18.497 18.464 18.579 19.702 18.367 18.392 18.422 20.149 18.294 18.344 18.404 18.497 18.744 24.274 25.454 25.439 24.462 22.947 19.897 18.679 19.134 18.629 18.754 18.489 18.442 18.427 18.437 19.107 23.514 23.042 18.694 18.404 18.677 19.429 19.539 18.194 18.119 18.107 18.099 19.251 19.814 18.816 18.086 18.206 19.794 22.221 20.349 18.721 21.431 21.494 21.076 20.744 20.849 16.666 16.174 16.394 16.064 16.256 16.341 16.374 22.424 23.551 22.184 21.856 21.661 21.394 18.976 17.129 16.804 16.681 16.604 16.571 16.474 16.391 16.289 16.176 16.454 15.979 15.849 15.834 15.866 15.919 14.894 15.221 14.819 15.521 14.544 16.199 16.791 14.401 14.381 14.336 14.344 14.224 14.089 14.439 17.961 18.616 19.089 18.474 17.826 17.209 13.644 12.039 17.441 17.966 20.306 22.191 20.901 19.171 22.054 22.004 19.284 22.684 19.146 20.669 19.606 15.559 13.541 12.906 13.971 15.844 18.261 20.244 19.969 21.691 12.296 12.311 12.391 12.464 12.476 12.614 13.754 18.046 18.054 18.066 18.071 18.066 18.086 13.749 12.851 16.849 19.116 18.606 18.469 18.249 18.109 17.986 19.049 18.074 17.651 17.399 16.296 18.001 19.546 17.421 12.924 12.966 12.999 13.321 16.711 18.071 17.231 13.496 14.781 13.431 13.324 13.321 13.351 14.384 16.636 18.159 16.426 15.911 13.356 13.299 13.494 13.371 13.279 13.276 13.351 14.201 13.589 13.624 13.941 13.739 13.639 13.551 13.519 15.201 15.389 14.936 14.226 13.596 13.666 13.476 13.451 14.066 15.796 18.406 18.429 14.459 14.499 16.051 14.986 14.776 12.954 12.689 12.716 12.664 12.811 15.781 15.666 15.239 16.406 19.311 20.746 20.776 19.966 17.794 16.791 17.176 18.269 19.044 19.709 20.749 22.691 25.296 26.821 26.711 26.221 22.099 23.954 26.386 26.756 26.674 24.996 24.861 25.346 25.994 27.581 25.966 26.304 26.991 29.194 29.206 35.674 37.239 38.821 38.231 36.674 34.709 29.201 31.029 30.396 29.131 29.246 29.231 29.459 30.744 30.536 30.671 30.911 30.871
17.444 17.464 16.687 18.442 20.549 19.487 18.134 14.914 14.937 15.529 16.837 15.517 15.714 15.044 15.022 18.764 20.162 21.424 20.287 18.984 18.942 19.347 19.769 15.502 15.117 14.979 14.997 15.144 17.717 15.432 15.402 15.432 15.852 17.547 15.397 16.247 15.089 14.999 15.992 18.034 15.722 15.377 16.119 16.607 14.904 14.879 14.872 14.867 14.839 14.834 14.839 14.857 14.867 14.889 14.887 14.892 14.887 14.889 14.909 14.909 14.919 14.914 14.924 15.002 15.074 15.809 16.237 16.032 16.577 16.947 17.189 17.457 16.464 16.257 16.514 17.139 17.404 17.237 17.494 18.734 17.019 16.594 16.604 16.659 16.687 16.722 16.787 16.832 16.912 16.992 17.057 17.099 17.014 16.979 16.942 22.454 24.784 23.477 20.972 16.769 16.587 16.492 16.462 16.487 16.577 17.049 17.367 17.629 18.034 18.407 17.414 17.444 21.734 24.124 24.892 23.792 19.462 17.527 23.597 23.892 24.187 24.479 24.812 25.107 25.249 25.007 23.899 17.752 20.129 18.474 18.452 18.572 18.887 18.462 18.357 18.274 18.079 17.994 18.169 18.359 16.564 16.519 18.164 18.182 18.277 18.779 19.729 18.507 18.487 18.439 21.054 20.977 20.114 18.229 18.169 18.039 20.437 22.954 19.457 18.779 18.984 19.864 22.597 23.954 23.049 21.727 18.479 18.444 18.662 18.337 18.302 18.324 19.599 20.539 18.244 18.317 18.382 18.904 19.222 24.407 25.559 25.332 24.167 18.657 18.409 18.532 19.419 19.352 18.382 18.404 18.384 18.372 18.352 18.374 21.072 20.852 19.404 18.324 18.724 19.444 18.182 18.162 18.082 18.072 18.079 18.291 18.124 18.329 18.021 18.184 17.859 19.929 20.859 19.194 17.669 24.519 19.546 18.271 16.921 16.581 16.274 17.809 16.044 16.249 16.339 16.341 22.654 23.311 22.294 22.584 22.824 19.736 18.876 18.846 16.806 18.106 16.606 16.996 16.951 16.379 16.256 16.121 16.051 15.949 15.836 15.821 15.854 17.546 14.889 14.826 14.466 18.094 17.596 15.276 14.381 14.399 14.371 16.004 14.254 14.169 14.339 13.779 16.516 17.334 17.959 18.589 19.051 18.461 11.459 14.644 13.339 14.799 18.189 19.774 20.964 18.709 17.336 19.101 18.596 21.786 18.434 18.706 22.226 18.729 13.256 12.534 12.334 18.494 21.736 20.904 17.301 15.039 12.279 12.311 12.374 12.461 12.461 13.996 17.201 17.336 16.069 17.006 17.331 17.361 17.356 14.056 12.816 17.051 19.379 19.429 19.639 19.774 19.896 19.766 20.084 19.416 19.246 19.091 18.959 18.701 19.239 16.984 13.561 14.224 12.989 13.151 16.764 18.344 19.771 18.929 17.561 18.499 18.684 18.846 18.994 19.144 19.326 19.514 16.594 16.114 13.344 13.294 13.381 13.346 13.289 13.234 13.339 13.411 13.521 13.591 13.711 13.714 13.601 14.596 13.509 13.576 13.619 13.291 13.239 13.829 14.331 15.234 15.419 16.224 15.981 17.864 18.039 13.566 17.719 17.376 17.044 16.699 13.006 12.691 12.709 12.569 14.301 15.324 15.939 15.269 16.001 15.699 15.656 16.511 17.771 17.329 17.204 17.171 18.706 19.374 20.256 21.274 21.911 26.016 27.379 27.461 25.916 22.821 24.049 26.621 26.891 25.504 26.254 25.309 26.256 27.379 27.136 27.209 28.581 26.656 29.324 32.119 35.391 36.916 38.534 38.711 36.886 35.659 29.341 30.726 31.029 29.106 29.179 29.176 29.181 30.594 30.424 30.481 30.664 30.751
17.027 17.407 14.779 15.277 17.517 17.864 17.149 15.892 15.097 15.577 17.202 15.027 15.544 15.272 15.047 17.549 20.534 21.212 19.917 18.547 16.367 18.037 16.329 16.017 15.134 15.069 15.099 15.244 17.714 15.459 15.479 15.669 20.027 16.949 15.397 15.254 15.187 15.897 16.187 17.967 15.444 15.427 15.399 15.417 16.757 14.974 14.944 14.962 14.949 14.954 14.964 14.982 14.862 14.867 14.882 14.889 14.919 14.924 14.937 14.949 14.952 14.952 14.949 14.942 14.939 14.929 14.974 15.064 15.097 15.114 15.227 15.694 15.364 15.597 15.769 15.969 16.162 16.264 16.342 16.402 16.442 16.494 16.542 16.642 16.829 16.957 16.942 16.797 16.822 16.942 17.039 17.222 19.109 16.992 17.027 16.899 16.867 21.827 20.557 16.614 16.444 16.344 16.389 16.387 16.509 17.114 17.409 17.662 18.202 17.484 17.367 17.387 23.297 24.437 24.572 23.499 17.827 17.539 17.604 17.622 22.069 23.367 23.674 23.994 24.309 24.567 19.524 17.754 19.709 18.389 18.457 18.622 18.359 18.182 18.189 18.297 18.294 17.964 17.964 18.122 16.514 16.484 18.099 18.254 18.114 18.222 18.389 18.414 18.962 18.639 20.522 20.237 18.957 18.527 18.027 18.857 18.259 21.327 19.109 21.269 21.157 18.854 21.964 24.012 22.637 21.192 18.469 18.447 18.399 18.272 18.239 18.244 19.494 20.127 18.239 18.294 18.342 18.462 21.044 24.559 25.724 25.164 24.022 19.039 18.382 18.402 18.382 18.539 18.427 18.339 18.329 18.319 18.319 18.274 18.277 18.802 18.524 18.267 18.387 18.232 18.109 18.082 18.039 18.007 18.146 18.046 18.031 17.974 17.934 18.166 17.714 17.979 18.969 16.911 16.851 20.314 19.094 17.399 19.031 16.799 17.399 16.676 16.294 16.226 16.321 16.319 22.884 23.036 21.754 21.551 20.909 19.541 18.469 16.909 16.796 16.756 16.581 16.501 16.394 16.301 16.181 16.086 16.169 16.074 15.854 15.821 15.866 16.219 15.354 14.596 17.934 19.024 18.699 17.734 15.011 14.401 14.366 14.549 14.211 14.096 13.916 14.689 13.789 16.569 16.789 17.361 18.006 12.566 11.364 11.331 11.396 11.614 18.674 19.014 15.904 19.841 17.891 19.414 20.176 23.459 19.636 19.159 17.724 13.971 11.571 11.131 11.086 11.046 18.926 13.401 10.931 12.554 12.276 12.319 12.381 12.454 12.421 14.504 16.596 16.596 16.614 16.621 16.619 16.614 16.606 14.419 12.774 17.251 19.554 17.979 17.849 18.006 18.184 18.366 19.984 18.621 18.784 18.956 19.139 19.316 19.029 16.786 14.961 13.091 13.186 13.154 16.076 18.194 19.571 19.066 18.491 19.856 20.009 20.191 20.356 20.539 20.706 20.874 18.109 18.326 13.331 13.356 13.226 13.309 13.266 13.344 14.394 15.649 13.491 13.534 13.676 13.799 16.259 16.274 13.476 14.756 16.284 14.174 13.319 13.136 13.091 13.056 13.021 13.306 15.784 18.356 17.659 15.761 17.506 17.799 18.126 18.109 12.544 12.656 12.651 12.624 13.001 13.209 13.396 13.589 13.861 14.274 14.616 15.751 17.554 17.491 16.666 17.646 18.534 19.439 19.684 22.556 24.696 25.944 27.451 27.229 27.204 22.111 23.534 25.919 26.801 24.831 24.896 27.821 25.971 26.691 26.329 26.301 26.394 26.664 29.324 31.989 35.151 36.136 38.189 38.774 37.104 35.534 30.324 29.174 29.119 29.061 29.096 29.109 29.094 30.576 30.361 30.341 30.496 30.564
16.772 15.154 15.707 15.402 14.824 14.834 15.029 14.917 14.944 14.949 16.379 15.057 14.994 15.572 18.932 19.799 14.999 15.084 16.692 18.147 15.989 15.504 16.714 15.792 15.142 15.154 15.172 15.444 16.664 15.457 15.492 18.522 21.687 21.322 16.292 15.329 15.309 16.134 17.862 16.152 15.474 15.464 15.452 15.427 15.409 15.077 15.062 15.102 15.092 15.362 15.432 15.459 15.354 15.049 15.029 14.997 14.897 14.897 14.927 14.942 14.949 14.969 14.982 14.984 14.987 15.834 17.217 17.037 14.959 14.949 14.982 15.067 15.112 15.137 15.157 15.217 15.319 15.437 15.604 15.852 16.104 16.257 16.384 16.527 16.567 16.584 16.607 16.672 16.724 16.799 16.962 17.302 18.219 17.869 17.259 17.314 17.112 17.704 17.834 17.039 16.349 16.307 16.304 16.297 16.442 17.197 17.499 17.694 17.679 17.334 17.352 17.472 23.624 24.719 24.289 23.169 17.877 17.544 17.619 17.617 17.657 19.674 17.922 19.492 23.184 23.499 17.704 18.539 18.639 18.317 18.342 18.364 18.364 17.857 17.749 18.342 18.394 18.082 18.032 17.767 16.484 16.464 16.737 16.822 16.912 17.022 20.367 20.059 19.192 17.789 20.632 17.832 17.847 18.037 17.869 19.392 20.884 22.739 18.627 21.237 21.544 21.832 18.387 18.324 18.399 18.334 18.424 18.414 18.349 18.192 18.174 18.159 20.057 18.177 18.182 18.252 18.319 18.532 22.554 24.707 25.842 25.019 23.864 19.117 18.669 18.322 18.867 18.614 19.562 18.764 18.302 18.269 18.262 18.247 18.227 18.202 18.197 18.182 18.114 18.079 18.069 18.029 17.997 17.969 17.944 18.649 17.949 17.886 17.844 18.551 17.951 17.221 22.449 24.499 23.769 22.534 22.449 22.411 22.354 22.269 22.246 21.034 15.846 16.206 16.291 18.456 23.001 22.921 22.604 22.631 19.894 20.214 20.141 17.879 17.681 17.401 16.649 16.531 16.369 16.276 16.181 16.496 15.969 16.954 17.581 17.386 16.366 15.024 14.776 17.799 18.854 19.789 18.756 18.489 17.909 14.849 14.384 14.294 14.146 17.104 15.416 14.499 13.786 13.989 14.386 13.664 16.789 11.556 11.419 11.349 11.291 11.514 15.771 16.746 18.534 17.789 16.319 22.524 20.054 21.026 22.354 12.659 13.664 10.836 10.839 10.831 10.839 10.831 10.846 10.871 12.074 12.579 12.259 12.304 12.311 12.331 12.386 14.816 11.959 12.044 11.979 12.659 15.054 15.761 16.484 12.704 12.741 17.464 19.804 17.779 16.216 16.329 16.429 18.416 19.699 17.484 18.726 17.259 17.379 18.649 18.864 16.614 12.799 12.859 13.134 13.141 14.494 18.021 19.389 19.576 19.744 21.229 21.399 21.581 21.746 21.894 22.056 22.234 20.259 20.221 14.566 13.451 13.184 13.276 13.239 13.236 16.191 16.164 16.111 13.494 13.596 15.656 16.249 15.881 13.669 13.719 15.229 14.526 19.399 19.089 18.841 18.544 17.351 15.446 12.876 12.851 12.806 13.831 15.544 16.429 16.744 17.096 12.536 12.631 12.609 13.306 13.076 17.556 16.169 13.594 13.771 14.646 15.791 15.961 15.481 15.996 17.629 17.689 18.656 20.614 19.826 24.301 24.921 25.561 27.826 27.231 27.199 25.231 23.401 25.571 24.591 25.789 25.179 27.419 27.446 25.786 26.599 26.364 26.426 26.661 29.324 31.894 33.826 36.421 37.939 39.034 37.406 35.844 29.211 29.511 30.151 29.016 29.016 29.046 29.034 30.801 30.386 30.239 30.266 30.296
16.647 15.192 14.864 14.744 14.754 14.852 16.899 14.919 14.937 15.899 14.984 14.992 14.997 18.032 19.329 20.687 20.479 19.144 17.269 15.129 16.337 15.287 17.254 15.542 15.174 15.209 15.242 15.374 15.484 15.542 15.562 20.682 22.112 20.812 15.734 15.509 16.447 16.637 19.247 18.284 15.519 15.489 15.469 15.522 15.534 15.139 15.247 15.182 15.872 15.527 15.497 15.454 15.439 15.399 15.442 15.467 15.364 15.084 15.062 15.022 14.939 14.957 14.979 14.989 15.002 15.019 15.029 15.079 16.032 15.019 15.024 15.254 15.504 15.012 14.987 15.034 15.119 15.152 15.174 15.217 15.259 15.354 15.474 15.619 15.862 16.087 16.254 16.447 16.602 16.732 16.812 16.882 16.962 16.854 16.977 17.059 17.104 17.107 17.079 16.997 16.242 16.269 16.222 16.222 16.367 17.259 18.022 17.742 17.454 17.319 17.332 20.852 23.937 24.972 23.972 22.322 18.162 17.554 17.587 17.602 17.597 17.622 17.657 17.682 17.657 17.704 17.684 19.594 18.097 18.102 18.239 18.287 18.402 16.202 16.364 18.072 18.449 17.902 17.889 17.359 16.432 16.469 16.744 16.822 16.917 17.027 20.804 21.357 20.734 18.102 17.882 17.509 17.509 17.692 17.722 20.992 22.759 23.897 20.659 18.272 18.744 19.859 18.387 19.392 18.339 18.384 18.372 18.337 20.642 18.249 18.087 18.017 20.142 18.227 18.132 19.377 18.252 18.324 18.462 22.059 25.204 24.862 23.107 18.414 19.437 18.274 19.277 18.284 18.242 18.234 18.584 18.259 19.014 19.499 19.229 18.177 18.152 18.532 19.337 18.947 18.017 17.979 17.957 17.932 17.899 17.869 17.814 17.774 17.701 17.799 17.594 17.136 23.161 24.711 24.259 24.151 24.104 24.041 23.996 23.946 23.889 23.641 16.051 16.201 16.276 20.016 23.126 22.854 21.471 21.506 19.599 19.624 19.659 17.769 17.064 18.306 17.581 17.241 16.839 16.711 16.179 16.046 15.929 16.731 18.651 18.294 16.831 16.979 16.976 17.659 18.979 18.869 17.819 17.504 16.371 14.384 14.561 14.184 17.711 18.714 20.446 15.069 15.926 15.104 16.106 13.791 11.981 11.641 11.434 11.364 11.681 11.311 14.276 15.219 15.649 18.364 16.969 19.019 18.446 16.271 20.099 22.321 16.424 10.834 10.834 10.836 11.044 12.291 12.259 13.001 12.371 12.274 12.251 12.279 12.284 12.329 13.811 14.401 11.981 11.971 11.984 12.594 14.971 15.156 16.414 13.659 12.684 17.671 19.839 17.546 14.016 14.644 16.366 18.599 19.496 17.251 12.866 12.966 16.606 18.884 18.591 15.541 12.779 13.931 13.121 13.231 13.244 17.871 19.199 20.561 21.016 22.649 22.784 22.889 23.601 22.654 22.474 22.271 21.214 19.051 15.079 13.266 13.144 13.244 13.219 13.154 15.419 16.636 15.716 13.784 13.514 13.551 13.539 13.559 13.671 13.649 14.756 13.616 20.201 20.369 20.164 19.906 19.611 19.336 19.111 13.346 14.061 15.531 12.729 12.621 12.511 12.651 12.544 12.601 12.559 12.706 12.811 18.334 19.904 18.739 15.101 13.864 19.551 20.596 20.411 19.404 20.541 20.136 20.121 19.711 20.699 21.581 22.544 25.884 26.839 26.434 25.891 26.231 24.111 24.489 24.631 24.686 24.724 26.056 27.776 25.909 28.009 26.479 26.461 26.731 26.681 26.781 27.341 30.831 37.666 39.184 37.679 36.094 29.334 29.141 29.059 28.971 28.926 28.984 28.969 30.311 30.276 30.131 30.151 30.216
15.597 15.884 18.082 18.479 19.312 17.072 14.997 14.987 14.994 17.184 15.172 14.987 14.994 18.404 19.762 21.087 20.194 18.802 15.967 15.234 15.257 15.304 16.037 15.359 15.217 15.259 15.297 15.464 15.502 16.794 15.842 19.422 21.949 20.442 16.907 15.497 16.969 15.619 19.324 15.567 15.487 15.502 15.492 17.099 15.227 15.239 15.297 15.259 15.539 15.557 15.549 15.532 15.502 15.477 15.982 15.552 15.427 15.454 15.487 15.464 15.072 15.049 15.047 15.012 14.989 15.017 15.024 15.034 15.042 15.049 15.079 15.099 15.097 15.109 15.082 15.069 15.054 15.044 15.049 15.037 15.102 15.154 15.202 15.239 15.284 15.324 15.407 15.552 15.694 15.859 16.019 16.229 16.482 15.592 16.667 16.877 16.932 16.967 16.864 16.129 16.247 16.082 16.122 16.157 16.249 16.484 17.524 18.012 18.002 17.299 17.329 22.437 24.227 24.792 23.667 17.652 17.497 17.552 17.574 17.584 17.592 17.629 17.659 17.669 17.684 17.677 17.864 18.859 17.902 17.799 18.092 18.172 18.197 16.207 16.417 17.954 18.157 17.784 17.782 18.287 16.397 16.432 17.984 16.869 16.952 19.059 21.099 21.524 20.439 19.677 17.704 17.462 17.482 17.797 19.549 19.917 22.552 18.247 18.309 18.557 17.942 17.929 17.947 17.994 18.457 18.527 18.157 18.139 19.597 18.157 18.599 19.399 19.689 18.134 18.194 18.149 18.154 19.922 19.377 18.307 18.324 18.317 18.309 18.829 19.412 23.882 23.762 23.597 23.457 21.337 18.309 18.417 18.437 18.254 18.394 18.239 18.669 18.149 20.142 21.104 18.694 18.012 17.962 17.899 17.854 17.796 17.754 17.654 17.544 17.491 18.369 17.079 22.936 23.966 24.221 24.349 24.386 24.451 24.516 24.579 24.644 24.654 16.079 16.166 16.254 19.274 24.661 24.964 21.671 20.046 18.911 18.934 18.941 18.311 16.889 17.081 19.189 17.756 17.624 17.656 16.794 16.174 18.066 16.141 17.209 16.764 17.019 16.961 16.956 14.674 17.501 17.966 16.204 16.904 14.374 14.359 15.299 14.109 16.524 20.291 22.866 24.331 19.589 15.611 14.316 12.529 12.094 11.364 13.529 11.134 10.749 10.629 10.661 11.116 12.401 13.626 19.606 19.994 17.819 19.564 19.776 16.466 13.981 11.999 13.299 13.996 12.406 12.059 12.084 12.089 13.429 18.814 15.781 17.091 12.294 12.311 14.781 11.989 11.981 11.991 11.991 11.991 14.939 15.579 16.386 14.709 12.644 12.959 12.904 12.714 12.706 12.726 12.756 13.571 13.954 13.959 12.744 12.736 16.839 19.164 18.399 14.891 12.784 13.216 16.189 16.661 16.319 17.716 19.079 20.426 20.684 21.951 21.914 21.774 21.596 21.419 21.236 20.921 19.784 17.724 13.776 13.204 13.586 13.186 13.206 13.124 13.464 15.906 15.904 13.874 15.011 14.209 15.314 13.656 13.716 13.716 14.626 13.391 18.851 19.124 19.404 19.681 19.979 20.279 20.716 12.589 12.491 15.809 17.001 19.604 19.634 16.779 12.796 12.584 12.521 14.084 13.441 18.779 19.679 18.314 14.989 13.839 19.516 20.541 20.269 19.264 19.684 20.086 20.374 20.556 21.669 21.379 22.076 22.184 22.316 22.201 22.176 24.564 24.169 24.564 24.664 24.691 24.884 26.669 26.724 25.669 26.889 26.714 26.689 26.679 26.781 26.919 27.054 29.509 37.456 39.029 37.924 36.286 35.371 29.134 29.034 28.924 28.829 28.909 28.906 31.461 34.874 29.986 29.986 30.096
14.764 16.089 18.829 19.019 19.084 17.697 14.997 14.994 14.989 15.747 15.007 14.997 15.262 18.797 20.109 21.064 20.177 19.779 15.807 15.312 15.334 15.367 15.712 15.379 15.244 15.279 15.339 16.347 15.464 15.494 15.537 15.522 15.542 15.542 15.892 15.537 15.617 17.009 16.057 15.574 15.522 15.504 15.447 15.354 15.287 15.309 15.349 15.349 15.849 15.589 15.594 15.587 15.552 15.539 15.694 15.629 15.504 15.499 15.462 15.507 15.327 15.179 15.154 15.142 15.127 15.114 15.157 15.144 15.049 15.052 15.059 15.072 15.094 15.127 15.137 15.149 15.152 15.147 15.139 15.139 15.147 15.139 15.139 15.144 15.147 15.162 15.197 15.279 15.339 15.387 15.439 15.467 15.507 15.509 15.667 15.859 15.989 15.972 15.949 15.909 15.957 16.022 16.039 16.059 16.092 16.177 17.322 18.139 17.609 17.279 17.322 17.377 17.379 22.004 23.357 17.444 17.494 17.509 17.534 17.567 17.574 17.614 17.612 17.629 17.634 17.784 17.847 18.229 17.639 16.527 17.999 17.947 20.802 21.979 20.607 17.719 16.787 16.157 16.197 16.347 16.352 16.742 16.199 16.514 16.769 18.299 19.882 20.187 20.189 20.004 17.439 17.434 17.482 17.464 17.542 17.632 21.107 18.447 18.219 18.454 17.879 18.562 17.862 17.879 19.314 18.537 18.022 18.364 18.199 18.097 20.617 19.102 18.134 18.152 18.149 18.147 18.159 18.242 20.044 18.264 18.472 18.247 18.232 18.267 20.367 25.034 24.894 24.754 24.617 24.139 23.987 23.844 23.729 23.907 23.779 23.624 23.332 18.194 20.557 19.789 19.867 18.377 17.977 17.947 17.896 17.796 17.736 17.611 17.494 17.326 17.169 16.994 19.294 22.001 22.249 22.331 22.404 22.476 22.544 22.601 22.689 22.721 16.321 16.149 16.226 20.569 23.341 24.826 23.284 20.839 16.626 17.176 17.409 18.129 16.714 16.524 16.801 16.796 17.599 18.781 18.069 19.414 17.354 17.306 18.071 18.036 17.021 17.004 16.976 14.461 14.419 15.799 14.581 14.391 14.361 15.019 15.614 14.059 14.284 22.214 22.784 23.716 18.296 13.264 12.919 12.566 11.016 10.569 12.826 20.209 15.089 11.084 10.649 11.484 12.549 11.634 14.054 18.521 16.069 12.811 13.759 18.324 12.089 12.091 12.099 12.111 12.079 12.086 12.099 12.919 17.101 20.344 16.346 12.919 12.271 12.291 14.791 11.956 11.961 11.986 11.994 11.986 14.141 15.594 16.339 15.294 12.614 12.609 12.626 12.636 12.659 12.661 12.661 12.664 12.666 12.686 12.709 12.691 13.366 12.874 13.576 12.776 13.229 13.109 16.521 17.354 16.351 17.474 18.894 19.779 19.431 20.556 20.469 20.366 20.211 20.019 19.859 19.604 19.171 16.194 13.971 13.184 13.081 13.169 13.201 13.111 13.116 13.206 13.396 14.086 14.681 14.166 14.329 14.169 14.829 15.924 14.911 13.401 13.241 13.881 15.684 16.589 18.669 18.931 18.976 12.579 13.041 18.916 18.646 19.819 19.384 14.966 12.476 12.546 12.829 13.034 17.499 19.296 19.209 17.904 16.296 13.819 19.564 20.549 20.186 19.206 19.381 20.106 20.321 20.041 20.211 20.191 20.634 21.016 21.526 22.921 22.221 24.089 25.289 24.586 24.614 24.641 26.144 27.911 27.901 25.696 26.044 26.646 26.626 26.684 26.769 26.821 27.001 29.504 36.424 38.796 38.179 36.636 33.504 29.749 29.571 28.974 28.741 28.834 28.841 29.819 30.244 29.796 29.859 30.526
14.787 16.384 17.574 18.897 18.869 17.497 14.889 15.069 14.964 15.339 15.149 14.994 17.147 19.239 20.547 20.719 21.064 21.112 15.357 15.364 15.382 15.399 15.757 15.372 15.249 15.279 15.424 19.697 16.609 15.557 18.947 19.932 15.814 15.537 15.567 15.567 17.187 18.724 15.582 15.567 15.582 15.552 15.504 15.439 15.407 16.079 15.432 15.444 15.659 15.652 15.642 15.649 15.627 15.589 15.649 15.562 15.559 15.562 15.512 15.529 15.472 15.269 15.549 15.259 15.232 16.689 15.714 15.632 15.587 15.307 15.217 15.204 15.154 15.062 15.104 15.129 15.134 15.154 15.167 15.189 15.209 15.219 15.227 15.232 15.242 15.249 15.254 15.274 15.282 15.282 15.297 15.307 15.324 15.377 15.467 15.514 15.574 15.632 15.692 15.759 15.809 15.877 15.907 15.932 15.962 15.969 16.174 17.334 17.764 17.214 17.277 17.324 17.357 17.399 17.417 17.434 17.449 17.474 17.499 17.562 17.592 17.614 17.599 17.612 17.599 17.752 18.887 18.219 16.157 16.247 16.349 17.624 21.267 21.992 21.112 16.449 16.402 16.802 19.399 16.284 16.314 17.269 16.239 16.252 16.817 17.004 16.624 16.764 16.889 20.387 21.002 16.969 16.874 17.327 17.307 17.429 18.697 18.402 18.357 18.252 17.787 17.792 17.802 17.899 17.829 18.554 17.917 17.894 18.157 18.429 18.937 19.982 20.557 19.067 19.769 18.164 18.494 18.337 18.254 18.279 18.279 18.249 19.084 18.317 19.934 25.349 25.487 25.682 25.734 25.269 25.124 24.997 24.879 25.057 24.912 24.752 24.624 20.087 21.572 21.454 19.637 17.979 17.917 18.922 18.736 17.876 17.826 17.621 17.456 17.281 17.081 16.896 16.664 16.594 16.544 16.509 16.491 16.631 16.854 16.319 16.551 16.901 16.029 16.124 16.199 21.746 23.379 24.836 23.291 22.541 22.401 20.036 16.561 17.861 16.521 16.466 16.401 16.331 16.239 16.216 16.734 16.381 16.699 16.976 18.039 17.836 17.016 16.996 16.241 14.496 14.439 14.369 14.341 14.369 15.656 14.179 14.061 13.991 13.954 20.156 23.376 22.069 15.904 13.796 14.691 13.284 10.554 13.486 13.896 16.784 19.474 16.199 12.896 12.989 13.016 12.409 12.161 12.051 12.141 12.154 12.086 12.091 12.106 12.121 12.119 12.104 12.119 12.121 12.121 12.114 17.531 19.014 14.171 12.234 12.251 12.311 14.696 11.916 11.924 11.939 13.134 13.756 14.494 15.539 16.266 16.821 12.666 12.551 12.561 12.581 12.591 12.594 12.606 12.606 12.609 12.629 12.621 12.644 12.661 12.684 12.716 12.751 13.414 13.014 14.766 16.334 14.289 17.361 18.676 19.929 18.581 19.019 19.009 18.979 18.786 18.564 18.361 18.074 17.876 16.306 14.731 13.194 13.076 13.126 13.181 14.704 13.081 13.196 13.311 13.509 13.664 14.111 14.964 14.651 14.829 15.084 14.314 14.514 13.284 14.154 14.784 13.476 13.084 13.784 16.654 13.124 15.344 19.381 20.114 20.111 19.144 13.409 12.496 12.504 14.261 14.749 18.139 19.779 18.819 20.046 16.579 13.994 19.634 20.584 18.329 19.139 19.311 19.994 20.144 19.836 20.394 19.789 19.756 19.746 21.301 22.871 22.914 25.131 24.014 25.044 26.714 26.761 28.604 27.529 27.339 27.436 26.491 26.371 26.481 26.641 26.686 26.771 26.829 28.194 28.151 28.211 28.304 29.824 31.354 31.381 31.246 28.759 28.681 28.749 28.799 29.309 30.959 29.589 29.711 32.844
15.739 16.154 17.724 19.127 18.712 17.224 14.829 14.867 14.959 16.887 14.989 14.979 18.269 19.599 20.899 20.204 19.702 19.574 15.342 15.369 15.397 15.389 15.389 15.289 15.259 15.282 15.447 15.984 15.379 15.619 19.472 19.347 15.892 18.429 19.559 19.467 17.292 16.684 15.854 15.629 17.409 15.629 15.599 15.509 15.454 15.614 15.517 15.557 15.604 15.652 15.699 15.677 15.642 15.652 15.722 15.659 15.637 15.609 15.597 15.567 15.587 15.344 15.704 15.397 15.372 15.619 15.644 15.614 15.594 15.712 15.724 15.737 15.724 15.242 15.202 15.169 15.159 15.139 15.144 15.162 15.174 15.189 15.217 15.237 15.264 15.299 15.327 15.344 15.359 15.372 15.387 15.387 15.409 15.414 15.444 15.467 15.489 15.527 15.569 15.639 15.682 15.719 15.749 15.759 15.789 15.797 15.952 15.987 16.009 16.024 16.854 17.274 17.222 17.262 17.287 17.299 17.377 17.434 17.479 17.537 17.562 17.607 17.597 17.592 17.597 17.887 20.199 20.012 19.619 19.437 19.314 19.114 21.349 21.882 20.852 16.947 17.922 19.314 22.094 18.472 16.297 18.334 16.629 16.367 16.604 16.614 17.069 16.714 17.599 19.447 17.404 16.784 16.757 17.279 17.507 17.487 20.517 20.199 19.894 17.857 19.159 19.204 19.194 18.147 17.752 17.869 17.812 17.737 17.992 18.499 19.287 20.887 21.414 20.872 19.047 18.207 18.277 18.327 18.339 18.282 18.292 18.282 18.334 18.397 23.479 24.209 24.369 24.499 24.624 25.014 25.159 25.302 25.402 25.334 25.439 25.617 25.687 19.972 21.694 21.267 18.039 17.947 17.874 17.822 17.751 17.889 18.624 17.811 17.486 17.311 17.109 16.871 16.624 16.554 16.491 16.419 16.371 16.486 16.249 16.186 16.141 16.069 15.999 16.109 16.171 20.911 23.414 24.831 23.316 23.089 22.581 19.921 18.014 16.701 16.464 16.401 16.351 16.296 16.219 16.154 17.391 16.039 16.061 16.334 16.091 16.741 16.056 17.259 16.811 14.471 15.651 15.834 14.344 14.284 14.174 14.101 13.996 13.916 13.861 15.661 17.019 16.024 18.129 18.771 17.266 14.129 10.524 14.389 17.959 16.279 17.434 16.524 12.331 11.921 11.994 12.041 12.059 12.039 12.039 12.056 12.106 13.426 14.104 14.141 14.709 14.551 14.841 12.141 12.151 12.139 12.246 12.189 12.181 12.221 12.229 13.299 13.619 11.859 11.876 11.921 13.239 13.714 14.129 15.304 16.216 16.216 12.909 12.491 12.496 12.509 12.519 12.531 12.536 12.531 12.551 12.569 12.571 12.581 12.594 12.634 12.656 12.701 15.356 12.901 12.886 12.919 13.149 17.181 18.529 19.896 18.776 17.409 13.516 13.101 13.066 13.916 14.506 15.974 17.466 16.431 16.104 13.114 13.076 13.081 13.164 13.471 13.079 13.541 13.434 13.641 13.534 16.841 15.869 14.459 15.731 16.829 15.086 14.196 13.914 13.724 13.711 14.224 13.586 13.281 14.076 14.706 16.821 18.506 18.869 20.296 18.916 12.394 12.461 12.464 14.764 14.831 18.829 19.849 18.421 16.899 16.564 14.331 14.566 19.584 20.081 18.981 19.331 19.891 19.966 19.899 19.754 19.699 19.681 19.656 21.379 24.959 25.394 25.024 24.681 22.351 22.769 26.101 27.399 25.381 25.716 25.759 26.321 26.259 26.646 26.554 26.726 26.656 26.751 27.311 27.561 27.676 28.519 31.174 31.406 31.421 31.446 28.731 28.634 28.676 28.731 28.781 29.374 29.401 31.246 33.129
14.817 15.362 17.867 19.329 18.444 15.639 14.807 15.972 15.417 17.872 17.787 16.544 18.659 20.012 21.162 19.854 18.587 16.187 15.337 15.362 15.389 15.367 15.367 15.259 15.252 15.289 15.462 16.234 15.484 16.114 20.012 19.529 19.202 18.919 20.024 18.899 16.722 15.577 19.282 19.059 18.852 19.899 20.377 19.029 15.552 15.579 15.592 15.622 15.659 15.687 16.074 15.764 15.694 15.704 15.762 15.647 15.689 15.667 15.647 15.629 15.517 15.412 15.524 15.507 15.562 15.667 15.687 15.679 15.687 15.887 15.802 15.824 15.802 15.784 15.309 15.282 15.264 15.257 15.247 15.252 15.307 15.319 15.302 15.222 15.219 15.242 15.274 15.304 15.337 15.364 15.397 15.439 15.454 15.494 15.519 15.539 15.552 15.559 15.592 15.622 15.657 15.679 15.702 15.714 15.719 15.732 15.719 15.749 15.842 15.877 15.912 15.932 15.959 16.159 17.202 17.294 17.204 17.282 17.357 17.424 17.504 19.647 17.537 17.517 17.512 18.314 20.624 19.762 20.827 20.624 20.457 20.292 20.487 21.764 20.467 20.302 19.949 19.677 22.134 17.134 16.262 19.469 19.157 18.894 18.834 17.092 21.267 22.339 21.367 18.672 16.792 16.754 16.724 16.907 19.374 19.024 20.422 20.082 19.804 17.037 19.112 19.012 19.072 17.894 18.724 18.032 17.737 17.714 18.174 19.367 19.347 21.347 22.724 23.052 21.689 18.277 18.522 18.374 18.344 18.294 18.302 18.282 18.299 18.647 18.797 21.834 23.249 23.357 23.564 23.874 24.017 24.144 24.189 24.162 24.317 24.452 24.519 20.724 21.862 21.147 18.019 17.912 17.819 17.734 17.664 17.821 17.994 17.221 19.759 21.899 22.656 20.014 16.614 16.501 16.429 16.421 18.076 17.216 16.196 16.131 16.069 16.011 15.991 16.094 16.141 21.631 23.431 23.906 23.224 21.731 21.671 19.874 16.346 16.379 18.654 18.454 17.969 16.821 16.139 16.094 16.566 16.061 16.094 16.026 18.009 16.059 14.594 17.711 19.079 19.039 17.526 14.521 14.321 14.366 14.089 14.016 13.939 13.821 13.754 13.656 19.484 18.641 17.934 18.786 20.474 18.346 19.719 16.824 16.919 19.124 17.436 13.626 11.799 11.899 11.976 11.976 11.986 12.014 12.204 13.584 13.274 14.284 15.306 15.159 15.169 15.174 15.171 12.151 12.181 12.169 12.239 12.166 12.164 12.239 12.266 14.574 11.806 11.784 11.826 14.981 15.046 15.091 15.134 15.441 16.184 16.694 13.479 12.464 12.439 12.441 12.429 12.451 12.464 12.479 12.494 12.519 12.514 12.519 12.529 12.546 12.579 14.416 14.354 13.514 13.071 12.849 12.924 14.964 13.424 13.749 13.039 13.026 13.044 13.049 13.016 13.024 13.006 13.284 13.489 13.074 13.091 13.076 13.056 13.026 13.131 13.066 13.006 14.481 13.476 13.559 13.589 14.699 15.051 14.394 14.376 14.179 14.131 14.131 13.639 13.729 13.719 13.904 13.669 13.889 13.026 13.369 15.659 17.566 19.081 20.204 18.714 12.389 12.444 12.404 12.751 18.079 19.429 19.711 18.491 16.601 16.626 14.486 16.394 19.861 19.826 18.404 19.411 19.764 19.774 19.636 19.686 19.659 19.649 19.621 24.321 25.389 26.694 26.369 26.034 25.284 22.289 25.076 27.716 24.646 25.104 26.176 26.461 26.441 27.276 27.974 28.144 28.091 26.686 27.811 27.559 32.181 33.954 34.176 31.444 33.126 34.804 30.881 28.886 28.619 28.629 28.689 29.006 29.259 29.406 32.251
15.012 15.169 18.134 19.454 18.277 14.967 14.899 15.287 15.774 17.442 15.364 14.992 15.002 15.019 15.034 19.284 18.132 15.257 15.254 15.342 15.357 15.332 15.384 15.219 15.259 15.304 15.472 16.094 15.474 20.732 21.239 20.729 19.962 19.922 20.112 17.552 16.497 15.662 20.607 20.317 20.102 20.274 20.084 19.397 15.604 15.664 15.672 15.664 15.654 15.712 16.984 15.802 15.729 16.667 15.807 15.677 15.702 15.657 15.597 15.562 15.477 15.487 15.647 15.652 15.657 15.752 15.754 15.717 15.847 16.102 15.907 15.927 15.907 15.874 15.527 15.357 15.679 15.297 15.324 15.747 15.754 15.749 15.749 15.719 15.594 15.407 15.392 15.414 15.382 15.352 15.329 15.354 15.397 15.427 15.464 15.509 15.522 15.547 15.592 15.617 15.657 15.674 15.702 15.719 15.742 15.752 15.767 15.734 15.784 15.742 15.757 15.754 15.772 15.847 15.904 15.922 15.949 15.984 16.162 17.264 17.519 17.562 17.467 17.442 17.437 19.649 20.832 20.589 21.902 21.764 21.579 21.472 21.577 21.692 21.084 21.509 21.434 21.247 22.134 16.807 16.227 19.694 20.372 20.157 19.892 19.697 21.547 22.139 20.164 19.054 16.814 16.892 16.774 16.724 16.727 19.867 20.287 19.964 19.684 17.602 17.512 18.057 18.899 17.897 17.777 17.859 17.932 20.299 19.097 17.532 19.854 21.662 23.084 22.697 21.399 18.307 18.372 18.352 18.442 18.299 18.294 18.297 18.309 18.547 18.347 18.799 18.314 20.249 19.084 18.739 18.674 18.969 20.009 19.999 21.469 23.124 22.652 20.864 21.997 20.984 17.979 17.874 17.764 17.654 17.569 17.614 16.794 17.521 19.896 21.976 22.449 18.779 16.591 16.611 16.546 18.424 19.296 19.344 16.389 16.334 16.106 15.989 15.964 16.071 16.104 21.494 22.156 22.729 22.214 22.394 19.061 16.304 18.634 19.681 19.551 19.321 19.139 18.809 16.081 15.916 15.899 15.874 16.046 15.859 16.264 14.774 14.574 18.061 19.449 18.696 17.359 14.356 14.279 14.086 14.026 13.994 14.386 13.904 13.874 13.586 15.389 18.666 16.609 17.661 19.914 21.804 22.216 15.836 16.949 16.409 14.506 12.644 11.846 11.929 11.931 11.976 14.556 14.771 14.511 14.361 13.854 15.146 15.499 15.476 15.471 15.496 15.261 12.176 12.199 15.166 17.431 12.134 12.136 12.229 12.241 14.604 11.659 11.674 11.759 15.716 15.756 14.684 13.446 15.904 16.116 15.756 13.786 12.419 12.394 12.381 12.536 12.416 12.431 12.444 12.449 12.464 12.464 12.474 12.476 12.486 12.504 13.574 12.886 13.291 13.416 12.816 12.861 12.876 12.919 12.949 15.334 13.011 13.246 13.044 13.039 13.154 12.974 13.011 13.031 13.031 13.021 13.031 12.941 12.971 13.094 13.661 12.951 14.221 13.546 13.551 13.504 13.556 13.539 13.579 13.706 14.091 15.554 15.071 13.619 13.731 13.724 14.866 13.646 14.111 13.564 12.731 16.444 17.719 19.256 19.979 18.506 12.356 12.414 12.391 12.751 18.549 19.804 19.334 18.336 18.311 16.574 15.944 15.544 18.331 19.566 18.501 19.456 19.699 19.574 19.496 19.549 19.559 19.549 19.526 25.294 25.736 27.101 27.534 26.259 24.946 21.986 24.326 26.626 25.669 25.614 25.566 25.111 25.246 26.954 27.781 27.021 28.764 27.071 27.454 30.789 33.669 34.984 35.184 36.736 37.531 35.949 32.834 28.541 28.481 28.521 28.636 28.876 29.111 29.241 30.104
17.177 16.399 17.472 17.392 17.302 15.964 14.879 15.594 15.304 14.992 15.052 18.927 15.019 18.407 19.744 16.904 15.039 15.074 15.119 15.284 15.342 16.894 15.392 15.212 15.264 15.287 15.479 15.419 15.419 20.824 21.359 21.899 22.007 22.244 20.952 15.574 16.604 15.687 20.469 20.082 20.709 20.514 20.764 20.719 15.644 15.704 15.737 18.682 18.099 16.947 19.099 20.467 19.609 17.052 15.742 15.707 15.649 15.632 15.614 15.582 15.542 15.554 15.767 15.789 15.777 15.814 15.824 15.839 16.324 15.972 15.964 16.014 16.007 15.952 15.529 15.487 15.449 15.424 15.837 15.877 15.894 15.889 15.857 15.834 15.939 15.844 15.819 16.347 16.327 15.492 15.482 15.469 15.489 15.507 15.492 15.499 15.532 15.514 15.524 15.547 15.569 15.624 15.652 15.682 15.719 15.739 15.777 15.802 15.817 15.827 15.822 15.834 15.842 15.834 15.842 15.837 15.834 15.844 15.837 15.897 15.952 15.987 16.112 16.114 16.712 20.094 20.557 20.264 20.662 21.042 21.177 21.419 21.744 21.892 22.872 22.114 22.247 22.344 22.374 16.284 16.197 20.059 22.009 21.589 21.209 22.669 21.762 21.862 19.624 18.832 16.909 16.847 16.679 19.187 18.577 20.534 20.214 19.904 18.857 17.009 16.624 16.612 16.827 19.367 19.649 18.789 18.524 20.814 19.197 19.587 20.819 21.999 23.417 22.437 21.124 18.317 18.314 19.542 18.742 19.287 20.154 20.422 20.099 18.627 18.319 18.319 18.322 18.302 18.302 18.287 18.319 19.917 19.104 18.269 18.389 19.032 18.187 21.007 22.014 20.859 17.957 17.822 17.679 17.554 17.526 17.404 16.896 18.569 20.019 22.166 22.289 16.791 16.606 17.086 16.641 16.624 16.594 16.561 16.496 16.386 16.841 16.064 15.936 16.019 16.051 16.439 16.136 16.164 16.204 16.226 17.431 18.056 18.639 20.494 20.594 22.019 21.721 21.276 19.781 16.254 15.919 15.926 18.294 17.251 17.626 14.726 16.279 18.454 19.671 18.371 16.271 14.604 14.186 14.094 14.044 13.954 13.891 13.861 13.809 13.511 15.401 17.684 18.456 19.894 21.951 21.361 20.784 17.819 14.464 14.496 14.799 14.826 14.886 14.899 14.901 14.776 14.794 14.769 13.646 14.336 13.359 15.199 15.351 15.414 15.399 15.386 14.346 12.534 14.866 19.774 16.196 16.059 12.129 12.229 12.244 14.016 11.576 11.614 11.741 16.416 16.481 16.536 16.581 16.629 16.664 12.436 13.749 12.371 12.336 12.331 12.329 12.354 12.364 12.356 12.381 12.399 12.394 12.401 12.394 12.401 12.431 12.574 12.594 12.689 12.761 13.196 14.324 13.616 12.929 14.056 16.256 16.129 13.176 12.646 15.809 13.771 13.374 13.051 13.279 13.264 13.086 13.069 12.956 12.941 13.044 13.059 12.921 13.316 14.051 14.091 13.509 13.464 13.426 13.444 13.461 13.509 13.691 14.099 13.629 13.691 13.706 13.651 13.619 13.966 15.291 13.706 14.989 17.124 19.454 19.756 16.816 12.351 12.396 12.804 12.934 19.001 20.076 18.931 18.331 18.311 14.109 17.114 16.819 16.279 16.874 19.469 19.466 19.591 19.301 19.341 19.391 19.421 19.444 20.069 25.069 25.429 25.799 26.194 25.901 23.469 22.404 23.876 26.089 24.971 24.446 24.734 25.004 25.269 25.649 25.866 28.111 26.921 27.166 27.334 30.776 30.776 33.591 36.119 37.026 37.771 37.574 34.476 28.526 28.399 28.429 28.529 28.734 28.979 30.281 30.261
14.692 14.737 16.042 17.394 17.292 15.692 14.834 15.767 15.289 14.994 15.714 15.119 15.164 18.839 20.172 21.454 20.249 18.897 15.282 16.287 15.317 15.337 15.349 15.229 15.269 15.344 15.794 15.427 15.444 19.032 19.577 20.827 20.649 21.182 21.544 16.214 15.772 16.009 20.662 19.904 20.684 19.344 19.474 19.294 17.972 15.882 18.387 20.034 19.799 19.497 19.359 20.622 19.344 15.704 15.679 15.672 15.669 15.669 15.659 15.637 15.617 16.014 15.844 15.864 16.584 17.354 15.854 15.869 16.337 16.027 16.052 16.049 16.067 16.019 15.669 15.644 15.607 15.589 15.919 15.934 15.959 15.944 15.922 15.924 16.112 17.417 17.734 17.089 17.172 16.947 15.537 15.564 15.584 15.589 15.614 15.632 16.602 17.114 16.342 15.949 15.734 15.729 15.714 15.702 15.662 15.682 15.719 15.734 15.774 15.799 15.824 15.854 15.874 15.897 15.909 15.927 15.912 15.907 15.922 15.904 15.892 15.879 15.849 15.872 15.859 15.877 15.902 15.932 15.932 18.752 20.012 20.172 20.179 20.707 20.769 19.922 21.007 21.064 21.242 16.252 16.162 20.922 21.917 22.342 22.772 21.729 22.129 21.672 21.879 21.617 21.374 21.102 18.699 19.597 16.729 19.622 19.859 19.854 20.732 17.694 16.604 16.579 16.592 16.764 17.934 16.747 16.719 16.764 19.457 19.769 20.929 22.307 23.504 22.127 19.577 18.292 18.352 18.309 18.239 18.252 18.217 17.972 18.019 18.717 19.367 20.027 19.912 19.762 18.622 18.304 18.282 18.259 18.244 18.257 18.277 18.364 18.014 21.162 21.884 20.687 17.927 17.759 17.612 17.462 17.546 17.279 17.796 18.189 19.886 22.319 22.094 16.609 16.651 16.656 16.896 17.161 16.606 16.619 16.554 20.694 22.076 21.694 17.101 15.974 16.021 18.321 18.826 18.514 18.164 16.251 16.339 16.129 21.064 22.344 21.166 22.929 23.054 22.734 22.429 22.111 21.784 19.064 20.186 20.786 17.124 14.786 17.471 18.804 19.359 18.021 14.349 14.714 14.119 14.141 14.296 13.724 13.981 13.721 13.729 13.694 13.309 16.929 15.431 20.741 21.286 19.736 20.666 13.194 14.111 14.779 14.906 14.824 14.916 14.929 14.929 14.774 14.796 14.766 14.874 14.816 13.864 15.194 15.216 15.211 15.239 15.266 13.079 12.519 15.849 18.004 17.354 17.606 12.106 12.209 13.151 14.091 11.584 11.616 15.059 15.351 14.984 15.154 14.641 14.639 15.094 13.614 13.006 12.324 12.306 12.284 12.821 12.301 12.301 12.304 12.311 12.329 12.324 12.326 12.336 12.361 13.789 15.981 15.659 13.059 12.539 13.096 12.816 12.611 14.631 14.891 16.689 15.611 12.624 12.626 15.496 15.949 15.961 18.419 15.529 13.676 14.279 16.364 12.914 12.914 13.014 12.996 12.899 13.079 13.731 14.521 13.436 13.456 13.399 16.099 15.976 15.791 14.351 13.379 13.614 13.644 13.696 13.984 13.599 15.201 14.766 13.566 14.764 17.794 19.649 19.514 14.761 12.324 12.366 12.586 17.074 18.496 18.864 18.119 18.299 17.681 14.939 15.631 15.294 17.564 17.104 19.481 19.351 19.439 19.081 19.166 19.241 19.296 22.161 24.654 23.511 20.499 21.831 24.604 25.181 22.196 23.259 25.059 26.559 24.336 24.609 24.694 24.874 25.156 25.496 25.766 26.931 26.809 27.111 27.244 27.309 27.399 27.529 34.606 36.334 37.956 36.674 34.866 28.611 28.314 28.361 28.429 28.524 28.804 30.596 30.111
14.729 14.764 14.794 14.862 17.392 16.859 15.444 16.144 15.547 14.994 15.012 15.002 16.639 19.219 20.592 21.172 19.834 18.509 15.567 16.079 15.314 15.347 15.319 15.239 15.267 15.407 16.119 17.504 15.407 15.419 16.392 17.432 18.864 19.419 18.497 17.164 16.162 15.744 15.884 15.857 16.034 18.354 19.237 18.217 17.954 17.497 18.414 20.772 21.009 20.892 20.629 20.419 19.099 15.682 18.452 18.427 18.424 15.689 16.124 15.679 15.684 16.037 15.887 15.869 15.909 15.907 15.892 15.882 16.002 16.024 16.029 16.054 16.069 15.997 15.854 15.807 15.782 15.752 15.957 16.022 16.022 15.989 15.999 16.004 17.384 16.002 16.002 15.964 16.004 16.574 16.139 15.589 15.782 15.637 15.652 17.392 18.519 18.497 18.507 18.527 18.567 18.609 16.144 15.879 15.824 15.822 15.767 15.767 15.739 15.767 15.787 15.792 15.809 15.824 15.859 15.877 15.897 15.922 15.922 15.939 15.929 15.929 15.914 15.907 15.904 15.914 15.914 15.907 15.899 15.892 15.902 15.894 15.919 15.982 16.032 16.064 16.102 16.139 16.579 16.174 16.127 16.032 17.984 20.549 21.037 21.427 21.814 22.214 22.872 23.057 22.974 22.707 22.419 22.147 17.269 21.594 20.887 18.424 22.047 21.927 21.797 17.409 16.554 16.577 16.604 16.634 16.672 16.704 19.934 19.257 19.082 22.334 23.144 21.869 18.477 18.267 18.259 18.289 18.232 18.234 18.049 17.969 18.149 17.762 17.762 17.879 18.842 18.904 19.664 19.297 19.552 20.837 20.627 20.059 18.182 18.167 18.012 21.294 21.712 20.559 17.884 17.739 17.587 18.514 20.906 20.736 18.601 16.866 18.954 22.479 21.956 16.656 16.669 16.676 16.749 16.859 16.604 16.569 16.551 19.556 21.921 21.846 19.409 15.941 15.984 18.344 18.826 18.536 18.224 16.119 16.091 16.216 21.444 22.121 20.876 21.571 21.891 22.186 22.511 22.846 23.074 14.286 14.299 17.334 15.154 14.466 17.839 19.184 18.986 17.654 14.354 14.129 14.079 13.799 19.449 19.321 19.201 18.511 17.471 13.519 13.224 13.139 13.114 14.114 16.891 10.524 12.201 11.941 13.521 14.769 14.791 14.816 14.946 14.946 14.956 14.769 14.789 14.764 14.831 14.886 14.006 15.194 15.191 15.201 15.186 15.181 12.191 13.836 18.114 17.279 17.149 15.981 12.099 12.169 14.321 12.341 11.591 16.936 15.576 14.949 15.069 16.376 14.641 14.649 14.639 14.371 12.416 12.266 12.526 12.234 12.441 12.236 12.256 12.261 12.271 12.269 12.266 12.271 12.281 12.316 12.456 19.744 19.389 15.471 18.489 18.149 12.791 12.559 13.344 12.596 14.161 14.636 14.566 12.636 16.074 15.839 16.124 19.186 20.831 21.284 19.669 13.181 12.966 12.881 12.979 13.139 12.874 12.956 13.059 13.159 13.309 13.391 13.341 17.484 17.359 17.244 17.114 13.579 13.126 13.129 13.674 13.589 13.566 14.811 13.359 13.276 12.656 18.471 19.886 19.331 15.511 12.306 12.331 12.414 17.686 18.796 18.531 16.971 13.556 13.714 15.541 15.421 15.419 17.459 19.056 18.801 19.161 19.146 18.849 18.974 19.134 19.244 22.634 25.484 25.589 25.211 24.859 24.504 22.451 23.004 22.981 25.909 26.426 24.336 24.506 24.681 24.854 25.044 25.331 25.634 25.911 26.704 26.719 28.136 27.966 27.616 27.844 33.329 36.529 37.729 37.074 36.339 28.439 28.226 28.286 28.336 28.366 28.694 28.969 29.184
17.987 17.727 17.279 15.139 17.359 17.252 17.142 15.572 16.562 14.972 14.999 15.002 18.297 19.619 20.972 20.522 19.434 18.732 18.332 17.954 16.189 15.307 15.284 15.227 15.257 15.409 17.539 17.374 15.362 15.387 15.424 15.402 15.402 16.507 15.477 16.642 15.629 15.634 15.734 15.824 16.309 18.647 19.084 17.934 17.287 18.284 19.119 19.384 19.657 19.884 20.164 20.169 18.827 15.714 19.434 19.189 18.912 18.659 19.174 18.544 16.399 15.907 15.904 17.499 16.062 16.089 16.032 16.527 16.282 16.002 16.399 17.554 16.537 16.032 16.002 16.059 15.942 15.924 16.027 16.054 16.749 16.099 16.139 17.309 16.112 17.114 16.072 16.074 16.099 16.137 16.532 15.704 16.094 15.717 16.847 18.334 16.412 16.227 16.242 16.192 16.342 16.617 16.412 16.357 17.874 18.164 16.684 15.784 15.782 15.792 15.817 15.854 15.892 15.952 15.972 15.969 15.982 15.939 15.882 15.872 15.884 15.864 15.882 15.899 15.912 15.924 15.942 15.952 15.954 15.957 15.954 15.964 15.977 15.997 16.014 16.037 16.049 16.064 16.092 16.107 16.102 16.102 16.187 16.227 16.237 16.222 18.799 20.172 21.282 21.542 21.904 22.089 22.349 22.617 17.017 22.474 22.157 22.027 22.522 22.389 22.257 16.522 16.502 16.537 16.569 16.587 16.654 19.962 20.114 18.517 18.429 22.219 22.254 19.177 18.202 18.214 18.232 19.234 18.114 18.119 18.079 17.972 17.814 17.774 17.769 18.889 18.879 18.879 18.864 19.067 18.717 18.819 22.304 23.847 22.744 20.024 20.217 21.447 21.569 20.287 17.874 17.719 17.549 19.524 21.059 20.719 17.801 16.851 20.064 22.641 21.761 21.249 19.544 19.019 19.121 17.604 16.619 16.606 16.581 18.999 21.781 22.049 20.666 15.886 15.936 18.161 18.834 18.536 18.231 16.034 16.029 17.741 21.791 21.716 18.771 17.554 16.091 17.766 21.186 21.511 21.256 14.279 14.511 15.749 16.426 14.601 15.081 14.889 18.071 16.976 14.666 14.119 15.476 16.931 20.861 20.711 20.596 20.451 20.339 13.461 13.211 13.086 13.009 18.326 12.344 10.516 10.514 11.884 14.324 14.771 14.794 14.826 15.091 15.224 15.419 14.769 15.286 14.924 14.829 14.931 12.569 15.971 15.219 15.251 15.931 15.214 12.179 12.186 15.619 14.866 16.066 16.369 12.086 12.146 14.616 11.634 11.594 19.039 17.801 17.864 14.646 15.959 16.136 14.739 14.644 14.381 12.559 12.234 13.061 12.204 12.184 12.186 12.211 12.221 12.209 12.216 12.211 12.224 12.241 12.269 14.289 20.054 20.369 18.161 20.144 19.839 18.746 18.434 12.874 12.551 13.446 12.921 12.581 13.044 15.861 17.169 15.859 19.519 21.139 20.959 19.306 12.986 13.661 12.841 12.929 13.001 13.076 12.929 18.574 15.031 13.151 13.254 13.239 17.051 17.196 17.311 17.466 13.534 14.694 14.351 13.986 13.251 13.754 13.969 13.221 13.161 15.799 16.644 19.629 19.124 12.879 12.294 12.296 12.469 18.054 19.156 18.214 13.041 13.046 13.154 13.214 20.544 22.164 20.926 22.219 19.264 18.896 18.769 18.571 18.721 19.134 19.741 22.481 24.929 26.224 26.576 26.211 25.261 21.831 23.009 23.526 26.569 26.269 24.291 24.539 24.629 24.869 25.066 25.381 25.686 25.926 26.216 26.946 27.054 27.039 33.096 33.261 34.044 36.714 37.504 36.754 35.499 28.386 28.411 28.189 28.226 28.216 28.571 28.876 29.144
19.402 18.882 16.512 14.874 14.994 14.909 14.919 17.164 16.399 15.132 14.989 15.042 18.709 20.037 21.362 20.422 20.297 20.067 19.682 19.282 15.507 15.479 15.184 15.222 15.242 15.379 15.884 16.184 15.342 15.369 15.389 15.404 15.389 15.419 15.442 16.259 15.739 15.742 15.749 15.737 15.684 15.677 15.684 15.652 16.507 15.689 15.959 15.942 18.567 18.644 18.809 19.062 18.549 17.564 20.724 20.582 20.289 20.012 19.749 19.239 15.787 15.912 16.077 19.909 19.462 19.039 18.727 17.089 16.307 16.012 16.147 16.159 16.074 16.072 16.099 16.282 16.082 16.082 16.094 16.107 16.162 16.197 16.222 16.759 16.194 16.762 16.164 16.182 16.194 17.727 16.144 15.834 16.067 15.829 16.912 16.274 16.247 16.969 16.332 16.212 16.252 16.469 16.389 16.347 16.299 17.734 17.929 15.817 15.802 15.869 15.887 16.172 16.782 18.064 16.642 16.712 17.467 17.482 16.742 16.277 16.032 16.032 16.022 15.999 15.957 15.919 15.917 15.924 15.942 15.952 15.969 15.992 16.002 16.022 16.039 16.059 16.079 16.087 16.102 16.114 16.114 16.127 16.119 16.122 16.124 16.122 16.144 16.229 16.247 16.262 16.287 16.324 19.279 21.044 22.357 22.727 23.084 23.259 22.992 22.859 22.747 17.409 16.739 16.844 16.544 18.049 17.547 20.444 19.667 17.339 20.992 22.524 21.959 18.844 18.032 18.162 18.192 18.434 18.107 18.112 17.954 17.962 17.792 17.792 19.574 19.192 18.792 18.794 18.812 18.812 18.449 20.587 21.464 20.779 18.689 19.929 19.974 20.202 19.214 19.692 19.087 19.559 18.152 20.077 21.209 20.566 17.644 16.819 21.309 22.806 22.699 22.584 22.469 22.361 22.276 22.131 22.101 20.624 19.376 19.811 21.551 22.174 20.831 15.839 15.884 17.629 18.834 18.526 18.246 18.284 18.159 20.779 22.174 21.329 16.766 15.874 15.994 15.419 14.366 14.134 14.189 14.219 14.251 15.874 15.874 15.626 15.609 14.639 14.351 15.639 14.129 14.114 16.434 18.631 19.759 20.011 21.366 20.334 20.161 13.361 13.334 13.024 14.609 20.324 18.011 15.896 16.076 15.701 15.954 17.761 16.184 14.826 15.034 15.024 16.144 14.781 14.804 14.769 14.831 14.909 11.991 17.999 18.096 18.101 18.164 18.166 12.169 13.446 16.756 12.184 13.356 12.209 12.071 12.086 14.606 11.629 15.676 18.954 17.826 14.656 14.966 18.611 18.186 14.661 14.666 14.389 11.836 12.219 12.439 12.176 12.686 12.154 12.156 12.171 12.161 12.154 12.151 12.184 12.196 12.221 16.581 18.474 18.721 19.311 19.606 20.541 20.414 20.074 18.901 18.971 18.644 17.226 14.164 12.594 15.884 15.881 16.084 19.811 21.459 20.619 18.996 12.966 14.001 12.799 12.876 12.939 12.831 12.901 18.836 19.104 18.714 18.306 13.266 13.671 15.759 16.791 17.106 15.139 15.419 16.709 17.506 16.259 15.516 13.381 13.274 12.891 16.074 16.939 18.136 17.484 12.179 12.254 12.296 15.839 18.344 18.966 17.849 12.919 13.011 13.169 14.311 20.966 22.159 20.626 18.084 18.624 18.641 18.301 18.246 18.661 19.351 20.534 22.264 25.279 26.539 26.884 26.294 24.929 21.814 22.801 23.709 26.221 25.294 24.149 25.114 24.654 24.836 25.111 25.381 25.634 25.879 26.164 27.216 27.049 27.646 34.079 33.889 33.911 35.766 37.311 36.996 34.404 28.601 28.274 28.089 28.144 28.136 28.576 30.676 30.226
19.987 18.529 15.387 14.869 15.007 15.019 15.014 14.909 15.119 16.674 17.247 15.062 15.937 20.457 21.317 19.994 19.024 19.419 19.857 17.584 15.229 15.279 15.159 15.214 15.229 15.372 15.389 15.659 15.574 15.677 15.377 15.379 15.387 15.392 15.689 16.139 15.707 15.727 15.727 15.747 15.764 15.747 15.717 16.649 16.542 16.467 15.702 15.702 18.559 18.592 15.727 15.687 15.632 18.074 19.424 19.704 19.912 20.234 20.444 18.412 16.997 18.379 18.904 20.232 20.787 20.499 20.042 18.324 18.752 20.224 18.894 16.087 16.082 16.084 16.117 16.117 16.119 16.129 16.122 16.139 16.192 16.252 16.262 17.854 16.262 16.267 16.247 16.559 16.262 16.264 16.039 15.977 15.989 15.937 17.744 16.389 16.319 16.917 16.257 16.244 16.224 16.459 16.944 16.397 16.229 16.154 16.039 15.922 15.894 15.962 15.962 15.997 16.504 16.489 16.514 16.557 16.672 16.477 16.667 16.809 16.589 16.607 16.607 16.724 16.109 16.092 16.087 16.097 16.094 16.084 16.062 16.002 15.979 15.989 16.009 16.304 16.039 16.064 16.079 16.087 16.099 16.117 16.132 16.152 16.154 16.167 16.164 16.159 16.142 16.129 16.119 16.214 16.219 16.177 17.027 21.319 21.724 22.127 22.502 22.942 23.054 22.457 22.034 21.794 21.559 21.307 21.132 20.537 18.592 17.177 22.609 22.932 22.159 21.872 21.602 21.369 21.152 17.912 17.914 17.912 17.912 17.977 23.879 23.604 21.164 17.529 18.227 17.909 18.282 18.879 18.442 18.384 19.007 18.217 18.874 20.097 18.519 20.367 19.169 18.099 18.077 19.902 18.607 18.034 19.849 18.534 19.681 19.709 21.604 21.759 21.861 21.966 22.099 22.199 22.339 22.444 22.256 22.239 20.019 19.926 21.161 22.391 20.969 15.791 15.839 19.386 21.696 21.586 19.656 19.154 17.646 21.249 22.214 20.969 16.619 15.854 15.794 15.261 14.141 14.141 14.179 14.229 14.251 14.271 14.276 14.256 14.941 15.621 14.951 14.124 14.099 14.116 16.274 16.276 17.839 20.081 21.476 20.196 18.939 16.391 13.399 12.931 14.131 17.391 20.394 19.616 15.489 16.221 15.694 17.749 17.781 17.796 17.391 17.401 17.386 17.501 16.701 14.769 17.264 15.139 14.836 18.016 18.034 18.046 18.026 16.199 12.181 16.059 17.936 16.539 12.234 12.211 12.009 13.066 14.569 11.626 14.794 18.844 17.934 14.889 16.079 18.474 18.309 14.756 16.619 14.449 12.386 12.196 12.161 12.134 12.094 12.099 12.109 12.114 12.101 12.111 12.116 12.141 12.164 12.181 18.476 16.376 12.481 16.196 17.541 19.146 19.396 19.759 20.781 20.621 20.289 19.916 19.626 19.169 18.849 17.966 18.249 20.126 21.726 20.276 17.639 12.929 12.764 12.774 12.856 12.904 12.826 12.831 18.704 19.934 19.619 19.246 18.804 17.306 13.901 16.901 16.971 14.801 16.286 16.921 17.324 16.259 15.246 14.289 12.524 12.534 16.271 17.309 18.341 17.134 12.179 12.229 12.334 17.609 18.704 18.629 16.856 13.041 12.996 13.139 17.689 21.466 21.709 20.046 17.979 17.741 17.759 17.759 17.869 19.491 19.386 19.696 23.426 24.786 25.176 25.549 25.854 24.259 21.954 22.829 23.671 26.311 24.196 24.106 25.146 25.444 24.749 25.076 25.359 25.561 25.844 26.391 27.034 27.046 27.384 30.879 30.474 30.531 30.579 30.639 30.689 30.416 28.836 28.276 27.996 28.049 28.049 30.276 29.426 29.654
19.654 18.254 14.847 14.882 15.004 15.009 15.027 17.479 16.752 17.264 15.024 17.382 15.224 15.717 15.639 15.267 16.619 18.107 18.517 15.374 15.222 15.239 15.162 16.759 15.257 15.459 15.412 15.394 18.444 19.539 18.097 15.417 15.354 15.402 15.407 16.109 15.694 15.727 15.732 15.744 15.767 15.757 15.762 15.744 16.862 15.707 15.687 15.687 15.684 16.484 15.792 15.759 15.747 16.404 16.514 18.689 18.792 18.847 19.102 18.107 16.317 18.469 19.092 21.159 22.047 21.274 19.779 16.144 20.497 20.247 19.952 19.639 19.354 19.087 16.149 16.852 16.664 18.462 16.174 16.197 17.347 17.864 18.357 17.419 16.299 16.322 16.324 16.299 16.342 17.134 16.184 16.114 16.022 17.019 16.239 16.327 16.332 16.342 16.297 16.284 16.242 16.564 16.449 16.389 16.272 16.197 16.134 16.084 16.029 16.607 16.062 17.619 16.304 16.547 16.567 16.569 16.534 16.467 16.554 17.289 16.624 16.619 16.632 16.647 16.689 16.704 16.679 16.674 16.582 16.814 16.149 16.169 16.167 16.162 16.154 16.142 16.134 16.124 16.069 16.044 16.059 16.072 16.092 16.407 16.402 16.174 16.209 16.222 16.207 16.204 16.194 16.182 16.159 16.122 16.084 16.119 16.182 16.639 20.419 21.484 21.979 22.562 22.932 23.129 23.047 22.592 22.497 22.267 17.369 17.004 22.852 23.177 23.384 23.127 22.867 22.647 22.447 17.852 17.857 23.442 18.519 17.989 24.152 23.189 19.907 22.697 22.707 22.157 19.714 19.449 18.344 18.427 18.754 18.227 18.224 20.369 18.537 18.642 18.907 18.014 17.934 18.979 17.699 17.742 18.559 17.991 19.424 19.811 16.981 22.184 21.746 21.956 20.489 21.719 21.609 20.986 20.629 20.289 18.911 18.224 19.131 17.979 17.621 20.631 15.799 17.824 21.556 21.636 20.366 19.136 18.784 21.619 21.851 20.671 15.851 16.616 17.031 15.451 14.366 14.501 14.154 14.191 14.201 14.234 14.249 14.229 14.184 14.156 14.119 14.141 14.149 14.114 14.169 16.346 17.824 20.244 21.449 20.031 15.136 13.121 13.014 12.851 12.786 15.544 14.586 10.489 11.621 14.001 15.631 17.771 17.811 17.821 16.089 17.684 17.644 17.539 17.451 17.276 19.891 18.904 15.076 18.059 18.069 19.149 18.066 17.084 12.814 15.461 16.161 16.084 12.886 12.129 11.989 13.944 12.231 11.616 14.366 18.724 18.019 18.491 18.246 18.329 18.416 18.131 18.636 14.974 12.439 14.494 12.776 12.059 12.041 12.041 12.056 12.046 12.051 12.049 12.076 12.106 12.126 12.159 18.856 14.684 12.431 12.389 12.464 15.924 15.206 16.326 19.159 19.489 19.809 20.134 20.461 20.259 20.409 20.186 12.776 13.924 19.201 19.994 13.999 12.906 12.739 12.729 14.126 13.744 12.791 12.734 18.551 19.769 20.461 20.149 19.354 18.396 15.479 17.039 16.841 13.866 16.834 18.091 17.936 14.449 15.379 15.186 14.841 13.174 14.906 17.626 17.986 13.351 12.184 12.186 12.389 17.959 19.064 18.266 13.866 12.916 13.024 13.161 20.271 21.906 17.406 17.866 18.444 18.281 17.629 17.624 17.671 17.719 18.211 17.916 21.666 21.104 21.296 22.321 24.579 22.634 22.569 22.834 23.276 24.959 24.301 24.401 25.111 25.726 24.826 25.111 25.334 25.524 25.896 27.111 27.061 27.061 27.341 28.399 30.464 30.454 30.446 30.614 30.666 30.734 29.539 29.286 27.916 27.954 27.946 29.709 29.264 29.144
