ncols 486
nrows 31
xllcorner    248006
yllcorner    135620
cellsize     2
NODATA_value -9999
9.224 9.246 9.264 9.25 9.242 9.257 9.252 9.254 9.242 9.256 9.243 9.229 9.238 9.218 9.241 9.246 9.256 9.289 9.284 9.304 9.294 9.336 9.329 9.346 9.321 9.334 9.346 9.344 9.386 9.351 9.386 9.384 9.389 9.366 9.381 9.399 9.394 9.399 9.379 9.409 9.434 9.461 9.424 9.484 9.531 9.544 9.529 9.519 9.521 9.569 9.551 9.536 9.559 9.591 9.604 9.618 9.606 9.631 9.628 9.649 9.644 9.694 9.668 9.644 9.651 9.671 9.698 9.644 9.761 9.679 9.726 9.736 9.736 9.714 9.694 9.801 9.769 9.804 9.764 9.806 9.906 9.948 10.001 10.029 10.036 10.054 10.019 10.011 10.026 10.021 9.993 9.906 9.998 10.046 10.049 10.079 10.081 10.158 10.163 10.193 10.173 10.148 10.201 10.208 10.201 10.211 10.216 10.213 10.226 10.251 10.233 10.241 10.238 10.251 10.236 10.248 10.266 10.286 10.291 10.283 10.273 10.268 10.288 10.288 10.318 10.311 10.303 10.318 10.348 10.338 10.338 10.381 10.388 10.398 10.428 10.431 10.468 10.503 10.501 10.536 10.598 10.618 10.658 10.691 10.668 10.566 11.831 10.801 10.528 10.511 10.473 10.416 10.391 10.366 10.348 10.341 10.318 10.293 10.271 10.251 10.241 10.218 10.193 10.183 10.181 10.183 10.166 10.156 10.128 10.116 10.103 10.083 10.063 10.043 10.026 10.013 9.996 9.966 9.953 9.926 9.878 9.811 9.753 9.708 9.683 9.671 9.583 9.503 9.478 9.423 9.416 9.373 9.326 9.273 9.241 9.193 9.141 9.093 9.031 8.986 8.918 8.858 8.783 8.723 8.638 8.558 8.471 8.378 8.288 8.203 8.091 7.998 7.913 7.831 7.746 7.648 7.556 7.476 7.373 7.283 7.171 7.086 7.001 6.911 6.838 6.743 6.681 6.593 6.516 6.433 6.391 6.308 6.246 6.188 6.093 7.161 6.338 5.823 5.793 5.721 5.661 5.601 5.528 5.448 5.388 5.336 5.283 5.218 5.153 5.118 5.073 5.026 6.133 6.458 5.746 5.781 5.743 5.751 5.611 4.968 4.881 4.826 5.186 4.363 4.381 4.341 4.928 5.126 4.836 3.918 4.368 5.646 6.348 5.636 5.298 3.371 2.436 2.523 2.503 2.541 2.536 2.583 2.606 2.616 3.631 3.986 4.353 4.748 5.961 5.838 4.743 4.108 3.818 3.748 3.711 3.698 3.653 3.653 3.631 3.618 3.638 3.728 3.781 3.766 3.743 3.633 3.623 3.611 3.643 3.701 3.828 3.883 3.866 3.801 3.813 3.786 3.841 3.891 4.013 4.138 4.241 4.288 4.363 4.441 4.448 4.481 4.461 4.383 4.403 4.518 4.521 4.483 4.471 4.451 4.426 4.483 4.561 4.643 4.676 4.656 4.636 4.643 4.608 4.563 4.621 4.713 4.766 4.791 4.816 4.883 4.911 4.936 4.998 5.011 4.998 4.976 4.951 5.02 5.096 5.145 5.169 5.158 5.49 6.012 5.309 5.526 5.668 5.67 5.607 5.347 4.95 4.434 4.144 5.117 6.645 6.438 6.451 6.655 6.786 5.152 4.531 4.554 5.379 6.048 6.036 5.879 5.619 5.614 5.611 5.604 5.633 5.755 5.438 5.253 5.262 5.215 5.136 5.131 5.081 5.109 6.33 7.439 6.814 5.698 7.081 6.332 5.897 5.648 6.516 12.12 11.235 8.916 6.895 6.473 7.336 8.558 12.566 12.046 11.488 7.541 5.743 5.668 5.546 5.461 5.491 5.553 5.511 5.578 5.506 5.453 6.233 5.431 7.096 7.028 5.938 10.711 11.423 12.038 11.721 9.608 5.788 5.958 5.363 5.341 5.338 5.401 5.856 4.941 4.878 4.943 4.983 5.041 5.003 4.996 4.981 4.993 5.086 4.998 5.031 5.018 4.983 5.001 5.033 5.076 5.043 5.053 5.063 5.056 5.146 5.081 5.131 5.133 5.191 5.163 5.211 5.163 5.218 5.161 5.168 5.168 5.193 5.196 5.196 5.176 5.198 5.188
9.199 9.209 9.224 9.237 9.251 9.264 9.238 9.242 9.233 9.26 9.264 9.239 9.21 9.225 9.236 9.205 9.238 9.241 9.261 9.286 9.286 9.309 9.314 9.311 9.314 9.309 9.344 9.334 9.349 9.346 9.341 9.359 9.379 9.384 9.371 9.404 9.396 9.379 9.394 9.379 9.399 9.419 9.441 9.486 9.469 9.506 9.524 9.498 9.516 9.536 9.529 9.551 9.541 9.576 9.576 9.604 9.599 9.566 9.611 9.601 9.631 9.616 9.623 9.641 9.628 9.644 9.646 9.651 9.594 9.671 9.689 9.689 9.726 9.701 9.708 9.756 9.791 9.829 9.819 9.881 9.951 9.966 9.956 10.031 10.024 9.993 9.981 9.971 10.003 9.889 9.969 10.024 10.016 10.038 10.076 10.134 10.128 10.201 10.158 10.153 10.153 10.143 10.156 10.176 10.201 10.218 10.203 10.198 10.183 10.201 10.218 10.223 10.226 10.243 10.243 10.238 10.236 10.253 10.283 10.281 10.266 10.273 10.273 10.286 10.296 10.318 10.318 10.318 10.323 10.328 10.343 10.361 10.376 10.376 10.401 10.438 10.428 10.458 10.481 10.533 10.561 10.626 10.648 10.668 10.643 10.556 11.753 10.861 10.523 10.538 10.483 10.438 10.406 10.376 10.336 10.313 10.291 10.276 10.258 10.218 10.191 10.166 10.156 10.171 10.161 10.173 10.156 10.148 10.146 10.131 10.116 10.101 10.056 10.016 9.991 9.941 9.901 9.861 9.841 9.843 9.818 9.791 9.751 9.708 9.686 9.668 9.596 9.486 9.486 9.468 9.421 9.371 9.333 9.291 9.246 9.196 9.141 9.076 9.013 8.958 8.898 8.826 8.756 8.683 8.591 8.516 8.446 8.363 8.293 8.186 8.096 8.001 7.883 7.781 7.693 7.583 7.488 7.401 7.291 7.203 7.113 7.013 6.931 6.863 6.783 6.701 6.633 6.558 6.481 6.421 6.351 6.253 6.198 6.131 6.041 6.978 6.271 5.801 5.751 5.688 5.616 5.558 5.498 5.423 5.366 5.311 5.261 5.208 5.143 5.081 5.046 5.018 6.358 6.378 5.758 5.743 5.746 5.716 5.606 4.921 4.696 4.608 4.446 4.368 4.373 4.601 5.106 5.038 3.951 3.971 5.083 5.683 6.146 5.811 6.143 3.468 2.478 2.481 2.501 2.521 2.538 2.558 2.636 3.231 3.946 4.276 4.748 5.366 5.633 4.908 4.083 3.778 3.703 3.718 3.721 3.721 3.671 3.633 3.628 3.636 3.616 3.573 3.631 3.673 3.646 3.626 3.628 3.616 3.613 3.658 3.848 3.893 3.856 3.878 3.776 3.766 3.811 3.906 4.026 4.126 4.268 4.308 4.368 4.408 4.411 4.453 4.513 4.423 4.476 4.481 4.521 4.523 4.553 4.521 4.446 4.461 4.546 4.598 4.626 4.658 4.661 4.666 4.623 4.576 4.656 4.746 4.796 4.856 4.898 4.908 4.921 4.978 5.006 5.026 5.008 4.981 4.936 4.978 5.046 5.081 5.098 5.121 5.14 5.129 5.12 5.106 5.155 5.365 5.588 5.628 5.556 5.411 4.867 5.156 6.804 6.456 6.418 6.405 6.651 6.615 5.331 4.409 4.364 4.454 4.933 6.024 6.117 5.712 5.604 5.618 5.588 5.564 5.587 6.135 5.61 5.267 5.208 5.134 5.094 5.05 6.427 5.368 7.537 6.63 7.466 5.548 5.59 5.616 5.627 5.689 7.479 8.434 6.047 5.801 5.748 10.771 13.201 13.048 12.508 5.751 5.666 5.576 5.503 5.463 5.531 5.506 5.541 5.548 5.373 5.491 7.303 6.351 7.038 6.698 5.736 5.381 7.563 11.051 11.116 5.441 5.471 5.621 5.613 7.876 5.338 5.601 4.916 4.878 4.888 4.966 4.953 4.933 5.023 4.998 4.956 5.043 5.081 4.968 4.996 5.036 5.016 5.043 5.086 5.031 5.038 5.031 5.028 5.076 5.108 5.141 5.133 5.143 5.166 5.178 5.168 5.221 5.203 5.176 5.183 5.183 5.121 5.163 5.136 5.206 5.188 5.218
9.166 9.196 9.206 9.215 9.231 9.233 9.255 9.235 9.224 9.235 9.246 9.244 9.224 9.216 9.231 9.245 9.215 9.229 9.249 9.264 9.274 9.294 9.294 9.314 9.301 9.336 9.314 9.344 9.349 9.289 9.319 9.326 9.344 9.341 9.359 9.361 9.381 9.399 9.346 9.379 9.396 9.404 9.431 9.431 9.476 9.494 9.491 9.496 9.503 9.506 9.526 9.531 9.534 9.566 9.596 9.583 9.596 9.583 9.594 9.583 9.631 9.639 9.646 9.644 9.616 9.651 9.668 9.646 9.623 9.783 9.674 9.711 9.681 9.716 9.651 9.753 9.833 9.899 9.884 9.904 9.909 9.946 9.944 9.993 9.996 9.993 9.949 9.916 9.969 10.011 9.998 10.021 10.016 10.111 10.096 10.153 10.136 10.121 10.146 10.116 10.166 10.166 10.138 10.161 10.166 10.173 10.176 10.168 10.178 10.168 10.208 10.211 10.218 10.226 10.218 10.238 10.241 10.253 10.248 10.276 10.283 10.253 10.253 10.256 10.253 10.288 10.313 10.301 10.318 10.306 10.316 10.318 10.353 10.376 10.386 10.406 10.438 10.441 10.473 10.506 10.541 10.611 10.638 10.648 10.611 10.601 11.963 10.588 10.503 10.503 10.446 10.373 10.318 10.308 10.288 10.263 10.253 10.228 10.213 10.203 10.191 10.176 10.176 10.178 10.163 10.153 10.143 10.113 10.071 10.038 10.018 9.971 9.976 9.958 9.941 9.928 9.908 9.878 9.843 9.828 9.818 9.793 9.771 9.731 9.716 9.701 9.606 9.478 9.461 9.426 9.403 9.363 9.301 9.256 9.203 9.163 9.108 9.056 8.998 8.946 8.891 8.833 8.771 8.678 8.593 8.498 8.398 8.313 8.201 8.111 8.008 7.911 7.818 7.723 7.631 7.526 7.428 7.336 7.253 7.176 7.081 7.001 6.913 6.841 6.756 6.686 6.611 6.533 6.453 6.386 6.308 6.218 6.158 6.088 5.991 6.908 6.158 5.773 5.728 5.666 5.586 5.533 5.476 5.408 5.351 5.288 5.253 5.188 5.133 5.076 5.041 5.016 6.148 6.381 5.693 5.693 5.676 5.641 5.591 5.041 4.553 4.426 4.341 4.361 4.318 4.883 5.013 4.561 3.921 4.958 5.691 6.778 6.763 5.511 9.378 8.711 2.451 2.496 2.523 2.508 2.513 2.573 3.583 4.041 4.181 4.603 5.171 5.551 5.048 4.026 3.796 3.796 3.746 3.733 3.716 3.668 3.681 3.668 3.696 3.683 3.676 3.621 3.606 3.561 3.571 3.571 3.603 3.611 3.631 3.651 3.693 3.713 3.823 3.883 3.758 3.716 3.806 3.858 4.006 4.151 4.228 4.301 4.328 4.358 4.368 4.378 4.468 4.458 4.501 4.496 4.493 4.513 4.521 4.471 4.413 4.461 4.498 4.548 4.596 4.633 4.628 4.626 4.601 4.591 4.643 4.743 4.808 4.873 4.908 4.888 4.936 4.973 5.003 5.031 4.993 4.976 4.946 4.997 5.014 5.017 5.036 5.025 5.049 5.075 5.11 5.097 5.056 5.029 5.082 5.309 5.539 5.641 5.534 6.003 8.104 6.858 6.404 6.354 6.576 7.221 6.247 5.243 4.858 4.608 4.349 4.467 4.688 5.562 6.206 5.832 5.567 5.552 5.554 5.554 5.545 5.595 5.529 5.287 5.119 5.082 5.095 6.749 7.591 5.888 5.737 5.467 5.485 5.537 5.551 5.818 5.783 5.79 6.946 5.74 5.808 11.641 12.186 12.731 13.098 7.308 5.866 5.503 5.423 5.501 5.506 5.473 5.548 5.513 5.406 7.856 7.048 5.293 5.311 5.333 5.336 5.328 5.338 6.708 6.801 7.323 5.421 5.408 5.591 5.748 5.733 5.161 4.928 4.941 4.991 4.988 4.906 4.953 4.948 4.968 4.938 5.063 5.013 4.986 4.956 5.038 5.041 4.986 5.013 5.056 5.008 5.031 4.988 5.083 5.121 5.111 5.068 5.131 5.161 5.168 5.166 5.168 5.168 5.208 5.186 5.193 5.181 5.121 5.178 5.131 5.188 5.228
9.184 9.169 9.179 9.203 9.216 9.238 9.249 9.237 9.227 9.209 9.221 9.232 9.224 9.223 9.2 9.217 9.244 9.234 9.251 9.264 9.251 9.269 9.286 9.294 9.299 9.311 9.299 9.331 9.339 9.311 9.311 9.274 9.341 9.324 9.334 9.341 9.354 9.344 9.361 9.341 9.356 9.369 9.399 9.424 9.406 9.486 9.484 9.476 9.493 9.498 9.484 9.519 9.534 9.549 9.559 9.594 9.599 9.609 9.621 9.623 9.636 9.626 9.599 9.591 9.644 9.659 9.656 9.654 9.604 9.589 9.698 9.738 9.694 9.721 9.743 9.831 9.889 9.864 9.909 9.866 9.929 9.924 9.966 10.003 10.011 9.891 9.953 9.991 9.991 9.993 9.976 10.059 10.069 10.128 10.089 10.091 10.086 10.131 10.136 10.111 10.133 10.168 10.126 10.113 10.136 10.146 10.141 10.148 10.128 10.141 10.141 10.193 10.198 10.208 10.206 10.196 10.213 10.228 10.241 10.246 10.263 10.253 10.246 10.248 10.268 10.258 10.286 10.311 10.278 10.301 10.271 10.301 10.318 10.356 10.376 10.391 10.413 10.438 10.461 10.508 10.543 10.583 10.626 10.648 10.603 10.633 12.243 10.513 10.506 10.513 10.438 10.366 10.311 10.298 10.296 10.291 10.268 10.253 10.221 10.183 10.151 10.113 10.053 10.056 10.041 10.046 10.053 10.058 10.043 10.038 10.028 10.006 10.003 9.978 9.946 9.923 9.903 9.871 9.863 9.846 9.831 9.806 9.778 9.703 9.656 9.626 9.591 9.471 9.488 9.426 9.378 9.348 9.298 9.263 9.213 9.171 9.121 9.056 8.991 8.913 8.836 8.761 8.681 8.611 8.518 8.443 8.346 8.251 8.158 8.068 7.976 7.878 7.796 7.698 7.606 7.508 7.418 7.333 7.236 7.156 7.066 6.988 6.896 6.806 6.723 6.656 6.571 6.488 6.416 6.341 6.256 6.178 6.121 6.048 5.973 6.738 6.231 5.726 5.721 5.641 5.583 5.516 5.458 5.401 5.333 5.281 5.236 5.181 5.131 5.073 5.043 5.023 5.833 6.116 5.693 5.648 5.608 5.598 5.471 5.656 4.543 4.368 4.351 4.331 4.456 5.013 4.838 4.121 4.128 5.491 6.326 5.683 5.538 7.061 10.171 8.968 2.991 2.481 2.498 2.501 2.531 3.326 3.991 4.156 4.438 6.158 5.488 6.443 5.921 3.858 3.718 3.703 3.751 3.763 3.736 3.713 3.698 3.721 3.708 3.721 3.686 3.658 3.618 3.613 3.593 3.593 3.601 3.603 3.611 3.641 3.691 3.706 3.723 3.783 3.696 3.711 3.803 3.871 4.008 4.163 4.193 4.273 4.303 4.286 4.288 4.321 4.406 4.423 4.443 4.458 4.516 4.473 4.463 4.428 4.408 4.418 4.466 4.493 4.531 4.583 4.618 4.613 4.591 4.573 4.621 4.708 4.773 4.813 4.846 4.888 4.916 4.981 4.993 4.991 4.996 4.983 4.991 5.004 4.999 5.014 4.995 4.996 5.01 5.022 5.034 5.057 5.053 5.057 5.05 5.066 5.121 5.324 5.426 6.993 8.354 8.035 6.484 6.363 6.388 6.828 7.193 6.403 5.971 5.448 4.476 4.123 4.223 4.447 5.435 5.462 5.89 6.011 5.636 5.536 5.535 5.545 5.536 5.703 5.828 5.353 5.603 7.365 6.251 5.684 5.566 5.428 5.428 5.449 5.486 5.572 5.816 5.823 5.922 5.748 5.826 9.371 11.178 11.711 8.756 5.711 5.651 5.398 5.453 5.478 5.431 5.531 5.536 5.461 8.003 10.658 8.143 7.791 5.206 5.213 5.296 5.311 5.331 5.291 5.301 7.613 6.853 6.008 5.451 5.998 5.436 4.971 4.923 4.938 4.968 4.928 4.926 4.911 4.946 4.968 4.946 4.971 5.003 4.951 4.961 4.963 4.981 5.043 5.011 5.006 5.046 5.033 5.058 5.003 5.096 5.101 5.111 5.096 5.148 5.123 5.143 5.138 5.156 5.156 5.166 5.228 5.168 5.176 5.198 5.116 5.158 5.151
9.176 9.156 9.161 9.193 9.193 9.208 9.225 9.229 9.239 9.235 9.222 9.215 9.222 9.204 9.187 9.191 9.181 9.19 9.221 9.189 9.251 9.279 9.291 9.279 9.291 9.284 9.286 9.281 9.301 9.301 9.304 9.309 9.319 9.319 9.314 9.334 9.309 9.334 9.344 9.324 9.346 9.341 9.374 9.389 9.411 9.409 9.426 9.474 9.486 9.476 9.514 9.509 9.538 9.538 9.554 9.564 9.573 9.611 9.604 9.586 9.591 9.623 9.646 9.661 9.631 9.609 9.679 9.703 9.671 9.621 9.769 9.761 9.746 9.751 9.826 9.829 9.801 9.849 9.873 9.891 9.926 9.958 9.986 9.868 9.906 9.941 9.951 9.936 9.966 10.031 10.016 10.094 10.061 10.074 10.054 10.086 10.069 10.101 10.096 10.111 10.096 10.111 10.126 10.111 10.128 10.113 10.161 10.146 10.166 10.153 10.176 10.131 10.178 10.186 10.203 10.198 10.188 10.178 10.211 10.233 10.241 10.218 10.233 10.211 10.236 10.258 10.278 10.268 10.298 10.283 10.291 10.288 10.283 10.336 10.368 10.388 10.398 10.431 10.473 10.491 10.501 10.583 10.633 10.641 10.563 10.698 12.316 10.496 10.498 10.478 10.436 10.368 10.291 10.263 10.218 10.196 10.166 10.148 10.136 10.121 10.121 10.108 10.106 10.073 10.071 10.068 10.061 10.053 10.063 10.056 10.026 9.988 9.973 9.968 9.956 9.923 9.876 9.843 9.828 9.806 9.793 9.758 9.731 9.693 9.663 9.663 9.581 9.471 9.496 9.431 9.381 9.328 9.273 9.211 9.158 9.106 9.051 8.986 8.938 8.863 8.788 8.726 8.641 8.576 8.493 8.418 8.331 8.241 8.151 8.056 7.961 7.868 7.776 7.686 7.578 7.493 7.401 7.306 7.226 7.128 7.051 6.961 6.868 6.781 6.706 6.621 6.531 6.438 6.363 6.288 6.221 6.131 6.071 5.998 5.941 6.551 6.396 5.653 5.701 5.663 5.571 5.503 5.461 5.416 5.331 5.276 5.233 5.181 5.126 5.081 5.061 4.991 5.853 6.038 5.653 5.598 5.576 5.511 5.356 6.796 7.001 4.346 4.338 4.278 4.808 4.978 4.111 7.366 4.913 5.873 5.626 5.591 6.446 8.361 9.301 6.251 2.458 2.458 2.476 2.488 3.321 3.948 4.106 4.363 5.273 6.916 6.956 6.736 5.328 3.616 3.598 3.636 3.678 3.726 3.733 3.761 3.766 3.756 3.743 3.721 3.706 3.621 3.578 3.568 3.548 3.566 3.611 3.603 3.636 3.628 3.651 3.686 3.716 3.706 3.776 3.721 3.828 3.896 3.998 4.106 4.158 4.196 4.286 4.303 4.233 4.311 4.336 4.411 4.426 4.378 4.423 4.388 4.388 4.393 4.388 4.398 4.463 4.468 4.518 4.581 4.608 4.588 4.558 4.581 4.633 4.668 4.701 4.743 4.798 4.848 4.913 4.958 4.973 4.956 4.951 4.933 4.968 4.991 5.012 4.996 4.99 4.966 4.998 4.998 4.989 5.008 5.003 4.995 5.02 5.065 5.102 5.14 5.184 6.073 7.757 8.181 6.881 6.404 6.389 6.345 6.644 6.679 6.188 5.326 4.343 4.098 3.991 4.036 4.528 4.97 5.78 5.76 5.738 6.14 5.677 5.523 5.512 5.512 5.502 5.726 6.337 7.184 5.874 5.511 5.336 5.372 5.369 5.384 5.409 5.442 6.051 6.408 5.697 5.772 5.775 5.756 5.751 7.273 7.866 6.091 5.418 5.418 5.461 5.421 5.511 5.526 5.501 5.703 10.736 10.928 9.071 8.278 7.958 7.511 7.931 5.298 5.326 5.306 6.046 7.336 9.066 8.796 7.951 5.583 4.946 4.913 4.946 4.953 4.926 4.951 4.966 4.931 4.931 4.926 4.953 5.006 5.068 4.951 4.968 5.061 5.001 5.006 4.958 4.958 5.023 5.036 5.041 5.008 5.046 5.048 5.106 5.058 5.106 5.076 5.143 5.133 5.141 5.156 5.133 5.183 5.173 5.196 5.138 5.176 5.161 5.163
9.159 9.141 9.146 9.185 9.197 9.197 9.209 9.214 9.213 9.228 9.214 9.192 9.224 9.225 9.204 9.18 9.186 9.224 9.164 9.214 9.211 9.231 9.254 9.261 9.274 9.266 9.286 9.284 9.269 9.309 9.296 9.271 9.289 9.291 9.289 9.301 9.321 9.321 9.354 9.336 9.309 9.329 9.361 9.376 9.394 9.411 9.444 9.451 9.453 9.469 9.476 9.498 9.514 9.559 9.546 9.573 9.576 9.616 9.594 9.576 9.573 9.596 9.623 9.621 9.659 9.646 9.689 9.724 9.724 9.736 9.663 9.809 9.761 9.804 9.814 9.831 9.849 9.859 9.873 9.913 9.976 9.844 9.878 9.926 9.918 9.916 9.946 10.003 9.979 10.061 10.019 10.036 10.069 10.043 10.026 10.038 10.056 10.063 10.083 10.086 10.068 10.091 10.081 10.068 10.086 10.103 10.113 10.133 10.138 10.153 10.136 10.141 10.151 10.166 10.183 10.196 10.198 10.171 10.183 10.168 10.208 10.251 10.216 10.216 10.208 10.208 10.223 10.248 10.266 10.271 10.273 10.293 10.291 10.306 10.311 10.366 10.388 10.421 10.463 10.463 10.501 10.563 10.618 10.643 10.533 10.908 12.033 10.416 10.461 10.476 10.403 10.323 10.273 10.256 10.238 10.218 10.208 10.178 10.156 10.128 10.123 10.106 10.106 10.081 10.078 10.068 10.066 10.063 10.058 10.011 9.996 9.968 9.938 9.923 9.901 9.873 9.853 9.846 9.836 9.813 9.788 9.753 9.713 9.661 9.628 9.596 9.516 9.436 9.438 9.358 9.306 9.258 9.221 9.161 9.116 9.068 9.018 8.961 8.901 8.848 8.776 8.708 8.633 8.558 8.481 8.396 8.313 8.233 8.133 8.041 7.943 7.856 7.761 7.666 7.576 7.466 7.378 7.276 7.193 7.088 6.996 6.901 6.813 6.726 6.626 6.546 6.473 6.381 6.286 6.213 6.126 6.033 6.011 5.938 5.891 6.598 6.501 5.538 5.623 5.621 5.548 5.451 5.396 5.376 5.301 5.266 5.223 5.166 5.118 5.063 5.086 5.076 5.831 6.431 5.616 5.551 5.543 5.496 5.348 9.073 6.923 4.366 4.318 4.368 4.978 4.701 5.893 4.358 5.706 6.353 5.538 5.918 7.366 6.218 4.893 2.443 2.438 2.486 2.476 3.088 3.931 4.078 4.298 5.023 5.753 6.918 6.918 5.868 3.536 3.566 3.528 3.493 3.561 3.653 3.701 3.721 3.748 3.738 3.728 3.688 3.616 3.576 3.566 3.613 3.626 3.618 3.618 3.623 3.623 3.586 3.593 3.633 3.616 3.678 3.683 3.698 3.823 3.861 3.951 4.073 4.128 4.133 4.196 4.246 4.238 4.303 4.336 4.393 4.348 4.336 4.353 4.343 4.363 4.396 4.418 4.443 4.456 4.508 4.543 4.588 4.658 4.613 4.596 4.561 4.601 4.638 4.668 4.688 4.771 4.828 4.883 4.916 4.913 4.908 4.886 4.906 4.926 4.993 4.995 5.013 4.995 4.995 4.982 4.974 4.954 4.961 4.964 4.981 4.994 5.01 5.05 5.106 5.118 5.142 5.499 6.823 7.528 6.749 6.432 6.38 6.519 6.512 6.166 5.79 5.734 4.927 4.241 4.153 4.108 4.163 5.026 5.405 6.852 5.803 5.57 6.224 5.741 5.578 5.499 5.53 5.526 5.613 6.329 6.982 6.112 5.768 5.561 5.457 5.538 5.534 5.504 5.794 6.149 5.8 5.74 5.848 5.728 5.736 7.553 5.451 5.378 5.423 5.388 5.476 5.491 5.481 5.421 10.161 11.463 9.976 7.856 8.203 8.446 8.388 8.718 8.226 7.123 7.066 8.848 9.518 6.946 8.641 8.868 6.658 4.888 4.906 4.948 4.988 4.891 4.943 4.958 4.923 4.956 4.951 4.948 4.936 4.951 4.958 5.006 4.978 4.956 5.023 4.973 5.111 4.993 5.021 5.036 5.068 5.018 5.088 5.046 5.061 5.098 5.091 5.083 5.136 5.116 5.121 5.121 5.138 5.163 5.193 5.136 5.176 5.188 5.196
9.136 9.154 9.151 9.129 9.194 9.183 9.185 9.191 9.21 9.212 9.199 9.198 9.192 9.204 9.197 9.192 9.179 9.208 9.209 9.211 9.221 9.241 9.224 9.241 9.246 9.236 9.251 9.269 9.269 9.274 9.284 9.296 9.249 9.244 9.286 9.289 9.296 9.304 9.319 9.301 9.299 9.301 9.324 9.351 9.369 9.394 9.411 9.456 9.471 9.436 9.461 9.486 9.496 9.516 9.549 9.556 9.549 9.561 9.601 9.583 9.599 9.611 9.649 9.663 9.729 9.704 9.724 9.809 9.819 9.826 9.799 9.746 9.884 9.819 9.824 9.776 9.833 9.864 9.961 9.799 9.873 9.911 9.894 9.906 9.951 9.991 9.981 10.009 9.983 9.984 9.953 9.964 10.021 10.066 10.026 10.003 10.006 10.018 10.016 10.056 10.066 10.078 10.076 10.091 10.058 10.063 10.081 10.106 10.098 10.121 10.126 10.131 10.136 10.163 10.156 10.168 10.191 10.171 10.176 10.181 10.171 10.186 10.236 10.221 10.213 10.211 10.206 10.231 10.241 10.261 10.273 10.263 10.293 10.301 10.321 10.323 10.381 10.421 10.448 10.466 10.466 10.548 10.591 10.631 10.538 10.981 12.038 10.396 10.433 10.453 10.391 10.316 10.283 10.253 10.243 10.223 10.193 10.163 10.146 10.116 10.096 10.083 10.066 10.051 10.038 10.026 10.026 10.018 10.016 9.996 9.983 9.971 9.951 9.938 9.896 9.856 9.841 9.841 9.811 9.773 9.751 9.721 9.696 9.653 9.608 9.573 9.546 9.458 9.348 9.323 9.281 9.241 9.196 9.158 9.106 9.056 8.991 8.951 8.888 8.823 8.758 8.683 8.606 8.526 8.448 8.373 8.293 8.211 8.111 8.023 7.931 7.828 7.738 7.618 7.531 7.426 7.333 7.241 7.136 7.048 6.941 6.828 6.758 6.661 6.563 6.486 6.391 6.318 6.246 6.178 6.071 5.971 5.976 5.863 5.813 6.463 6.753 5.498 5.548 5.536 5.496 5.438 5.373 5.321 5.268 5.223 5.183 5.113 5.071 5.068 5.063 5.176 5.953 5.758 5.878 5.553 5.493 5.458 6.723 6.216 4.326 4.321 4.276 4.733 4.853 4.126 4.043 5.201 6.553 5.516 5.476 5.201 2.416 2.416 2.426 2.423 2.451 2.451 2.686 3.926 4.168 4.388 5.296 5.508 6.641 6.516 6.301 3.503 3.486 3.536 3.526 3.496 3.513 3.563 3.671 3.751 3.743 3.751 3.708 3.678 3.538 3.491 3.572 3.646 3.64 3.632 3.611 3.637 3.619 3.606 3.516 3.476 3.491 3.623 3.616 3.728 3.776 3.813 3.883 3.998 4.043 4.083 4.133 4.191 4.203 4.273 4.303 4.348 4.353 4.356 4.341 4.336 4.336 4.378 4.433 4.483 4.488 4.558 4.616 4.666 4.671 4.651 4.618 4.591 4.593 4.603 4.641 4.683 4.763 4.798 4.836 4.891 4.886 4.871 4.873 4.868 4.901 4.936 4.957 4.997 5.006 4.973 4.975 4.969 4.979 4.976 4.971 4.948 4.941 4.963 5.003 5.016 5.076 5.084 5.124 5.847 7.269 7.846 6.645 6.408 6.421 6.492 6.458 5.96 6.131 5.693 4.81 4.651 4.74 4.381 4.291 6.198 5.001 4.974 5.067 5.152 5.309 5.823 5.771 5.625 5.531 5.539 5.536 5.534 5.743 5.761 5.814 6.018 6.178 6.447 6.933 6.405 5.695 5.961 5.779 5.735 5.721 6.693 5.468 5.373 5.411 5.383 5.403 5.481 5.488 5.436 7.321 11.168 10.501 5.271 5.261 7.696 8.101 8.886 9.056 8.251 5.681 9.123 8.906 10.228 10.653 11.778 6.103 4.886 4.891 4.966 4.896 4.886 4.918 5.006 4.978 5.013 4.941 4.933 4.943 4.941 4.943 4.946 4.941 4.948 4.976 4.931 5.003 5.026 5.026 5.031 5.038 5.058 5.008 5.046 5.063 5.036 5.056 5.076 5.078 5.088 5.121 5.141 5.103 5.111 5.091 5.133 5.171 5.148 5.201 5.143
9.121 9.144 9.146 9.154 9.153 9.175 9.172 9.172 9.198 9.186 9.197 9.201 9.192 9.185 9.205 9.196 9.176 9.164 9.144 9.171 9.181 9.194 9.221 9.239 9.241 9.249 9.246 9.259 9.254 9.249 9.251 9.244 9.251 9.274 9.236 9.294 9.279 9.284 9.271 9.281 9.299 9.279 9.301 9.306 9.354 9.361 9.404 9.364 9.431 9.458 9.458 9.474 9.486 9.471 9.524 9.543 9.538 9.561 9.564 9.589 9.581 9.594 9.668 9.688 9.703 9.776 9.836 9.884 9.864 9.831 9.806 9.764 9.836 9.816 9.839 9.826 9.886 9.771 9.833 9.881 9.889 9.884 9.896 9.951 9.946 9.989 9.946 9.961 9.944 9.966 9.971 9.941 10.009 10.006 10.026 10.006 9.998 10.036 10.018 10.013 10.016 10.041 10.073 10.076 10.078 10.081 10.063 10.066 10.088 10.088 10.101 10.113 10.101 10.126 10.158 10.153 10.166 10.178 10.158 10.173 10.183 10.183 10.181 10.211 10.211 10.213 10.208 10.178 10.208 10.223 10.253 10.253 10.283 10.271 10.321 10.336 10.353 10.413 10.451 10.478 10.508 10.538 10.571 10.626 10.511 11.016 11.593 10.406 10.438 10.423 10.368 10.303 10.276 10.233 10.218 10.191 10.153 10.123 10.111 10.091 10.076 10.066 10.051 10.038 10.031 10.026 10.016 10.006 10.003 9.993 9.971 9.931 9.923 9.888 9.883 9.858 9.831 9.806 9.788 9.738 9.701 9.663 9.628 9.596 9.568 9.558 9.513 9.418 9.286 9.286 9.281 9.236 9.183 9.133 9.096 9.051 8.996 8.931 8.876 8.803 8.726 8.656 8.588 8.508 8.421 8.341 8.258 8.161 8.068 7.983 7.881 7.781 7.693 7.586 7.483 7.396 7.281 7.193 7.091 6.998 6.893 6.783 6.688 6.596 6.513 6.423 6.336 6.263 6.201 6.131 6.068 6.018 5.908 5.773 5.756 6.338 6.283 5.576 5.613 5.563 5.403 5.343 5.311 5.268 5.218 5.183 5.148 5.106 5.066 5.066 5.116 5.268 6.896 5.691 6.476 6.631 6.406 5.666 6.041 4.746 4.331 4.288 4.381 4.886 4.538 6.083 4.893 5.543 5.516 5.408 5.683 2.396 2.406 2.398 2.423 2.428 2.451 2.528 3.948 4.106 4.441 4.918 5.498 6.336 6.776 6.998 4.311 3.408 3.471 3.456 3.506 3.493 3.516 3.528 3.573 3.678 3.726 3.743 3.781 3.721 3.521 3.455 3.469 3.472 3.508 3.519 3.522 3.583 3.588 3.569 3.474 3.435 3.465 3.531 3.553 3.673 3.731 3.786 3.838 3.896 3.968 4.011 4.098 4.141 4.223 4.213 4.236 4.351 4.388 4.361 4.358 4.363 4.381 4.408 4.448 4.483 4.548 4.596 4.638 4.666 4.738 4.701 4.618 4.553 4.543 4.543 4.578 4.631 4.718 4.768 4.816 4.821 4.826 4.821 4.826 4.846 4.886 4.936 4.943 4.952 4.967 4.949 4.955 4.954 4.961 4.964 4.98 4.953 4.955 4.952 4.958 4.969 5.012 5.055 5.092 5.115 6.816 7.587 7.5 6.479 6.371 6.496 6.493 6.456 6.254 6.191 5.704 5.621 5.712 5.233 4.546 4.628 4.113 4.938 5.643 4.223 4.337 4.532 4.809 5.717 6.053 5.667 5.534 5.542 5.54 5.506 5.506 5.538 5.554 5.538 5.561 5.622 5.668 5.643 6.625 6.856 6.931 5.491 5.373 5.403 5.401 5.351 5.486 5.513 5.448 5.161 10.593 11.163 10.231 6.436 5.253 7.801 8.401 8.898 8.523 7.603 5.276 8.948 9.056 11.708 8.676 9.726 4.898 4.891 4.893 4.901 4.898 4.938 4.926 4.921 4.951 4.961 4.961 4.986 4.946 4.923 4.928 4.943 4.953 4.978 4.978 4.983 4.968 4.971 5.011 4.943 5.011 5.033 5.026 5.023 5.081 5.056 5.053 5.008 5.043 5.023 5.051 5.106 5.093 5.096 5.103 5.106 5.118 5.186 5.163 5.208
9.129 9.154 9.144 9.159 9.132 9.163 9.173 9.153 9.169 9.186 9.192 9.188 9.197 9.17 9.191 9.197 9.172 9.137 9.141 9.156 9.126 9.181 9.196 9.199 9.221 9.231 9.241 9.241 9.241 9.229 9.204 9.256 9.236 9.254 9.244 9.239 9.244 9.261 9.276 9.264 9.296 9.304 9.271 9.306 9.299 9.334 9.364 9.406 9.401 9.416 9.436 9.453 9.461 9.491 9.524 9.538 9.539 9.561 9.501 9.561 9.599 9.636 9.676 9.708 9.746 9.766 9.839 9.868 9.809 9.833 9.833 9.784 9.736 9.766 9.859 9.743 9.806 9.856 9.868 9.894 9.899 9.948 9.926 9.989 9.944 9.936 9.961 9.964 9.941 9.939 9.976 9.931 9.979 9.981 9.996 10.006 9.993 9.976 10.016 9.996 10.023 10.003 10.041 10.063 10.031 10.051 10.066 10.093 10.068 10.101 10.076 10.118 10.111 10.101 10.088 10.141 10.151 10.151 10.163 10.148 10.168 10.173 10.168 10.181 10.208 10.196 10.206 10.191 10.176 10.208 10.231 10.248 10.241 10.286 10.261 10.328 10.368 10.398 10.443 10.456 10.493 10.531 10.548 10.616 10.568 11.086 11.988 10.458 10.446 10.488 10.363 10.288 10.251 10.226 10.208 10.166 10.153 10.126 10.118 10.096 10.088 10.061 10.058 10.053 10.031 10.016 9.991 9.973 9.981 9.986 9.948 9.928 9.901 9.871 9.838 9.813 9.791 9.751 9.718 9.713 9.716 9.696 9.668 9.636 9.591 9.521 9.503 9.378 9.278 9.271 9.261 9.228 9.178 9.128 9.071 9.026 8.971 8.903 8.846 8.763 8.698 8.616 8.548 8.456 8.381 8.301 8.213 8.128 8.021 7.938 7.848 7.758 7.646 7.553 7.456 7.336 7.238 7.131 7.023 6.921 6.816 6.716 6.623 6.526 6.433 6.361 6.293 6.221 6.153 6.106 6.068 6.026 5.976 5.748 5.768 6.101 6.233 5.941 5.618 5.531 5.488 5.411 5.358 5.866 6.046 5.698 5.286 5.161 5.078 5.033 5.138 5.581 6.021 6.143 7.096 6.803 7.076 7.466 6.721 4.326 4.291 4.233 4.741 4.863 3.993 4.213 5.403 6.263 5.378 5.436 2.586 2.378 2.386 2.376 2.398 2.431 2.421 3.471 3.976 4.206 4.793 6.823 6.126 6.481 6.308 5.941 3.968 3.383 3.378 3.473 3.473 3.486 3.483 3.506 3.531 3.558 3.656 3.738 3.761 3.728 3.547 3.448 3.383 3.394 3.425 3.419 3.42 3.478 3.487 3.482 3.444 3.431 3.444 3.478 3.649 3.661 3.696 3.723 3.748 3.838 3.898 3.958 4.058 4.091 4.158 4.176 4.238 4.271 4.351 4.378 4.398 4.471 4.476 4.501 4.528 4.581 4.613 4.626 4.656 4.691 4.671 4.658 4.628 4.548 4.516 4.513 4.543 4.591 4.638 4.708 4.766 4.781 4.791 4.783 4.803 4.858 4.873 4.923 4.938 4.933 4.925 4.892 4.901 4.915 4.928 4.956 4.952 4.959 4.966 4.952 4.936 4.937 4.953 5.012 5.015 5.062 6.198 7.676 8.132 6.89 6.425 6.443 6.492 6.255 6.23 6.153 6.142 5.978 5.791 5.73 5.582 5.539 5.381 4.633 4.716 4.116 4.333 4.423 4.394 4.534 4.776 5.353 6.036 5.75 5.528 5.503 5.526 5.51 5.516 5.541 5.558 5.613 5.636 5.624 5.608 5.556 5.476 5.408 5.396 5.401 5.371 5.463 5.498 5.536 5.341 7.576 9.831 10.721 11.531 10.691 6.036 5.236 6.368 8.128 8.423 10.721 7.948 5.678 11.166 10.926 9.673 5.263 4.873 4.883 4.888 4.921 4.916 4.936 5.036 4.926 4.988 4.971 4.948 4.953 4.941 4.923 4.933 4.936 4.966 4.941 4.941 4.978 4.951 4.991 5.001 4.993 4.951 5.023 5.048 5.051 5.066 5.036 5.061 5.046 5.066 5.091 5.046 5.106 5.026 5.096 5.106 5.088 5.063 5.103 5.123 5.171
9.144 9.144 9.139 9.144 9.146 9.13 9.155 9.159 9.14 9.183 9.18 9.165 9.17 9.17 9.162 9.174 9.181 9.176 9.154 9.149 9.181 9.151 9.194 9.209 9.184 9.194 9.181 9.201 9.216 9.216 9.224 9.221 9.259 9.256 9.194 9.224 9.241 9.224 9.246 9.266 9.269 9.286 9.284 9.266 9.306 9.331 9.374 9.384 9.401 9.434 9.434 9.441 9.461 9.456 9.493 9.511 9.579 9.509 9.544 9.611 9.616 9.654 9.691 9.743 9.766 9.748 9.796 9.856 9.816 9.814 9.801 9.776 9.868 9.748 9.801 9.824 9.824 9.839 9.829 9.924 9.904 9.931 9.939 9.913 9.946 9.916 9.924 9.956 9.954 9.936 9.951 9.931 9.899 9.941 9.974 9.981 9.956 9.961 9.961 9.963 9.986 10.016 10.021 10.021 10.028 10.033 10.038 10.066 10.076 10.066 10.103 10.098 10.101 10.108 10.116 10.088 10.131 10.151 10.158 10.143 10.133 10.143 10.156 10.161 10.168 10.183 10.188 10.173 10.196 10.193 10.206 10.221 10.246 10.243 10.281 10.291 10.331 10.388 10.433 10.433 10.476 10.516 10.551 10.623 10.501 11.176 11.826 10.371 10.446 10.418 10.343 10.278 10.246 10.226 10.201 10.183 10.153 10.118 10.108 10.088 10.076 10.046 10.038 10.018 10.001 9.981 9.968 9.943 9.951 9.928 9.916 9.893 9.878 9.856 9.836 9.818 9.808 9.783 9.768 9.726 9.693 9.658 9.616 9.573 9.528 9.498 9.446 9.383 9.286 9.268 9.218 9.193 9.151 9.101 9.033 8.986 8.918 8.863 8.806 8.733 8.661 8.581 8.511 8.438 8.346 8.271 8.176 8.083 7.991 7.901 7.803 7.703 7.593 7.493 7.381 7.276 7.171 7.061 6.953 6.863 6.761 6.673 6.571 6.483 6.401 6.331 6.268 6.178 6.136 6.101 8.761 6.143 6.126 5.796 5.781 6.041 6.426 5.823 5.528 5.516 5.506 5.451 5.328 5.298 5.228 5.203 5.173 5.171 5.441 5.111 5.173 5.808 6.198 6.623 7.443 6.568 5.773 6.713 4.328 4.313 4.238 4.546 4.851 4.551 3.988 5.288 6.021 5.441 5.333 4.821 2.371 2.366 2.371 2.361 2.358 2.423 2.906 3.901 4.103 4.768 5.363 5.726 6.706 5.703 6.348 5.468 3.726 3.356 3.333 3.381 3.431 3.458 3.453 3.463 3.488 3.536 3.556 3.615 3.69 3.629 3.572 3.471 3.414 3.491 3.542 3.561 3.402 3.425 3.442 3.431 3.529 3.435 3.438 3.463 3.508 3.552 3.621 3.648 3.713 3.763 3.856 3.948 4.051 4.136 4.143 4.143 4.206 4.261 4.348 4.443 4.468 4.543 4.538 4.581 4.608 4.648 4.653 4.673 4.676 4.656 4.638 4.626 4.593 4.541 4.531 4.548 4.553 4.598 4.643 4.686 4.726 4.748 4.741 4.741 4.786 4.836 4.871 4.921 4.901 4.921 4.891 4.867 4.865 4.888 4.893 4.912 4.947 4.943 4.952 4.929 4.918 4.893 4.915 4.955 4.977 4.989 5.176 6.462 7.369 7.633 6.427 6.404 6.495 6.494 6.186 6.043 6.274 6.001 6.092 6.192 5.856 6.02 6.564 6.077 5.33 4.568 4.541 4.423 4.273 4.171 4.392 4.577 4.638 5.187 5.927 5.759 5.588 5.491 5.499 5.503 5.494 5.516 5.55 5.537 5.518 5.409 5.388 5.391 5.401 5.383 5.351 5.458 5.463 5.351 5.703 5.131 5.133 7.308 10.241 6.666 5.168 5.183 5.211 5.228 7.506 8.751 9.766 9.488 7.943 9.891 7.473 4.896 4.893 4.881 4.911 5.028 5.006 4.958 4.978 4.973 4.998 5.051 4.946 4.961 4.971 4.953 4.948 4.946 4.961 4.978 4.973 4.966 4.961 4.983 4.976 4.986 4.968 5.001 5.006 4.971 5.006 4.998 5.058 5.056 5.073 5.051 5.046 5.091 5.018 5.021 5.096 5.063 5.121 5.111 5.151 5.118
9.136 9.144 9.131 9.121 9.147 9.144 9.125 9.116 9.138 9.149 9.159 9.182 9.172 9.17 9.159 9.155 9.17 9.156 9.142 9.126 9.144 9.159 9.154 9.164 9.191 9.181 9.171 9.179 9.216 9.219 9.219 9.206 9.216 9.216 9.224 9.206 9.181 9.229 9.234 9.236 9.254 9.271 9.289 9.269 9.276 9.311 9.344 9.366 9.396 9.389 9.436 9.464 9.464 9.481 9.498 9.534 9.526 9.554 9.549 9.626 9.631 9.689 9.714 9.741 9.721 9.743 9.753 9.809 9.804 9.739 9.806 9.681 9.774 9.796 9.806 9.844 9.856 9.909 9.909 9.966 9.918 9.886 9.899 9.904 9.906 9.939 9.951 9.916 9.926 9.901 9.896 9.948 9.918 9.926 9.929 9.926 9.971 9.951 9.943 9.946 9.948 9.966 10.008 10.011 10.013 10.026 10.028 10.028 10.036 10.058 10.063 10.091 10.098 10.093 10.078 10.121 10.086 10.111 10.136 10.141 10.121 10.111 10.116 10.156 10.136 10.178 10.168 10.163 10.151 10.188 10.198 10.223 10.216 10.253 10.261 10.301 10.331 10.351 10.413 10.413 10.456 10.511 10.543 10.606 10.486 11.386 12.526 10.398 10.413 10.468 10.348 10.283 10.238 10.213 10.188 10.158 10.148 10.123 10.091 10.068 10.043 10.026 9.998 9.978 9.966 9.966 9.953 9.951 9.946 9.948 9.943 9.923 9.896 9.863 9.833 9.796 9.766 9.743 9.713 9.676 9.648 9.608 9.596 9.543 9.501 9.463 9.463 9.381 9.286 9.278 9.218 9.173 9.121 9.058 9.021 8.958 8.906 8.846 8.768 8.706 8.633 8.556 8.483 8.393 8.313 8.233 8.128 8.038 7.933 7.833 7.743 7.646 7.548 7.461 7.353 7.238 7.138 7.031 6.921 6.821 6.761 6.761 6.551 6.486 6.433 7.273 7.376 6.871 9.218 6.566 8.653 8.943 7.746 7.898 5.798 6.013 6.256 5.928 5.558 5.458 5.481 5.458 5.326 5.268 5.236 5.313 5.171 5.518 5.391 5.383 5.263 5.778 5.241 5.216 5.908 7.391 6.846 5.548 4.318 4.258 4.261 4.783 4.703 4.091 4.688 5.708 5.623 5.371 5.446 2.318 2.346 2.358 2.343 2.348 2.363 2.381 3.551 4.061 4.366 5.083 6.343 6.483 6.363 5.523 5.403 4.973 3.388 3.356 3.351 3.366 3.383 3.381 3.433 3.421 3.486 3.464 3.506 3.552 3.567 3.55 3.445 3.417 3.459 3.505 3.478 3.45 3.416 3.428 3.446 3.415 3.416 3.44 3.449 3.458 3.49 3.513 3.612 3.654 3.696 3.771 3.848 3.976 4.056 4.101 4.136 4.161 4.221 4.213 4.391 4.451 4.481 4.543 4.558 4.586 4.628 4.656 4.673 4.676 4.676 4.653 4.611 4.543 4.523 4.518 4.506 4.513 4.543 4.606 4.648 4.683 4.748 4.731 4.726 4.718 4.778 4.823 4.863 4.883 4.933 4.886 4.831 4.809 4.827 4.854 4.88 4.894 4.929 4.931 4.932 4.907 4.881 4.906 4.914 4.899 4.94 4.983 4.966 5.624 7.498 7.662 6.925 6.427 6.427 6.568 6.343 6.385 5.985 7.89 7.237 6.382 6.777 6.105 6.323 5.956 6.182 5.852 5.446 4.841 4.323 4.213 4.773 4.593 4.304 4.456 4.553 4.912 5.711 6.078 5.578 5.469 5.472 5.493 5.475 5.457 5.436 5.419 5.401 5.401 5.378 5.358 5.343 5.431 5.403 5.156 5.998 5.166 5.153 6.006 6.033 5.123 5.136 5.133 5.156 5.196 6.561 8.778 9.236 8.598 8.573 4.928 4.911 4.893 4.891 4.933 5.046 4.963 5.008 4.998 5.011 4.991 5.121 5.031 5.023 4.946 4.941 4.956 4.991 4.978 4.921 4.956 4.968 4.956 4.956 4.956 4.956 4.988 5.046 5.028 5.006 5.031 5.008 4.993 5.021 5.023 5.073 5.093 5.048 5.068 5.011 5.078 5.008 5.061 5.083 5.151 5.091 5.101
9.124 9.134 9.134 9.111 9.121 9.131 9.121 9.125 9.141 9.127 9.149 9.153 9.151 9.156 9.15 9.156 9.157 9.161 9.126 9.104 9.106 9.104 9.104 9.154 9.136 9.164 9.176 9.196 9.186 9.216 9.201 9.196 9.189 9.199 9.216 9.196 9.206 9.219 9.226 9.221 9.256 9.236 9.246 9.281 9.249 9.291 9.299 9.341 9.378 9.376 9.361 9.421 9.431 9.496 9.466 9.556 9.516 9.589 9.639 9.669 9.736 9.739 9.716 9.729 9.711 9.708 9.691 9.656 9.719 9.628 9.739 9.793 9.801 9.811 9.836 9.889 9.891 9.918 9.934 9.896 9.873 9.859 9.904 9.904 9.911 9.894 9.918 9.878 9.909 9.899 9.909 9.896 9.906 9.911 9.899 9.921 9.886 9.976 9.943 9.951 9.933 9.966 9.951 9.973 10.003 10.008 10.026 10.036 10.038 10.023 10.036 10.051 10.081 10.101 10.083 10.083 10.098 10.088 10.111 10.131 10.131 10.106 10.116 10.098 10.113 10.133 10.183 10.161 10.178 10.158 10.176 10.188 10.213 10.223 10.256 10.268 10.326 10.366 10.383 10.423 10.456 10.501 10.541 10.598 10.441 11.386 11.473 10.381 10.403 10.356 10.318 10.261 10.228 10.186 10.173 10.143 10.111 10.086 10.073 10.048 10.041 10.046 10.018 10.013 9.986 9.971 9.951 9.941 9.926 9.921 9.896 9.871 9.836 9.803 9.783 9.746 9.723 9.688 9.676 9.658 9.621 9.583 9.548 9.526 9.491 9.448 9.411 9.341 9.273 9.271 9.183 9.148 9.096 9.048 8.996 8.931 8.866 8.796 8.733 8.653 8.581 8.501 8.433 8.341 8.263 8.178 8.088 7.996 7.903 7.823 7.726 7.618 7.526 7.411 7.298 7.198 7.093 7.028 7.101 7.203 9.526 6.736 6.896 7.183 7.228 7.113 7.268 6.846 7.006 8.211 9.461 8.071 7.048 6.686 5.863 6.058 6.406 6.196 5.598 5.503 5.446 5.508 5.333 5.281 5.256 5.248 5.513 5.218 7.398 5.198 5.231 5.131 5.116 5.158 5.831 7.056 8.213 4.303 4.303 4.206 4.711 4.748 4.028 4.823 5.526 6.493 5.496 5.028 2.746 2.316 2.321 2.331 2.323 2.336 2.346 3.336 3.951 4.241 4.791 5.558 5.656 6.358 4.951 5.046 5.178 3.916 3.421 3.366 3.383 3.363 3.341 3.371 3.383 3.456 3.448 3.456 3.472 3.468 3.457 3.429 3.428 3.467 3.523 3.583 3.474 3.449 3.451 3.476 3.47 3.446 3.435 3.442 3.461 3.467 3.497 3.525 3.573 3.635 3.711 3.826 3.866 4.023 4.066 4.103 4.126 4.178 4.223 4.186 4.331 4.431 4.473 4.518 4.568 4.581 4.621 4.626 4.628 4.638 4.636 4.666 4.638 4.536 4.468 4.433 4.413 4.461 4.513 4.568 4.641 4.691 4.728 4.728 4.706 4.716 4.778 4.816 4.856 4.886 4.861 4.843 4.813 4.808 4.811 4.849 4.856 4.878 4.894 4.874 4.869 4.9 4.865 4.901 4.885 4.909 4.937 4.927 4.928 4.909 6.206 7.323 7.623 6.488 6.435 6.522 6.526 7.204 7.678 7.171 6.451 6.152 6.152 6.326 6.326 6.015 5.959 6.105 6.215 6.018 5.509 5.097 5.376 4.348 4.235 4.248 4.183 4.389 4.566 4.729 5.462 6.178 5.634 5.417 5.407 5.409 5.421 5.404 5.403 5.388 5.378 5.348 5.298 5.421 5.346 6.391 6.373 5.181 5.181 5.196 5.178 5.163 5.126 5.101 5.151 5.196 5.533 8.243 8.181 8.183 5.103 4.933 4.898 4.881 4.891 4.911 4.933 5.036 5.031 5.038 4.968 5.011 5.076 4.981 5.003 4.993 4.936 4.951 4.948 4.948 4.923 4.928 4.963 4.946 4.973 4.981 5.031 4.986 4.973 5.038 4.963 5.033 5.043 5.036 4.983 5.031 5.016 5.078 5.043 5.048 5.016 5.051 5.018 5.106 5.036 5.091 5.046 5.103
9.111 9.116 9.131 9.109 9.118 9.114 9.126 9.104 9.125 9.118 9.122 9.14 9.159 9.131 9.14 9.137 9.132 9.13 9.161 9.154 9.114 9.116 9.144 9.081 9.136 9.154 9.144 9.156 9.166 9.179 9.189 9.184 9.176 9.194 9.214 9.211 9.176 9.189 9.199 9.181 9.206 9.251 9.254 9.264 9.276 9.266 9.299 9.316 9.349 9.366 9.378 9.431 9.458 9.458 9.481 9.559 9.628 9.641 9.691 9.716 9.731 9.696 9.691 9.674 9.628 9.623 9.628 9.611 9.679 9.746 9.766 9.769 9.814 9.866 9.891 9.921 9.904 9.881 9.873 9.891 9.918 9.871 9.881 9.849 9.874 9.881 9.881 9.878 9.881 9.904 9.891 9.871 9.873 9.868 9.886 9.896 9.921 9.913 9.946 9.948 9.936 9.951 9.968 9.968 9.961 10.006 9.986 9.996 10.018 10.041 10.026 10.026 10.043 10.068 10.061 10.068 10.066 10.078 10.108 10.103 10.111 10.128 10.093 10.111 10.108 10.093 10.118 10.163 10.156 10.173 10.161 10.158 10.186 10.241 10.236 10.271 10.298 10.356 10.386 10.426 10.438 10.493 10.531 10.563 10.401 11.153 11.381 10.366 10.401 10.406 10.323 10.241 10.211 10.196 10.181 10.153 10.131 10.103 10.073 10.051 10.016 10.003 9.981 9.963 9.946 9.943 9.928 9.913 9.891 9.893 9.878 9.853 9.826 9.791 9.753 9.713 9.686 9.663 9.658 9.626 9.606 9.571 9.518 9.496 9.446 9.426 9.373 9.358 9.246 9.223 9.153 9.111 9.063 9.013 8.948 8.891 8.821 8.746 8.688 8.608 8.528 8.456 8.386 8.313 8.221 8.131 8.053 7.966 7.888 7.786 7.693 7.633 7.503 7.388 7.303 8.628 7.721 7.866 8.413 10.838 10.506 7.768 8.023 8.021 7.616 6.438 6.288 6.298 6.241 7.301 6.283 6.251 6.233 7.226 5.863 6.153 6.731 5.716 5.618 5.538 5.558 5.486 5.461 5.398 5.416 5.363 5.291 5.273 5.856 6.206 5.393 5.008 5.651 5.683 5.951 6.033 4.323 4.298 4.246 4.523 4.831 4.436 5.138 6.093 5.916 5.536 5.393 3.623 2.271 2.298 2.293 2.301 2.308 2.316 2.806 3.886 4.213 4.636 5.413 5.563 5.888 6.543 5.331 5.573 4.453 3.951 3.518 3.368 3.346 3.376 3.391 3.373 3.338 3.378 3.385 3.437 3.448 3.44 3.447 3.41 3.433 3.493 3.531 3.561 3.463 3.463 3.455 3.47 3.448 3.428 3.424 3.458 3.438 3.459 3.481 3.528 3.581 3.63 3.724 3.778 3.861 3.961 4.058 4.091 4.131 4.178 4.228 4.173 4.356 4.438 4.476 4.506 4.518 4.543 4.546 4.568 4.563 4.598 4.658 4.671 4.613 4.531 4.476 4.421 4.413 4.433 4.496 4.558 4.606 4.633 4.676 4.668 4.651 4.723 4.771 4.813 4.823 4.843 4.846 4.831 4.791 4.791 4.811 4.833 4.842 4.857 4.846 4.825 4.819 4.848 4.873 4.855 4.893 4.898 4.896 4.917 4.918 4.9 4.958 6.132 7.087 6.769 6.455 6.437 6.566 7.294 7.035 6.259 6.441 6.065 6.274 6.485 5.762 6.753 6.774 6.713 6.798 6.666 6.796 6.642 5.971 4.89 4.491 4.238 4.208 4.267 4.022 4.246 4.681 5.133 5.125 6.223 5.626 5.454 5.372 5.374 5.376 5.366 5.368 5.351 5.313 5.426 5.416 5.346 5.316 6.893 5.213 5.233 5.196 5.166 5.251 5.113 5.131 5.218 7.671 6.263 6.198 5.716 4.953 4.886 4.953 4.868 4.886 4.896 5.061 4.996 4.963 5.041 4.971 5.038 5.031 5.048 4.948 5.018 4.973 4.951 4.941 5.021 4.943 5.006 4.956 4.938 4.953 5.013 4.981 5.033 4.983 5.001 5.001 4.986 5.036 4.991 5.048 5.048 5.053 5.008 5.046 5.006 5.083 5.043 5.078 5.101 5.131 5.053 5.106 5.121
9.099 9.101 9.126 9.096 9.134 9.109 9.102 9.107 9.074 9.108 9.114 9.106 9.121 9.132 9.134 9.127 9.112 9.112 9.125 9.134 9.121 9.104 9.131 9.139 9.121 9.131 9.166 9.121 9.144 9.154 9.154 9.171 9.169 9.189 9.199 9.201 9.216 9.134 9.159 9.189 9.199 9.216 9.229 9.249 9.256 9.269 9.239 9.301 9.341 9.384 9.424 9.456 9.479 9.519 9.559 9.611 9.666 9.698 9.679 9.681 9.691 9.676 9.631 9.596 9.591 9.626 9.634 9.691 9.721 9.746 9.764 9.814 9.854 9.881 9.873 9.864 9.876 9.906 9.861 9.881 9.901 9.876 9.881 9.868 9.884 9.871 9.876 9.851 9.846 9.841 9.861 9.876 9.854 9.871 9.861 9.844 9.871 9.903 9.911 9.918 9.918 9.933 9.948 9.983 9.988 9.973 9.978 10.021 9.986 9.998 10.033 10.021 10.011 10.041 10.058 10.061 10.043 10.036 10.048 10.083 10.101 10.103 10.111 10.088 10.098 10.108 10.113 10.111 10.148 10.158 10.173 10.161 10.168 10.201 10.246 10.261 10.306 10.328 10.366 10.393 10.418 10.463 10.501 10.536 10.388 10.936 11.483 10.416 10.388 10.391 10.311 10.236 10.183 10.143 10.128 10.098 10.073 10.053 10.021 9.996 9.981 9.968 9.958 9.938 9.923 9.913 9.903 9.891 9.863 9.843 9.821 9.811 9.788 9.771 9.751 9.706 9.681 9.646 9.631 9.598 9.576 9.543 9.498 9.461 9.416 9.386 9.361 9.308 9.243 9.168 9.118 9.088 9.023 8.973 8.918 8.861 8.783 8.696 8.611 8.518 8.458 8.443 8.401 8.318 8.236 8.183 8.158 8.126 8.058 8.091 8.273 9.693 8.483 9.256 8.166 8.021 7.148 7.276 7.053 7.331 6.451 6.311 6.251 6.263 6.248 6.236 6.246 6.246 6.263 6.296 6.328 6.296 6.278 7.041 5.823 6.383 6.443 6.118 5.581 5.548 5.501 5.466 5.436 5.433 5.431 5.373 5.353 5.381 5.333 6.436 5.121 4.863 5.231 5.581 6.038 4.403 4.301 4.261 4.353 4.796 4.611 4.331 5.503 5.671 5.823 5.486 4.896 2.576 2.241 2.266 2.276 2.298 2.323 2.361 3.761 4.061 4.366 5.201 5.751 6.016 6.398 5.843 5.096 4.483 4.218 4.048 3.693 3.378 3.373 3.396 3.363 3.381 3.388 3.375 3.353 3.385 3.429 3.434 3.413 3.401 3.426 3.501 3.514 3.479 3.464 3.464 3.46 3.422 3.428 3.416 3.429 3.435 3.439 3.459 3.502 3.532 3.57 3.637 3.713 3.797 3.863 3.943 4.056 4.053 4.106 4.161 4.186 4.151 4.281 4.348 4.393 4.416 4.483 4.493 4.471 4.486 4.533 4.598 4.663 4.661 4.631 4.546 4.446 4.401 4.393 4.436 4.506 4.546 4.553 4.578 4.643 4.608 4.648 4.711 4.791 4.813 4.813 4.783 4.793 4.781 4.776 4.741 4.781 4.818 4.813 4.808 4.811 4.794 4.809 4.816 4.841 4.838 4.867 4.886 4.885 4.9 4.892 4.871 4.931 5.743 7.289 7.07 6.44 6.432 6.418 6.728 6.982 7.414 6.367 6.426 5.914 5.763 6.566 8.216 6.342 8.431 6.889 7.009 6.983 6.687 6.448 6.219 5.684 5.651 4.753 4.191 4.029 4.193 4.111 4.218 4.429 4.643 4.845 5.687 5.941 5.444 5.318 5.336 5.338 5.348 5.346 5.393 5.403 5.388 5.351 5.346 5.496 5.376 5.248 5.521 7.406 5.083 5.123 5.526 5.598 7.231 7.011 4.913 4.888 4.988 4.878 4.858 4.898 4.946 4.933 4.956 5.101 4.983 4.986 4.963 5.023 4.951 4.973 4.981 4.928 4.978 4.961 5.046 4.971 4.958 4.943 4.931 4.981 5.023 5.016 4.991 5.048 4.988 4.991 5.001 5.013 5.023 5.006 5.038 5.031 5.046 4.976 5.073 5.013 5.026 5.053 5.051 5.053 5.081 5.076 5.123
9.111 9.106 9.094 9.111 9.104 9.116 9.116 9.101 9.088 9.085 9.089 9.111 9.098 9.122 9.111 9.098 9.123 9.096 9.107 9.116 9.099 9.089 9.081 9.079 9.101 9.116 9.119 9.179 9.151 9.136 9.139 9.151 9.149 9.171 9.166 9.164 9.154 9.174 9.176 9.164 9.201 9.204 9.231 9.231 9.246 9.261 9.251 9.301 9.321 9.346 9.413 9.421 9.524 9.599 9.616 9.649 9.666 9.666 9.656 9.654 9.628 9.561 9.561 9.668 9.586 9.636 9.661 9.701 9.736 9.753 9.796 9.833 9.854 9.816 9.866 9.861 9.851 9.873 9.889 9.891 9.891 9.889 9.846 9.861 9.859 9.871 9.866 9.859 9.856 9.849 9.849 9.849 9.846 9.844 9.871 9.864 9.846 9.841 9.891 9.913 9.921 9.903 9.921 9.921 9.971 9.986 9.981 9.968 10.001 9.981 10.006 10.028 10.021 10.011 10.043 10.061 10.061 10.058 10.046 10.028 10.083 10.113 10.081 10.093 10.058 10.098 10.106 10.101 10.098 10.153 10.156 10.181 10.178 10.161 10.221 10.271 10.286 10.328 10.371 10.366 10.413 10.448 10.466 10.508 10.343 11.043 11.398 10.356 10.373 10.381 10.293 10.218 10.166 10.121 10.098 10.081 10.061 10.041 10.011 9.991 9.968 9.946 9.931 9.908 9.903 9.896 9.896 9.878 9.851 9.831 9.803 9.783 9.763 9.741 9.713 9.686 9.648 9.626 9.593 9.566 9.533 9.498 9.471 9.433 9.391 9.361 9.321 9.293 9.198 9.126 9.056 9.048 9.013 8.973 8.918 8.858 8.768 8.706 8.693 8.873 9.838 8.796 8.868 9.893 11.861 9.606 9.096 8.846 9.996 11.483 12.473 8.978 8.828 8.708 8.128 8.503 6.908 6.908 6.421 6.263 6.263 6.228 6.218 6.281 9.111 9.263 9.306 9.343 8.521 6.286 6.366 6.288 6.283 7.268 5.778 6.096 6.511 5.741 5.538 5.533 5.526 5.456 5.448 5.453 5.428 5.406 5.323 5.336 5.931 6.118 4.686 4.986 5.301 6.091 4.478 4.318 4.283 4.293 4.813 4.758 3.993 4.051 5.956 6.483 5.496 5.091 3.438 2.238 2.233 2.243 2.268 2.278 2.303 3.288 3.951 4.271 4.701 5.818 5.603 5.713 6.298 5.456 5.828 4.478 4.228 4.136 3.831 3.416 3.378 3.391 3.363 3.378 3.406 3.391 3.386 3.363 3.427 3.441 3.387 3.393 3.445 3.468 3.47 3.439 3.45 3.442 3.42 3.412 3.39 3.429 3.43 3.444 3.433 3.46 3.486 3.532 3.573 3.64 3.687 3.761 3.836 3.916 4.011 4.026 4.108 4.111 4.151 4.148 4.291 4.318 4.366 4.343 4.421 4.423 4.421 4.463 4.536 4.628 4.658 4.626 4.561 4.491 4.393 4.361 4.366 4.441 4.493 4.543 4.541 4.563 4.541 4.571 4.631 4.666 4.763 4.791 4.786 4.776 4.756 4.741 4.701 4.758 4.768 4.781 4.773 4.781 4.776 4.761 4.758 4.781 4.806 4.843 4.868 4.84 4.879 4.882 4.87 4.896 4.938 4.949 6.552 6.971 6.35 6.426 6.429 6.457 7.993 7.506 7.394 6.228 6.192 5.797 7.299 7.148 6.853 7.024 6.831 6.632 6.316 6.757 6.254 6.556 6.559 6.64 6.298 6.103 4.572 4.312 4.159 4.12 4.267 4.256 4.416 5.233 4.898 5.57 6.343 5.436 5.301 5.303 5.298 5.321 5.316 5.353 5.316 5.333 5.346 5.318 6.223 7.521 7.236 5.046 5.706 4.708 6.298 6.223 4.878 4.876 4.898 4.908 4.896 4.881 4.891 4.973 5.023 4.958 4.946 4.953 4.948 4.953 5.043 5.006 4.976 5.001 4.971 4.971 4.971 4.966 5.073 4.958 4.956 4.946 4.931 4.993 4.961 5.036 5.031 5.006 5.003 4.973 4.958 5.058 4.993 5.011 4.996 5.051 4.986 5.058 5.013 5.048 5.053 5.038 5.086 5.033 5.031 5.033
9.104 9.071 9.094 9.104 9.086 9.099 9.09 9.092 9.094 9.079 9.098 9.099 9.087 9.096 9.089 9.109 9.085 9.104 9.087 9.109 9.129 9.079 9.076 9.076 9.079 9.049 9.096 9.111 9.114 9.111 9.144 9.139 9.149 9.146 9.141 9.144 9.164 9.151 9.169 9.161 9.159 9.196 9.191 9.236 9.241 9.274 9.271 9.286 9.341 9.349 9.426 9.486 9.544 9.576 9.583 9.569 9.626 9.609 9.611 9.576 9.571 9.711 9.509 9.544 9.616 9.646 9.654 9.736 9.741 9.776 9.809 9.786 9.819 9.811 9.836 9.859 9.861 9.873 9.876 9.864 9.881 9.851 9.856 9.841 9.849 9.844 9.864 9.861 9.831 9.841 9.846 9.849 9.829 9.841 9.851 9.856 9.873 9.868 9.856 9.868 9.911 9.916 9.908 9.923 9.928 9.953 9.966 9.976 9.968 9.993 9.983 10.016 10.016 10.023 10.008 10.046 10.056 10.028 10.041 10.038 10.033 10.073 10.101 10.086 10.096 10.058 10.096 10.101 10.106 10.116 10.156 10.156 10.171 10.183 10.178 10.223 10.276 10.298 10.326 10.373 10.388 10.416 10.431 10.471 10.321 10.893 11.286 10.341 10.353 10.351 10.256 10.198 10.141 10.108 10.076 10.063 10.023 10.016 10.001 9.981 9.953 9.936 9.918 9.901 9.871 9.851 9.851 9.843 9.828 9.811 9.781 9.766 9.728 9.708 9.673 9.661 9.626 9.581 9.558 9.531 9.498 9.476 9.446 9.408 9.348 9.288 9.261 9.201 9.121 9.138 9.053 9.056 9.093 9.153 9.288 9.156 9.541 9.898 11.541 11.138 9.278 9.233 8.923 8.921 10.718 9.243 8.356 8.088 9.098 10.973 8.471 8.491 8.103 8.021 7.726 6.908 6.918 6.928 6.306 8.296 6.746 6.211 6.371 6.328 10.833 10.728 10.703 10.736 10.181 6.268 6.366 6.266 6.276 7.521 5.651 6.426 6.576 6.168 6.011 5.983 5.561 5.463 5.466 5.471 5.411 5.366 5.333 5.778 7.253 6.973 5.378 4.581 6.056 5.906 4.321 4.316 4.286 4.786 4.836 4.338 4.071 5.218 5.948 5.581 5.458 4.608 2.338 2.196 2.241 2.243 2.256 2.261 2.488 3.863 4.103 4.398 6.221 6.341 6.503 6.763 5.618 6.091 4.411 4.248 4.261 4.186 3.996 3.653 3.376 3.376 3.358 3.386 3.364 3.379 3.381 3.402 3.384 3.385 3.375 3.394 3.429 3.474 3.435 3.418 3.462 3.438 3.404 3.384 3.398 3.42 3.436 3.422 3.401 3.449 3.462 3.498 3.555 3.614 3.687 3.8 3.832 3.888 3.946 3.981 4.078 4.083 4.103 4.136 4.253 4.283 4.263 4.273 4.286 4.326 4.416 4.453 4.498 4.581 4.626 4.586 4.523 4.406 4.351 4.356 4.398 4.426 4.483 4.541 4.523 4.541 4.533 4.506 4.576 4.671 4.721 4.703 4.778 4.763 4.706 4.708 4.693 4.681 4.743 4.741 4.776 4.743 4.751 4.748 4.738 4.771 4.788 4.823 4.843 4.821 4.849 4.847 4.848 4.869 4.901 4.945 5.091 6.738 6.313 6.361 6.436 6.594 6.682 7.096 7.945 8.202 5.82 6.391 6.345 5.945 5.896 6.486 5.989 7.107 6.48 6.808 7.156 6.994 6.799 6.678 6.612 6.813 6.074 5.208 4.843 5.111 4.103 4.138 4.333 4.407 4.441 6.834 6.531 4.813 6.368 5.716 5.353 5.293 5.296 5.303 5.321 5.321 5.323 5.323 5.356 5.791 5.108 5.568 7.021 6.391 6.666 5.671 4.886 4.943 4.883 4.911 4.898 4.883 4.891 4.911 4.911 4.931 4.931 5.046 4.976 4.943 4.981 4.951 4.978 4.961 4.958 4.943 4.968 4.928 5.018 4.966 4.963 4.958 4.928 4.981 4.961 5.043 4.976 5.028 4.983 5.036 4.998 5.011 5.008 5.028 5.023 5.023 5.008 5.071 5.008 5.061 5.038 5.063 5.051 5.048 5.036 5.088
9.096 9.086 9.089 9.081 9.084 9.089 9.081 9.073 9.088 9.069 9.049 9.079 9.083 9.072 9.082 9.089 9.077 9.073 9.07 9.067 9.076 9.106 9.091 9.064 9.086 9.119 9.089 9.109 9.116 9.076 9.114 9.101 9.109 9.124 9.144 9.159 9.159 9.181 9.186 9.131 9.146 9.184 9.201 9.224 9.231 9.264 9.269 9.331 9.336 9.409 9.464 9.486 9.529 9.538 9.556 9.551 9.561 9.524 9.493 9.698 9.491 9.521 9.579 9.566 9.628 9.639 9.711 9.736 9.751 9.753 9.756 9.791 9.811 9.819 9.861 9.846 9.866 9.846 9.854 9.831 9.868 9.851 9.861 9.844 9.831 9.811 9.804 9.846 9.844 9.831 9.833 9.841 9.849 9.831 9.821 9.851 9.826 9.853 9.861 9.866 9.856 9.921 9.913 9.888 9.926 9.933 9.958 9.941 9.973 9.981 9.983 9.981 9.988 10.003 10.008 10.028 10.033 10.056 10.023 10.033 10.031 10.028 10.061 10.078 10.083 10.093 10.083 10.106 10.106 10.103 10.128 10.146 10.148 10.176 10.201 10.211 10.223 10.278 10.328 10.378 10.368 10.398 10.411 10.441 10.303 10.926 11.421 10.263 10.316 10.333 10.246 10.198 10.138 10.096 10.063 10.038 10.008 9.981 9.956 9.943 9.933 9.918 9.893 9.878 9.853 9.846 9.826 9.803 9.788 9.763 9.736 9.713 9.706 9.681 9.653 9.623 9.581 9.553 9.546 9.486 9.458 9.418 9.378 9.328 9.301 9.243 9.226 9.201 9.196 9.948 10.161 10.821 10.428 11.643 11.521 13.108 10.001 12.591 9.833 9.881 11.966 8.636 8.513 8.436 8.383 8.351 8.176 8.151 8.258 8.191 8.023 8.096 7.953 8.263 7.728 7.271 7.311 6.901 9.053 11.838 13.233 13.511 12.463 12.548 12.601 11.328 10.763 10.688 10.568 6.261 6.336 6.226 6.248 6.923 5.593 5.708 8.313 8.116 8.056 7.686 5.706 6.036 6.003 5.568 5.526 5.631 5.533 7.271 8.711 8.053 6.823 5.661 4.441 4.341 4.328 4.278 4.653 4.906 4.443 3.908 4.988 5.563 5.698 5.548 5.286 2.948 2.248 2.201 2.226 2.236 2.236 2.213 3.348 3.936 4.218 5.753 6.741 7.281 6.521 5.936 4.238 4.241 4.223 4.238 4.261 4.213 4.113 3.921 3.666 3.373 3.368 3.362 3.376 3.39 3.381 3.369 3.39 3.4 3.334 3.356 3.402 3.436 3.4 3.421 3.451 3.431 3.423 3.413 3.428 3.423 3.399 3.388 3.401 3.417 3.452 3.491 3.541 3.601 3.685 3.757 3.795 3.869 3.928 3.978 4.031 4.053 4.073 4.136 4.223 4.248 4.221 4.181 4.196 4.226 4.313 4.341 4.423 4.513 4.548 4.526 4.428 4.386 4.336 4.356 4.381 4.443 4.496 4.491 4.488 4.466 4.491 4.526 4.608 4.656 4.713 4.716 4.693 4.696 4.698 4.691 4.656 4.696 4.683 4.718 4.733 4.743 4.713 4.708 4.721 4.741 4.756 4.796 4.803 4.783 4.801 4.846 4.863 4.862 4.861 4.892 4.947 5.022 6.365 6.222 6.424 6.428 6.508 6.927 8.283 7.417 7.712 7.284 6.718 7.05 7.548 7.239 7.426 7.551 7.602 6.958 7.923 6.411 7.312 6.616 7.387 7.037 6.708 6.346 6.632 6.102 5.25 4.062 4.066 4.098 4.191 4.368 4.266 4.273 4.681 5.023 5.913 6.046 5.406 5.288 5.278 5.296 5.308 5.326 5.333 5.346 5.303 5.323 6.276 6.761 6.268 4.996 4.956 4.963 4.948 4.916 4.903 4.958 4.861 4.893 4.893 4.963 4.943 4.946 4.948 4.923 4.948 4.946 4.956 4.988 4.938 4.946 4.956 4.988 4.998 4.963 5.036 4.938 4.973 4.928 4.981 4.958 4.993 5.006 5.056 5.088 5.053 4.973 5.001 4.981 4.988 5.026 5.003 5.063 5.023 5.051 5.043 5.048 5.103 5.051 5.073 5.048
9.089 9.094 9.076 9.054 9.086 9.073 9.074 9.065 9.06 9.064 9.038 9.024 9.047 9.071 9.066 9.073 9.085 9.075 9.07 9.077 9.069 9.069 9.071 9.066 9.061 9.089 9.091 9.091 9.101 9.111 9.101 9.121 9.104 9.114 9.136 9.146 9.154 9.141 9.156 9.176 9.141 9.171 9.191 9.229 9.231 9.264 9.301 9.354 9.349 9.436 9.458 9.479 9.503 9.506 9.501 9.489 9.451 9.689 9.496 9.501 9.536 9.554 9.586 9.614 9.676 9.663 9.721 9.661 9.708 9.748 9.746 9.743 9.799 9.799 9.816 9.831 9.859 9.836 9.871 9.841 9.851 9.856 9.829 9.833 9.824 9.854 9.811 9.816 9.816 9.809 9.806 9.788 9.811 9.826 9.836 9.819 9.833 9.813 9.828 9.848 9.883 9.881 9.896 9.898 9.891 9.913 9.938 9.938 9.928 9.961 9.978 9.958 9.991 10.001 9.983 9.996 10.026 10.028 10.043 10.033 10.046 10.043 10.021 10.058 10.076 10.078 10.091 10.093 10.101 10.106 10.121 10.128 10.126 10.151 10.156 10.206 10.236 10.231 10.276 10.328 10.346 10.371 10.378 10.403 10.288 10.828 11.493 10.273 10.291 10.308 10.211 10.136 10.111 10.076 10.043 10.016 9.998 9.966 9.946 9.926 9.918 9.886 9.858 9.833 9.806 9.788 9.783 9.786 9.758 9.736 9.706 9.686 9.671 9.643 9.631 9.588 9.546 9.506 9.503 9.491 9.481 9.436 9.396 9.551 12.456 10.961 10.323 12.478 12.046 10.661 11.603 12.733 9.951 11.846 12.153 9.801 9.241 9.518 8.888 8.658 8.616 8.861 8.616 8.468 8.346 8.348 8.276 8.308 8.031 7.896 7.911 7.948 7.961 7.901 7.783 7.241 7.231 6.846 9.046 11.788 13.128 13.616 12.223 12.051 12.023 10.788 9.366 9.323 9.258 6.436 6.988 6.873 6.541 6.808 5.561 5.771 8.786 8.763 8.686 8.641 5.681 6.013 6.396 8.526 6.918 7.118 5.908 7.541 8.173 8.681 8.091 4.371 4.326 4.323 4.286 4.588 4.903 4.576 4.351 4.791 5.616 6.353 5.743 5.651 4.286 3.921 2.586 2.213 2.208 2.218 2.238 2.516 3.801 4.153 4.893 6.061 7.448 6.731 6.046 5.486 4.061 4.176 4.203 4.201 4.181 4.178 4.131 4.051 3.931 3.698 3.376 3.378 3.362 3.386 3.379 3.369 3.378 3.366 3.403 3.397 3.399 3.414 3.415 3.404 3.402 3.413 3.42 3.443 3.465 3.407 3.395 3.437 3.452 3.471 3.547 3.6 3.662 3.693 3.717 3.736 3.785 3.843 3.876 3.931 3.983 4.008 4.021 4.091 4.171 4.186 4.171 4.123 4.098 4.116 4.168 4.221 4.306 4.426 4.463 4.446 4.391 4.346 4.338 4.353 4.431 4.453 4.471 4.458 4.453 4.443 4.456 4.506 4.571 4.626 4.668 4.713 4.701 4.663 4.636 4.626 4.626 4.656 4.683 4.711 4.713 4.721 4.716 4.678 4.693 4.721 4.756 4.771 4.798 4.771 4.781 4.808 4.818 4.849 4.857 4.883 4.908 4.875 5.683 6.528 6.243 6.428 6.442 6.684 8.127 7.219 7.298 7.574 8.103 6.957 6.71 8.945 6.992 7.057 7.547 7.355 7.901 6.166 7.562 7.01 6.305 6.675 6.996 7.345 7.663 8.013 6.298 5.293 4.924 4.26 4.057 4.051 4.068 4.233 4.413 4.573 4.648 4.753 5.423 6.223 5.418 5.291 5.278 5.288 5.278 5.301 5.331 5.348 5.971 6.186 6.076 4.961 4.991 4.936 4.918 4.908 4.918 4.921 4.883 4.886 4.901 4.913 4.938 4.928 4.946 4.928 4.923 4.958 5.001 4.948 4.926 4.941 4.931 4.956 4.991 4.993 4.978 4.918 4.946 4.953 4.956 5.001 4.983 5.031 4.988 5.038 5.018 5.018 4.978 5.041 5.041 5.041 5.013 5.083 5.033 5.043 5.088 5.051 5.103 5.121 5.051 5.086
9.069 9.079 9.056 9.069 9.079 9.077 9.076 9.047 9.05 9.056 9.052 9.032 9.029 9.027 9.043 9.054 9.057 9.066 9.061 9.069 9.054 9.076 9.086 9.064 9.056 9.041 9.036 9.051 9.071 9.074 9.101 9.119 9.114 9.126 9.129 9.139 9.131 9.144 9.159 9.144 9.144 9.141 9.179 9.204 9.256 9.319 9.329 9.371 9.404 9.451 9.461 9.444 9.448 9.461 9.411 9.536 9.479 9.466 9.529 9.536 9.564 9.606 9.653 9.646 9.659 9.649 9.651 9.694 9.661 9.719 9.739 9.739 9.751 9.771 9.796 9.823 9.816 9.836 9.831 9.841 9.839 9.871 9.841 9.816 9.814 9.814 9.833 9.799 9.824 9.799 9.793 9.791 9.806 9.779 9.814 9.819 9.816 9.831 9.836 9.813 9.821 9.868 9.893 9.886 9.896 9.886 9.896 9.946 9.928 9.943 9.951 9.963 9.951 9.968 9.996 9.996 9.983 10.011 10.031 10.026 10.028 10.041 10.053 10.046 10.056 10.063 10.083 10.076 10.093 10.058 10.081 10.103 10.136 10.128 10.143 10.168 10.186 10.231 10.241 10.258 10.308 10.366 10.358 10.361 10.283 10.621 11.463 10.208 10.281 10.286 10.178 10.121 10.076 10.038 10.003 9.988 9.956 9.941 9.921 9.906 9.893 9.853 9.816 9.803 9.788 9.783 9.771 9.751 9.733 9.713 9.681 9.648 9.621 9.596 9.593 9.611 9.576 10.663 12.153 12.688 12.846 11.866 11.351 13.521 11.111 11.223 10.823 11.366 11.568 10.816 10.148 9.213 9.123 9.058 8.973 8.906 8.853 8.823 8.753 8.626 8.716 8.548 8.791 9.521 8.391 8.373 8.233 8.443 8.768 9.683 7.891 7.938 7.893 7.906 7.761 6.958 6.861 6.868 9.053 11.691 13.073 13.668 12.311 10.621 6.271 6.271 6.281 6.291 6.291 6.243 6.341 5.938 5.986 7.268 5.543 5.608 8.263 8.213 8.263 8.316 5.591 5.741 6.298 6.006 6.536 5.803 5.441 5.201 7.503 8.138 5.073 5.443 4.311 4.278 4.471 4.926 4.618 4.863 4.748 5.618 6.503 5.776 5.808 6.273 2.876 2.861 2.348 2.208 2.201 2.223 2.223 2.628 3.911 4.243 5.208 6.818 5.828 6.256 6.318 5.583 4.141 4.213 4.206 4.158 4.153 4.161 4.141 4.096 4.063 3.938 3.701 3.385 3.379 3.377 3.392 3.376 3.361 3.366 3.404 3.405 3.403 3.402 3.421 3.391 3.403 3.361 3.388 3.409 3.408 3.392 3.406 3.462 3.519 3.547 3.567 3.652 3.694 3.695 3.751 3.801 3.778 3.799 3.833 3.971 3.951 3.948 3.971 4.018 4.111 4.143 4.151 4.108 4.086 4.046 4.051 4.063 4.178 4.291 4.401 4.418 4.376 4.336 4.346 4.386 4.463 4.471 4.468 4.428 4.411 4.406 4.418 4.483 4.551 4.613 4.648 4.631 4.671 4.623 4.618 4.611 4.641 4.658 4.671 4.651 4.676 4.693 4.676 4.673 4.711 4.716 4.751 4.758 4.768 4.766 4.766 4.768 4.803 4.831 4.846 4.874 4.869 4.889 4.859 5.528 6.154 6.364 6.451 6.47 7.139 7.689 7.082 8.38 8.92 9.061 6.798 6.813 6.699 8.296 8.007 9.25 6.929 5.752 5.944 7.041 6.038 6.512 6.582 7.147 8.358 7.32 6.231 7.863 6.743 7.4 5.656 4.768 4.158 4.058 4.066 4.243 4.361 4.471 6.103 4.478 4.823 6.306 5.451 5.328 5.238 5.251 5.281 5.321 5.718 6.266 5.721 6.026 5.166 4.966 4.968 4.951 4.886 4.931 4.878 4.876 4.983 4.953 5.011 4.978 4.923 4.971 4.946 5.013 4.993 4.973 4.931 4.931 4.928 4.958 4.916 4.916 4.918 4.921 4.981 4.971 4.966 5.011 4.988 4.976 5.048 5.023 5.003 5.046 5.043 5.006 5.078 5.031 5.096 5.076 5.083 5.068 5.061 5.088 5.048 5.098 5.088 5.118
9.051 9.041 9.069 9.076 9.046 9.046 9.054 9.045 9.057 9.038 9.033 9.02 9.014 9.018 9.042 9.03 9.043 9.034 9.051 9.046 9.041 9.031 9.069 9.096 9.056 9.049 9.046 9.089 9.056 9.066 9.091 9.086 9.086 9.106 9.121 9.126 9.164 9.151 9.134 9.196 9.184 9.156 9.191 9.261 9.324 9.359 9.376 9.409 9.376 9.399 9.404 9.401 9.394 9.409 9.491 9.434 9.474 9.496 9.498 9.573 9.579 9.626 9.626 9.591 9.636 9.639 9.628 9.651 9.656 9.674 9.681 9.724 9.736 9.736 9.741 9.786 9.829 9.814 9.831 9.824 9.821 9.839 9.859 9.824 9.786 9.791 9.781 9.819 9.791 9.821 9.801 9.774 9.781 9.793 9.788 9.804 9.793 9.823 9.818 9.846 9.843 9.831 9.843 9.883 9.886 9.896 9.903 9.903 9.926 9.941 9.946 9.956 9.968 9.953 9.968 9.993 9.981 9.996 10.011 10.031 10.008 10.016 10.036 10.033 10.043 10.051 10.063 10.078 10.061 10.083 10.068 10.063 10.103 10.136 10.136 10.156 10.171 10.201 10.233 10.243 10.258 10.328 10.316 10.328 10.266 10.678 11.618 10.183 10.258 10.288 10.166 10.101 10.061 10.018 9.968 9.936 9.916 9.896 9.883 9.851 9.838 9.801 9.788 9.766 9.748 9.766 9.778 9.753 9.718 9.771 10.368 10.606 11.208 12.203 10.686 13.848 10.848 11.551 11.341 12.316 12.811 11.078 11.266 11.013 10.288 9.531 9.443 9.411 9.353 9.311 9.261 9.176 9.123 9.061 9.003 8.928 8.828 8.776 8.708 8.588 8.611 9.006 9.271 9.263 9.146 8.301 8.138 8.178 7.981 7.821 7.791 7.946 7.913 7.873 7.798 7.013 6.873 6.888 9.058 11.623 12.993 13.768 12.378 10.173 6.301 6.286 6.243 6.216 6.223 6.241 6.198 6.133 6.046 6.736 5.533 6.673 8.206 5.318 5.418 5.496 5.493 5.596 5.736 5.928 5.926 5.591 5.188 5.133 5.581 5.116 6.231 4.286 4.233 4.373 4.973 4.681 5.561 4.521 5.498 6.231 5.818 5.878 6.281 4.343 3.903 3.156 2.226 2.213 2.211 2.201 2.196 3.943 4.378 4.441 5.988 5.713 6.598 7.171 5.976 5.421 4.138 4.193 4.233 4.183 4.168 4.163 4.138 4.113 4.108 4.078 3.914 3.76 3.555 3.38 3.353 3.37 3.433 3.375 3.369 3.321 3.366 3.36 3.337 3.375 3.359 3.368 3.421 3.394 3.397 3.404 3.425 3.468 3.545 3.562 3.609 3.664 3.701 3.755 3.765 3.804 3.755 3.77 3.816 3.908 3.891 3.916 3.896 3.936 4.001 4.056 4.071 4.073 4.078 4.033 3.981 3.988 4.098 4.208 4.271 4.306 4.346 4.388 4.398 4.446 4.503 4.506 4.463 4.403 4.361 4.351 4.438 4.481 4.561 4.593 4.601 4.631 4.621 4.578 4.563 4.596 4.633 4.673 4.656 4.683 4.643 4.648 4.651 4.663 4.678 4.716 4.753 4.763 4.761 4.748 4.758 4.768 4.808 4.863 4.861 4.853 4.856 4.858 4.836 4.819 6.493 6.126 6.43 6.45 6.602 7.766 7.837 8.182 10.075 7.086 6.769 6.876 8.606 7.903 8.37 8.828 6.511 7.363 8.326 7.881 6.901 6.119 6.075 6.255 6.717 6.97 6.531 8.696 7.999 6.961 5.848 5.523 5.223 4.771 4.166 4.063 4.068 4.338 4.361 4.471 4.468 5.453 4.651 6.086 5.726 5.373 5.256 5.276 5.311 5.356 5.543 6.308 5.776 5.848 4.891 4.898 4.891 4.903 4.886 4.901 4.888 4.921 4.966 4.936 4.913 4.946 4.983 4.948 5.056 4.943 4.941 4.923 4.988 5.058 4.926 4.916 4.961 4.976 4.951 4.941 4.996 4.971 4.943 4.976 4.971 5.011 5.011 5.118 5.056 5.111 5.008 5.083 5.031 5.136 5.058 5.081 5.036 5.036 5.111 5.106 5.033 5.053
9.046 9.036 9.059 9.029 9.036 9.039 9.046 9.024 9.02 9.022 9.014 9.006 9.008 8.976 9.016 9.024 9.019 9.038 9.051 9.03 9.029 9.031 9.034 9.059 9.054 9.059 9.026 9.071 9.086 9.076 9.104 9.104 9.089 9.091 9.101 9.111 9.151 9.141 9.159 9.161 9.174 9.219 9.251 9.304 9.351 9.401 9.409 9.399 9.366 9.361 9.349 9.309 9.496 9.418 9.434 9.456 9.489 9.521 9.534 9.571 9.601 9.594 9.591 9.599 9.614 9.623 9.636 9.641 9.671 9.634 9.676 9.671 9.724 9.741 9.769 9.761 9.791 9.814 9.816 9.833 9.816 9.793 9.786 9.836 9.823 9.816 9.796 9.779 9.764 9.764 9.799 9.788 9.761 9.779 9.793 9.791 9.789 9.788 9.813 9.796 9.853 9.851 9.833 9.843 9.878 9.893 9.878 9.908 9.918 9.943 9.926 9.953 9.961 9.966 9.958 9.988 9.988 9.988 10.008 10.003 10.021 10.013 10.001 10.006 10.013 10.026 10.063 10.036 10.046 10.036 10.068 10.073 10.081 10.103 10.128 10.126 10.156 10.178 10.208 10.238 10.251 10.286 10.331 10.323 10.248 10.481 11.403 10.243 10.233 10.243 10.136 10.088 10.028 9.986 9.908 9.898 9.866 9.846 9.816 9.786 9.803 9.803 9.811 9.848 9.968 10.323 10.723 10.708 10.991 11.333 11.066 10.181 12.553 10.086 10.236 12.628 10.216 11.026 9.738 9.753 9.591 9.576 9.518 9.463 9.443 9.461 9.423 9.393 9.361 9.298 9.246 9.196 9.151 9.123 9.056 9.001 8.886 8.798 8.736 8.618 8.586 8.578 8.788 9.136 9.751 8.281 8.201 8.136 7.881 7.768 7.846 7.876 7.871 7.883 7.801 6.923 6.926 6.906 8.436 10.418 12.916 13.836 12.411 9.883 6.283 6.323 6.203 6.191 6.178 6.181 6.181 6.138 6.098 6.678 5.516 7.091 9.803 7.773 5.388 5.818 5.491 4.938 5.598 5.876 5.813 5.298 5.306 5.071 5.061 4.301 4.328 4.263 4.228 4.938 4.786 3.946 4.716 5.513 5.856 5.861 5.926 6.083 5.686 2.803 4.561 4.691 2.451 2.198 2.191 2.201 2.388 4.231 4.336 4.806 5.518 6.393 6.033 6.408 5.476 4.266 4.126 4.196 4.196 4.226 4.231 4.181 4.131 4.171 4.151 4.148 4.107 4.018 3.851 3.634 3.412 3.408 3.424 3.383 3.387 3.414 3.362 3.382 3.356 3.375 3.404 3.332 3.413 3.417 3.385 3.442 3.431 3.506 3.557 3.558 3.616 3.63 3.642 3.662 3.718 3.766 3.758 3.757 3.808 3.921 3.886 3.901 3.856 3.821 3.831 3.921 4.018 4.086 4.073 4.011 3.911 3.936 4.001 4.103 4.221 4.336 4.401 4.388 4.406 4.458 4.501 4.483 4.418 4.343 4.356 4.316 4.378 4.468 4.536 4.563 4.603 4.571 4.566 4.543 4.556 4.588 4.598 4.626 4.671 4.671 4.676 4.648 4.641 4.673 4.688 4.713 4.748 4.743 4.788 4.746 4.761 4.786 4.788 4.848 4.873 4.868 4.848 4.811 4.816 4.791 5.89 6.263 6.247 6.436 6.438 6.904 8.152 8.393 7.486 6.363 6.092 6.175 8.829 7.959 6.875 8.31 5.514 6.937 6.881 6.3 6.317 5.068 4.753 4.854 5.519 5.667 6.606 6.97 8.592 7.696 7.011 7.396 6.618 5.661 5.533 6.316 4.073 4.076 4.141 4.501 4.486 4.531 4.453 4.568 4.821 5.451 6.391 5.418 5.306 5.298 5.333 5.358 5.408 6.166 6.396 5.456 4.996 4.898 4.893 4.911 4.891 5.006 4.951 5.008 4.923 5.091 4.956 4.946 5.053 4.931 4.951 5.023 4.941 4.916 4.908 4.923 4.948 4.953 4.953 4.973 4.961 5.026 5.026 5.058 5.046 5.016 4.996 5.053 5.046 5.081 5.063 5.038 5.053 5.018 5.096 5.076 5.071 5.031 5.071 5.043 5.083 5.073
9.004 9.039 9.039 9.024 9.039 9.029 9.02 9.017 9.003 9.001 9.014 8.996 8.996 8.979 8.978 8.966 9.007 9 9.031 9.027 9.021 9.034 9.039 9.036 9.039 9.024 9.041 9.019 9.031 9.051 9.071 9.064 9.106 9.106 9.131 9.121 9.134 9.144 9.166 9.154 9.164 9.256 9.301 9.354 9.374 9.361 9.371 9.354 9.359 9.309 9.356 9.399 9.411 9.444 9.466 9.503 9.521 9.583 9.574 9.579 9.551 9.574 9.596 9.583 9.586 9.591 9.624 9.618 9.631 9.631 9.631 9.668 9.681 9.719 9.736 9.751 9.788 9.791 9.793 9.826 9.814 9.799 9.809 9.793 9.816 9.788 9.784 9.781 9.771 9.759 9.764 9.774 9.753 9.756 9.753 9.771 9.789 9.803 9.786 9.803 9.781 9.816 9.831 9.851 9.848 9.888 9.911 9.881 9.913 9.941 9.956 9.928 9.961 9.963 9.958 9.951 9.971 9.988 10.016 10.016 9.998 10.021 9.986 10.006 10.006 9.988 10.028 10.053 10.036 10.061 10.021 10.053 10.056 10.073 10.076 10.116 10.131 10.168 10.173 10.203 10.251 10.263 10.308 10.301 10.228 10.351 11.348 10.991 10.516 10.211 10.128 10.061 9.993 9.956 9.918 9.891 9.933 10.006 10.423 11.638 10.963 13.116 11.023 13.866 13.441 10.441 10.221 10.108 10.041 10.796 10.613 9.858 9.806 9.803 9.746 9.763 9.773 9.616 9.578 9.551 9.528 9.511 9.508 9.486 9.481 9.451 9.398 9.321 9.278 9.266 9.251 9.203 9.163 9.123 9.051 8.951 8.821 8.748 8.701 8.618 8.571 8.483 8.398 8.323 8.321 8.411 8.911 8.008 7.888 7.821 7.853 7.828 7.816 7.801 7.806 7.473 6.896 6.906 6.276 10.681 12.831 14.428 12.088 9.511 6.283 6.306 6.181 6.153 6.141 6.093 6.101 6.078 6.076 7.716 5.503 7.446 9.801 7.843 5.866 6.736 8.773 7.318 5.438 5.611 6.118 5.421 5.021 4.633 4.308 4.321 4.276 4.371 4.893 4.581 3.943 3.986 5.591 7.313 6.158 5.928 5.953 6.573 3.921 2.573 4.396 4.876 4.998 2.198 2.206 2.211 3.961 4.311 4.531 5.233 5.593 6.631 5.596 5.066 4.841 3.963 4.083 4.148 4.171 4.196 4.216 4.208 4.238 4.293 4.286 4.203 4.118 4.085 4.045 3.91 3.718 3.442 3.386 3.372 3.394 3.371 3.348 3.305 3.329 3.347 3.366 3.342 3.321 3.386 3.406 3.385 3.469 3.535 3.496 3.544 3.573 3.54 3.553 3.582 3.636 3.712 3.748 3.741 3.831 3.871 3.876 3.938 3.813 3.791 3.791 3.803 3.923 4.103 4.138 4.108 3.906 3.901 3.961 4.051 4.206 4.371 4.406 4.393 4.398 4.488 4.528 4.488 4.391 4.328 4.296 4.288 4.348 4.421 4.438 4.508 4.538 4.566 4.561 4.526 4.551 4.573 4.621 4.631 4.666 4.661 4.658 4.653 4.648 4.636 4.671 4.718 4.731 4.748 4.758 4.741 4.766 4.781 4.811 4.823 4.876 4.853 4.833 4.833 4.778 4.801 4.806 6.731 6.095 6.417 6.46 6.488 6.924 8.222 6.997 9.273 6.659 6.306 6.721 6.711 7.293 6.974 4.921 4.861 4.851 4.825 4.789 4.771 4.798 4.794 4.771 4.833 5.956 6.756 6.731 6.993 6.876 6.883 6.851 5.596 5.443 6.153 5.571 4.656 6.053 4.093 4.116 4.503 4.438 4.561 5.358 5.951 6.196 8.056 8.468 7.091 5.358 5.293 5.313 5.338 5.378 5.748 6.476 6.118 4.933 4.883 4.891 4.868 4.876 4.961 4.933 4.926 5.001 4.981 4.981 4.966 4.988 4.963 4.916 4.908 4.986 4.938 4.951 4.941 4.951 4.941 4.976 4.983 5.026 5.023 5.018 4.953 5.046 5.003 5.068 5.041 5.088 5.061 5.028 5.028 5.051 5.026 5.041 5.056 5.041 5.093 5.073 5.103
9.011 9.026 9.014 9.024 9.019 9.014 9.007 8.998 8.993 9.002 8.998 8.987 8.99 8.975 8.983 8.989 9.004 8.986 9.003 9.001 9.011 9.011 9.019 9.021 9.039 9.084 9.044 9.029 9.026 9.031 9.021 9.056 9.081 9.099 9.114 9.121 9.139 9.176 9.184 9.159 9.234 9.286 9.331 9.364 9.361 9.364 9.336 9.288 9.253 9.446 9.366 9.431 9.446 9.469 9.536 9.556 9.591 9.606 9.583 9.581 9.561 9.529 9.556 9.574 9.566 9.541 9.581 9.581 9.576 9.594 9.621 9.644 9.666 9.684 9.703 9.724 9.736 9.774 9.793 9.776 9.806 9.788 9.801 9.779 9.816 9.796 9.764 9.766 9.748 9.761 9.756 9.771 9.766 9.741 9.748 9.751 9.743 9.783 9.796 9.791 9.811 9.816 9.786 9.806 9.858 9.863 9.883 9.906 9.873 9.913 9.938 9.971 9.931 9.951 9.966 9.963 9.953 9.948 9.958 10.001 10.013 9.996 9.991 9.976 9.991 9.986 9.973 10.008 10.041 10.018 10.043 10.011 10.051 10.041 10.063 10.076 10.121 10.146 10.158 10.178 10.186 10.206 10.266 10.263 10.213 10.253 11.358 11.421 10.833 10.543 10.238 10.246 11.411 11.121 12.188 11.088 10.691 10.586 11.866 10.451 10.193 10.078 10.151 10.246 12.271 10.041 10.046 9.853 9.896 9.886 9.796 9.758 9.728 9.706 9.678 9.648 9.641 9.606 9.523 9.568 9.538 9.506 9.471 9.446 9.398 9.356 9.351 9.278 9.248 9.201 9.193 9.176 9.156 9.093 9.018 8.893 8.788 8.701 8.641 8.606 8.506 8.396 8.311 8.221 8.201 8.123 8.068 7.933 7.903 7.823 7.798 7.596 7.748 7.711 7.576 7.296 6.906 6.263 6.253 6.276 6.378 6.396 6.373 6.336 6.273 6.276 6.211 6.131 6.106 6.083 6.078 6.041 6.021 6.783 5.513 6.753 9.781 8.538 8.038 9.106 9.801 8.618 7.158 4.866 5.236 4.931 4.551 4.313 4.333 4.293 4.311 4.838 4.633 4.028 4.406 6.046 6.076 6.618 6.323 6.183 6.003 5.693 2.753 2.518 3.873 3.503 2.231 2.206 2.206 2.191 4.188 4.358 4.833 5.591 5.401 5.771 6.113 4.493 4.023 3.953 3.941 3.991 4.106 4.183 4.181 4.188 4.163 4.166 4.126 4.043 4.012 4.085 4.096 4.053 3.946 3.75 3.416 3.353 3.428 3.345 3.351 3.344 3.293 3.247 3.309 3.353 3.356 3.406 3.372 3.425 3.466 3.487 3.468 3.555 3.554 3.58 3.494 3.487 3.615 3.722 3.726 3.732 3.676 3.838 3.918 3.933 3.806 3.781 3.778 3.781 3.903 4.093 4.156 4.081 3.928 3.863 3.886 4.018 4.213 4.368 4.376 4.358 4.411 4.481 4.528 4.483 4.353 4.293 4.268 4.276 4.311 4.361 4.406 4.428 4.446 4.458 4.471 4.503 4.546 4.578 4.603 4.621 4.618 4.611 4.613 4.648 4.653 4.641 4.641 4.663 4.721 4.748 4.733 4.728 4.736 4.771 4.848 4.841 4.823 4.808 4.808 4.808 4.771 4.816 4.866 6.013 6.758 6.221 6.422 6.457 6.506 7.297 7.862 7.464 7.212 5.7 4.95 5.946 4.898 5.164 5.271 5.1 4.813 4.742 4.734 4.734 4.814 4.831 4.785 4.759 4.776 4.741 4.681 5.111 6.031 6.161 5.858 5.803 5.663 6.461 5.841 5.791 6.658 6.091 4.358 4.076 4.158 4.316 4.508 4.628 6.053 8.496 10.323 7.118 7.446 6.096 5.383 5.261 5.293 5.311 5.343 5.513 6.381 6.316 4.966 4.851 4.903 4.873 4.891 4.921 4.961 4.961 4.938 5.016 5.003 4.918 4.896 4.921 4.956 4.996 4.953 4.936 4.928 4.916 4.943 4.978 5.006 4.983 4.951 5.033 4.971 5.066 5.016 5.053 4.998 5.018 5.028 5.006 5.013 5.043 5.056 5.066 5.073 5.088 5.111 5.128
9.001 8.981 8.999 9.004 8.999 9.001 8.99 8.966 8.989 8.98 8.979 8.97 8.951 8.971 8.974 8.953 8.993 8.99 8.977 9.002 9.014 9.001 9.001 9.011 9.004 9.034 9.076 9.076 9.031 9.039 9.054 9.031 9.061 9.089 9.109 9.134 9.141 9.199 9.206 9.256 9.289 9.321 9.341 9.369 9.339 9.306 9.264 9.221 9.336 9.356 9.434 9.436 9.491 9.506 9.561 9.546 9.546 9.564 9.559 9.609 9.594 9.546 9.534 9.511 9.556 9.556 9.549 9.543 9.561 9.559 9.571 9.596 9.639 9.626 9.656 9.706 9.689 9.719 9.771 9.799 9.774 9.799 9.781 9.796 9.776 9.788 9.799 9.741 9.753 9.736 9.751 9.741 9.746 9.756 9.739 9.739 9.771 9.753 9.791 9.786 9.791 9.808 9.833 9.811 9.798 9.868 9.871 9.888 9.891 9.873 9.886 9.936 9.953 9.926 9.956 9.961 9.943 9.958 9.936 9.936 9.983 9.996 9.978 9.983 9.966 9.981 9.963 9.971 10.006 10.013 10.008 10.011 10.006 10.036 10.041 10.086 10.071 10.116 10.163 10.153 10.158 10.178 10.233 10.241 10.218 10.128 11.411 11.546 13.056 11.321 11.418 13.008 10.538 11.316 10.246 10.146 9.991 9.916 9.938 9.916 9.928 9.911 9.918 9.891 9.901 9.893 9.831 9.803 9.796 9.786 9.748 9.746 9.718 9.703 9.701 9.673 9.661 9.618 9.548 9.571 9.543 9.513 9.431 9.408 9.386 9.376 9.341 9.278 9.231 9.191 9.181 9.191 9.136 9.073 8.953 8.838 8.783 8.683 8.623 8.558 8.493 8.343 8.221 8.146 8.113 8.058 7.988 7.883 7.838 7.786 7.616 7.421 7.113 6.888 6.681 8.196 6.421 6.283 6.293 6.298 6.323 6.361 6.328 6.306 6.241 6.223 6.216 6.093 6.076 6.068 6.066 6.678 5.966 7.166 5.538 7.076 9.933 9.556 9.741 9.718 9.456 9.411 9.721 9.296 8.048 4.636 4.296 4.341 4.306 4.278 4.806 4.626 3.948 5.043 5.546 5.848 6.718 6.586 6.321 5.978 6.398 4.076 2.518 2.458 2.903 2.891 2.203 2.203 2.223 3.843 4.296 4.588 6.461 5.668 5.688 5.993 5.426 4.101 4.026 3.983 3.933 3.921 3.928 3.986 4.013 4.023 4.053 4.056 4.008 3.943 3.977 4.044 4.119 4.117 4.023 3.822 3.563 3.394 3.36 3.37 3.378 3.31 3.351 3.204 3.253 3.406 3.426 3.436 3.385 3.432 3.471 3.458 3.507 3.515 3.593 3.544 3.498 3.474 3.61 3.682 3.697 3.708 3.721 3.883 3.911 3.911 3.791 3.776 3.778 3.783 3.936 4.066 4.096 4.121 3.933 3.871 3.871 4.006 4.186 4.323 4.338 4.326 4.411 4.471 4.488 4.438 4.331 4.293 4.266 4.303 4.343 4.338 4.358 4.346 4.373 4.416 4.471 4.503 4.551 4.581 4.596 4.608 4.603 4.588 4.611 4.656 4.641 4.643 4.653 4.656 4.671 4.683 4.711 4.726 4.771 4.806 4.796 4.821 4.793 4.811 4.793 4.803 4.808 4.788 4.826 4.871 6.236 7.121 7.308 6.426 6.436 6.856 6.797 7.561 6.902 5.797 5.595 5.715 5.901 6.761 5.712 6.288 5.21 4.845 4.746 4.875 4.872 4.721 4.784 4.703 4.658 5.073 4.748 4.786 4.898 4.916 5.296 5.133 5.293 5.681 5.771 5.718 5.896 5.796 5.533 4.738 4.078 4.051 4.073 4.213 4.178 6.201 7.698 4.816 6.368 6.401 5.853 6.208 5.368 5.251 5.261 5.278 5.291 5.321 6.156 6.283 5.146 4.843 4.913 4.938 4.968 4.926 4.971 5.003 4.946 4.938 4.976 5.008 5.021 5.043 5.048 4.991 4.958 4.963 4.956 4.948 4.971 5.003 4.978 4.986 4.993 4.973 4.983 4.983 5.006 5.036 5.043 5.078 5.048 5.076 5.068 5.106 5.071 5.103 5.091 5.131
8.996 8.966 8.986 8.989 8.989 8.984 8.988 8.982 8.983 8.972 8.97 8.958 8.946 8.958 8.939 8.943 8.925 8.94 8.983 8.989 8.996 9.006 8.999 8.994 8.996 9.026 9.051 9.051 9.029 9.026 9.036 9.026 9.091 9.096 9.146 9.166 9.139 9.219 9.219 9.281 9.339 9.314 9.321 9.329 9.274 9.201 9.389 9.321 9.396 9.413 9.426 9.471 9.519 9.526 9.526 9.501 9.524 9.546 9.519 9.589 9.556 9.554 9.531 9.503 9.521 9.516 9.529 9.541 9.538 9.551 9.566 9.589 9.591 9.591 9.614 9.656 9.694 9.708 9.724 9.761 9.779 9.753 9.806 9.774 9.756 9.759 9.774 9.769 9.726 9.731 9.721 9.716 9.719 9.726 9.748 9.719 9.748 9.761 9.781 9.796 9.796 9.803 9.821 9.846 9.813 9.826 9.866 9.888 9.891 9.891 9.893 9.858 9.938 9.943 9.921 9.951 9.963 9.923 9.958 9.951 9.921 9.946 9.961 9.973 9.976 9.966 9.961 9.936 9.946 9.976 9.988 9.996 10.003 10.008 10.046 10.046 10.081 10.086 10.118 10.146 10.146 10.148 10.221 10.241 10.228 10.066 11.856 11.198 11.166 10.401 11.028 10.216 10.098 10.036 10.008 9.993 10.073 10.171 10.053 9.926 9.898 9.881 9.873 9.858 9.861 9.836 9.773 9.763 9.791 9.786 9.781 9.761 9.723 9.706 9.681 9.673 9.638 9.623 9.593 9.548 9.551 9.461 9.438 9.378 9.376 9.366 9.328 9.268 9.188 9.171 9.173 9.151 9.091 9.026 8.918 8.816 8.738 8.668 8.616 8.563 8.471 8.351 8.213 8.138 8.103 8.041 7.966 7.843 7.761 7.721 7.551 7.276 6.876 6.078 6.283 8.413 6.521 6.461 6.293 6.401 6.338 6.331 6.303 6.261 6.296 6.156 6.273 6.903 6.038 6.086 6.203 7.316 6.068 7.243 5.556 7.991 9.053 9.321 9.541 9.898 10.196 9.553 9.228 8.933 6.723 4.536 4.346 4.313 4.261 4.891 4.686 3.923 3.998 5.361 5.948 6.896 7.093 6.568 6.433 6.043 5.253 3.118 2.516 2.436 2.226 2.203 2.188 2.208 2.206 4.063 4.306 5.376 6.253 6.231 6.911 6.416 5.468 4.048 3.991 3.956 3.961 3.963 3.968 3.948 3.943 3.926 3.938 3.971 3.901 3.878 4.025 4.089 4.116 4.083 3.943 3.744 3.636 3.501 3.411 3.421 3.433 3.378 3.331 3.373 3.448 3.466 3.417 3.416 3.452 3.481 3.486 3.479 3.508 3.518 3.625 3.541 3.49 3.479 3.588 3.628 3.692 3.653 3.701 3.856 3.898 3.858 3.806 3.778 3.766 3.788 3.858 4.043 4.083 4.048 3.893 3.848 3.901 3.986 4.163 4.276 4.298 4.333 4.416 4.468 4.473 4.416 4.311 4.251 4.281 4.326 4.368 4.361 4.343 4.351 4.346 4.393 4.438 4.503 4.516 4.568 4.563 4.606 4.571 4.568 4.593 4.598 4.641 4.661 4.643 4.671 4.646 4.643 4.648 4.686 4.756 4.781 4.828 4.801 4.826 4.813 4.803 4.778 4.783 4.788 4.806 4.841 4.878 6.221 7.278 6.358 6.428 6.443 6.686 7.323 5.405 5.808 6.223 5.388 7.193 6.355 5.65 6.123 6.027 6.019 5.122 4.88 4.909 4.868 4.756 4.753 4.671 6.441 8.018 5.898 5.411 4.803 4.858 4.766 4.846 5.641 5.323 5.723 5.731 5.703 5.823 6.061 5.463 5.573 5.051 4.123 4.088 4.078 4.141 6.993 6.598 6.198 7.518 5.416 7.623 7.738 8.238 5.236 5.211 5.218 5.253 5.273 5.773 6.023 5.471 4.891 4.896 4.963 4.926 4.933 4.871 4.943 5.058 5.071 5.091 5.096 5.058 5.063 5.033 5.011 4.986 4.993 5.001 4.983 4.983 4.998 5.031 5.036 4.998 4.998 5.008 5.053 5.046 5.018 5.096 5.108 5.056 5.108 5.118 5.083 5.146 5.098
8.949 8.984 8.966 8.951 8.969 8.976 8.974 8.968 8.955 8.971 8.959 8.94 8.927 8.936 8.947 8.935 8.945 8.951 8.97 8.964 8.977 8.991 8.994 8.991 9.014 9.019 9.041 9.061 9.059 9.034 9.044 9.069 9.081 9.104 9.129 9.171 9.216 9.231 9.276 9.301 9.314 9.296 9.286 9.239 9.206 9.329 9.329 9.389 9.416 9.429 9.501 9.498 9.509 9.503 9.503 9.509 9.484 9.514 9.529 9.541 9.551 9.541 9.509 9.498 9.474 9.514 9.493 9.534 9.521 9.509 9.536 9.556 9.591 9.614 9.631 9.634 9.668 9.686 9.708 9.751 9.756 9.761 9.766 9.781 9.771 9.743 9.736 9.753 9.731 9.714 9.726 9.711 9.714 9.686 9.731 9.743 9.726 9.741 9.763 9.776 9.793 9.808 9.811 9.816 9.831 9.831 9.851 9.856 9.878 9.893 9.898 9.891 9.876 9.931 9.938 9.936 9.928 9.933 9.906 9.946 9.933 9.918 9.923 9.943 9.963 9.948 9.936 9.948 9.936 9.941 9.971 9.981 10.001 10.001 10.011 10.026 10.048 10.096 10.103 10.138 10.196 10.148 10.196 10.248 10.228 10.013 11.968 10.321 10.618 10.333 10.271 10.341 10.061 10.028 9.963 9.948 9.968 9.938 9.911 9.901 9.891 9.873 9.851 9.863 9.846 9.828 9.753 9.711 9.776 9.758 9.741 9.728 9.711 9.696 9.688 9.668 9.656 9.623 9.593 9.568 9.526 9.516 9.428 9.411 9.381 9.393 9.346 9.283 9.218 9.173 9.141 9.108 9.078 9.008 8.913 8.813 8.726 8.658 8.608 8.513 8.436 8.318 8.206 8.133 8.071 8.013 7.926 7.778 7.713 7.698 7.548 7.013 6.681 5.881 5.523 6.958 6.763 6.496 6.513 6.866 8.058 6.733 6.538 6.743 6.343 6.398 6.116 6.106 6.026 7.171 8.148 8.248 7.411 6.683 5.581 6.393 4.983 7.058 7.426 8.926 9.193 9.403 9.638 7.441 4.303 4.341 4.321 4.271 4.836 4.718 3.893 4.043 5.561 5.846 6.513 6.941 6.651 6.531 6.466 6.621 4.323 4.683 4.358 2.391 2.203 2.206 2.208 2.206 2.448 4.243 4.376 5.448 5.976 6.541 6.541 6.283 5.543 4.043 4.001 3.963 3.973 3.981 3.988 4.001 4.006 4.003 4.066 4.108 3.943 3.881 4.052 4.098 4.087 3.994 3.82 3.669 3.626 3.622 3.582 3.461 3.407 3.413 3.43 3.398 3.436 3.431 3.47 3.498 3.513 3.509 3.498 3.495 3.476 3.585 3.536 3.663 3.579 3.508 3.559 3.618 3.621 3.65 3.703 3.843 3.838 3.773 3.771 3.793 3.786 3.801 3.841 4.001 4.031 3.993 3.873 3.836 3.933 4.033 4.151 4.208 4.238 4.341 4.411 4.473 4.446 4.358 4.283 4.306 4.281 4.348 4.403 4.368 4.336 4.356 4.368 4.418 4.451 4.486 4.506 4.553 4.591 4.571 4.571 4.571 4.548 4.588 4.598 4.628 4.621 4.648 4.648 4.646 4.653 4.646 4.678 4.736 4.778 4.788 4.791 4.803 4.818 4.803 4.791 4.821 4.823 4.851 4.891 4.966 6.653 7.408 6.378 6.458 6.801 7.283 7.026 8.718 6.563 5.693 6.778 7.673 6.276 6.003 6.016 5.868 5.778 5.208 4.926 4.881 4.843 4.733 4.668 6.416 6.653 5.808 4.823 5.438 4.721 4.746 4.838 4.838 5.141 5.386 5.413 5.693 5.793 5.871 6.058 6.141 5.866 5.398 4.998 4.121 4.086 4.106 4.146 4.716 6.128 8.231 6.843 8.241 7.853 6.991 10.266 5.266 5.173 5.201 5.226 5.248 5.456 6.246 6.033 4.991 4.921 4.881 4.831 4.893 5.028 5.068 5.123 5.121 5.123 5.138 5.101 5.053 5.051 5.051 5.091 5.063 5.003 5.038 5.091 5.043 5.046 5.013 5.041 5.061 5.088 5.078 5.096 5.148 5.121 5.128 5.101 5.083 5.151 5.101
8.934 8.969 8.961 8.951 8.961 8.949 8.956 8.953 8.949 8.934 8.936 8.922 8.911 8.915 8.918 8.94 8.936 8.92 8.964 8.977 8.953 8.976 8.989 8.991 8.976 8.994 8.999 9.041 9.084 9.071 9.004 9.066 9.099 9.166 9.194 9.209 9.236 9.286 9.274 9.256 9.279 9.249 9.221 9.316 9.264 9.341 9.384 9.406 9.439 9.486 9.481 9.461 9.461 9.453 9.486 9.498 9.458 9.491 9.486 9.479 9.524 9.501 9.496 9.479 9.431 9.464 9.461 9.471 9.486 9.506 9.524 9.506 9.538 9.576 9.606 9.628 9.654 9.663 9.703 9.694 9.736 9.753 9.736 9.764 9.766 9.751 9.729 9.733 9.729 9.706 9.699 9.711 9.714 9.724 9.691 9.724 9.731 9.746 9.728 9.753 9.766 9.776 9.791 9.801 9.811 9.838 9.841 9.861 9.856 9.873 9.893 9.886 9.883 9.878 9.926 9.906 9.916 9.916 9.916 9.891 9.921 9.921 9.916 9.901 9.933 9.938 9.928 9.928 9.936 9.941 9.946 9.961 9.976 9.996 9.993 10.028 10.018 10.061 10.103 10.121 10.156 10.141 10.156 10.208 10.238 10.026 12.061 10.808 10.296 10.266 10.238 10.293 10.051 10.021 10.008 9.971 9.946 9.928 9.916 9.911 9.896 9.861 9.843 9.838 9.823 9.821 9.798 9.788 9.753 9.758 9.746 9.728 9.713 9.691 9.676 9.653 9.643 9.631 9.573 9.548 9.521 9.511 9.468 9.401 9.388 9.316 9.328 9.266 9.226 9.141 9.088 9.046 9.001 8.933 8.866 8.813 8.726 8.646 8.561 8.496 8.413 8.303 8.183 8.113 8.063 8.006 7.853 7.751 7.696 7.696 7.513 7.181 6.773 6.248 5.993 9.196 6.393 7.591 6.673 6.413 6.106 6.373 6.196 6.186 6.178 6.163 6.151 6.068 5.991 5.973 5.938 5.821 5.958 6.246 5.611 5.796 5.091 5.063 4.776 4.721 7.048 7.178 7.181 4.313 4.361 4.331 4.291 4.816 4.501 3.996 3.968 5.651 5.803 6.098 7.233 6.833 6.653 6.606 6.288 6.008 3.891 6.648 4.713 2.266 2.213 2.208 2.211 2.208 2.406 4.293 4.548 5.441 6.248 5.976 6.173 5.678 4.236 4.063 4.038 3.988 3.988 3.986 4.001 3.991 3.963 3.996 4.071 4.111 3.858 3.896 4.066 4.099 4.044 3.89 3.717 3.64 3.653 3.674 3.7 3.654 3.599 3.458 3.419 3.421 3.412 3.564 3.633 3.553 3.51 3.52 3.479 3.468 3.461 3.493 3.518 3.568 3.576 3.566 3.546 3.6 3.633 3.605 3.648 3.776 3.818 3.776 3.781 3.783 3.798 3.823 3.821 3.941 3.941 3.906 3.831 3.823 3.893 4.033 4.078 4.176 4.231 4.338 4.411 4.438 4.408 4.358 4.296 4.256 4.328 4.366 4.438 4.413 4.353 4.341 4.358 4.411 4.461 4.488 4.523 4.573 4.553 4.538 4.546 4.538 4.551 4.581 4.576 4.613 4.623 4.628 4.646 4.646 4.646 4.701 4.696 4.753 4.731 4.743 4.733 4.758 4.788 4.796 4.836 4.826 4.806 4.813 4.853 4.838 5.766 6.623 7.586 6.426 6.433 6.381 6.183 7.341 7.913 6.901 5.746 6.643 5.828 5.598 5.588 7.838 5.686 5.656 5.543 4.863 4.826 4.788 4.653 5.283 7.003 6.353 7.911 7.318 7.331 5.178 5.331 5.118 5.016 5.161 5.048 5.266 5.708 5.733 5.976 6.026 6.036 6.003 6.096 5.771 5.291 4.656 4.086 4.096 4.108 5.238 7.273 7.703 7.836 9.153 9.086 8.506 7.113 5.273 5.138 5.158 5.173 5.213 5.268 5.973 6.141 5.211 4.911 4.743 4.951 5.008 5.143 5.068 5.096 5.121 5.121 5.113 5.101 5.111 5.068 5.088 5.093 5.068 5.091 5.038 5.071 5.041 5.036 5.103 5.106 5.111 5.106 5.128 5.106 5.123 5.086 5.118 5.078 5.086
8.916 8.936 8.931 8.909 8.949 8.931 8.936 8.96 8.954 8.932 8.917 8.923 8.917 8.918 8.91 8.911 8.916 8.914 8.895 8.921 8.952 8.956 8.991 9.006 8.996 8.979 8.981 9.006 9.046 9.066 9.046 9.081 9.116 9.184 9.219 9.256 9.269 9.276 9.244 9.254 9.224 9.144 9.379 9.271 9.354 9.366 9.406 9.444 9.464 9.484 9.458 9.426 9.434 9.426 9.439 9.456 9.439 9.458 9.418 9.446 9.451 9.454 9.458 9.474 9.469 9.421 9.429 9.458 9.469 9.436 9.498 9.503 9.516 9.531 9.561 9.599 9.594 9.646 9.668 9.659 9.698 9.724 9.731 9.706 9.736 9.726 9.701 9.711 9.711 9.716 9.668 9.686 9.691 9.721 9.711 9.706 9.729 9.738 9.756 9.768 9.758 9.746 9.803 9.798 9.813 9.808 9.853 9.848 9.871 9.851 9.876 9.888 9.868 9.873 9.891 9.906 9.883 9.898 9.893 9.873 9.876 9.906 9.896 9.903 9.901 9.903 9.923 9.896 9.921 9.916 9.941 9.938 9.953 9.978 10.013 10.008 10.021 10.051 10.056 10.096 10.121 10.116 10.116 10.188 10.231 10.053 11.353 11.591 10.536 10.181 10.126 10.083 10.038 10.008 9.996 9.976 9.953 9.933 9.918 9.891 9.896 9.873 9.831 9.823 9.823 9.808 9.796 9.788 9.783 9.743 9.738 9.721 9.706 9.676 9.641 9.626 9.606 9.598 9.551 9.526 9.536 9.476 9.438 9.408 9.363 9.306 9.288 9.266 9.188 9.091 9.021 8.968 8.933 8.873 8.803 8.738 8.686 8.611 8.536 8.428 8.331 8.266 8.161 8.088 8.048 7.956 7.821 7.741 7.656 7.621 7.498 7.321 7.143 6.751 7.276 7.173 6.348 6.161 8.146 6.106 6.448 6.096 6.136 6.108 6.128 6.146 6.113 6.016 5.948 5.918 5.893 5.831 5.958 5.563 5.381 5.148 5.083 5.933 5.201 5.238 5.103 4.471 4.358 4.396 4.353 4.306 4.771 4.791 4.003 3.896 5.161 5.628 5.898 7.011 6.938 6.723 6.633 6.718 5.698 4.428 3.073 6.718 4.538 2.168 2.206 2.211 2.213 2.211 4.066 4.308 4.743 5.501 5.228 5.601 4.803 4.096 4.046 4.053 4.031 4.021 4.033 4.001 3.963 3.953 3.946 3.953 4.018 4.016 3.756 3.951 4.062 4.07 3.938 3.803 3.74 3.66 3.685 3.727 3.722 3.717 3.708 3.671 3.579 3.454 3.544 3.604 3.589 3.544 3.527 3.491 3.523 3.468 3.465 3.45 3.548 3.507 3.508 3.524 3.547 3.631 3.563 3.542 3.733 3.793 3.851 3.766 3.776 3.776 3.811 3.821 3.811 3.806 3.823 3.806 3.798 3.841 3.953 3.986 4.033 4.131 4.228 4.321 4.386 4.431 4.378 4.316 4.241 4.246 4.343 4.401 4.463 4.421 4.373 4.371 4.371 4.433 4.453 4.473 4.521 4.578 4.513 4.508 4.503 4.516 4.558 4.546 4.566 4.588 4.601 4.593 4.663 4.626 4.673 4.678 4.686 4.691 4.713 4.701 4.728 4.731 4.768 4.791 4.823 4.873 4.811 4.801 4.773 4.808 4.773 6.216 6.546 6.398 6.448 6.396 6.333 6.526 7.448 7.876 7.781 7.321 7.553 6.381 7.491 9.433 9.408 7.278 8.253 5.458 4.796 4.821 4.768 8.051 7.578 8.836 5.283 7.616 6.993 6.096 5.593 5.206 4.841 4.856 4.836 4.838 5.286 5.176 6.113 5.926 5.891 5.783 6.021 5.968 5.961 5.931 5.998 5.011 4.191 4.093 6.526 6.616 6.471 7.913 5.848 6.436 5.828 5.631 6.473 5.273 5.126 5.133 5.151 5.178 5.216 5.506 6.226 6.216 5.191 4.913 4.981 5.046 5.121 5.103 5.088 5.123 5.146 5.076 5.121 5.078 5.141 5.123 5.088 5.093 5.068 5.041 5.083 5.063 5.078 5.108 5.121 5.146 5.101 5.091 5.083 5.051 5.098 5.046
8.891 8.909 8.911 8.931 8.906 8.909 8.926 8.925 8.939 8.924 8.918 8.92 8.91 8.915 8.9 8.906 8.909 8.898 8.92 8.918 8.928 8.936 8.966 8.994 8.991 9.004 9.046 9.039 9.071 9.049 9.094 9.106 9.161 9.234 9.251 9.231 9.239 9.234 9.226 9.176 9.186 9.241 9.294 9.344 9.349 9.399 9.441 9.444 9.458 9.441 9.436 9.446 9.434 9.413 9.411 9.421 9.406 9.411 9.403 9.418 9.446 9.446 9.453 9.448 9.456 9.456 9.444 9.456 9.451 9.464 9.461 9.483 9.511 9.521 9.561 9.559 9.571 9.579 9.621 9.644 9.626 9.679 9.708 9.703 9.689 9.708 9.703 9.679 9.686 9.706 9.726 9.659 9.661 9.684 9.711 9.698 9.729 9.743 9.726 9.758 9.776 9.786 9.766 9.806 9.806 9.821 9.801 9.823 9.843 9.866 9.846 9.881 9.886 9.868 9.866 9.883 9.903 9.868 9.883 9.878 9.868 9.866 9.883 9.866 9.883 9.888 9.906 9.921 9.891 9.898 9.908 9.936 9.951 9.953 9.993 10.003 10.003 10.041 10.071 10.068 10.108 10.086 10.106 10.161 10.216 10.103 10.723 11.811 10.338 10.198 10.128 10.061 10.026 10.001 9.991 9.958 9.948 9.923 9.918 9.883 9.866 9.843 9.828 9.808 9.811 9.798 9.778 9.761 9.751 9.733 9.723 9.708 9.701 9.681 9.663 9.638 9.608 9.576 9.543 9.526 9.506 9.481 9.468 9.408 9.383 9.303 9.238 9.208 9.141 9.073 9.013 8.953 8.901 8.836 8.776 8.701 8.646 8.611 8.483 8.388 8.268 8.223 8.141 8.058 7.983 7.916 7.811 7.721 7.633 7.616 7.518 7.391 7.298 7.103 7.558 9.636 6.408 6.113 12.691 12.621 12.568 12.496 12.428 12.346 6.191 6.153 6.076 5.978 5.893 5.836 5.808 5.748 5.746 5.173 5.186 5.196 5.146 5.758 5.283 5.488 5.778 4.633 4.403 4.368 4.323 4.793 4.846 4.146 3.923 4.818 5.471 5.813 6.736 6.923 6.623 6.608 6.646 6.513 5.638 4.453 5.853 6.293 4.198 2.231 2.213 2.206 2.211 2.196 4.223 4.353 4.918 5.813 5.353 4.411 4.093 4.068 4.078 4.048 4.018 4.038 4.058 4.016 3.983 3.981 3.966 3.931 3.968 3.858 3.706 3.998 4.049 4.022 3.899 3.804 3.784 3.724 3.735 3.737 3.745 3.741 3.687 3.628 3.521 3.498 3.578 3.608 3.588 3.583 3.534 3.504 3.541 3.448 3.409 3.426 3.432 3.478 3.425 3.493 3.504 3.545 3.521 3.534 3.773 3.808 3.891 3.768 3.773 3.773 3.783 3.793 3.791 3.806 3.801 3.818 3.843 3.838 3.926 4.003 4.033 4.126 4.216 4.318 4.373 4.426 4.351 4.283 4.228 4.258 4.321 4.426 4.458 4.448 4.403 4.363 4.348 4.381 4.476 4.478 4.503 4.533 4.513 4.493 4.501 4.523 4.548 4.553 4.548 4.581 4.591 4.588 4.618 4.626 4.621 4.636 4.706 4.671 4.678 4.688 4.688 4.741 4.768 4.796 4.823 4.821 4.833 4.791 4.751 4.758 4.753 6.191 5.938 6.026 6.406 6.443 6.381 6.641 7.526 8.256 9.723 8.168 7.676 6.811 7.673 11.083 7.561 8.966 6.311 6.386 5.758 4.771 4.998 6.831 7.463 7.153 8.236 7.403 4.808 5.466 5.928 5.316 4.833 4.908 4.906 4.716 5.186 5.821 5.301 5.793 5.703 6.258 6.103 5.991 5.841 6.148 6.281 6.158 5.773 5.681 4.431 4.098 4.108 4.413 4.421 4.388 4.581 5.608 6.056 5.013 6.518 5.361 5.153 5.101 5.126 5.171 5.196 5.273 6.226 5.766 4.951 4.896 5.108 5.128 5.113 5.148 5.098 5.123 5.103 5.103 5.091 5.106 5.098 5.098 5.091 5.083 5.086 5.073 5.088 5.106 5.143 5.141 5.083 5.023 5.111 5.048 5.013 5.086
8.949 8.894 8.919 8.914 8.904 8.926 8.869 8.904 8.899 8.911 8.913 8.893 8.904 8.897 8.885 8.896 8.907 8.907 8.907 8.898 8.933 8.941 8.941 8.976 8.981 8.986 9.001 9.034 9.019 9.106 9.146 9.194 9.219 9.256 9.229 9.226 9.236 9.209 9.141 9.331 9.236 9.321 9.316 9.339 9.421 9.426 9.411 9.441 9.434 9.439 9.444 9.394 9.411 9.396 9.378 9.381 9.371 9.389 9.368 9.368 9.384 9.413 9.429 9.441 9.416 9.431 9.426 9.434 9.471 9.444 9.456 9.466 9.484 9.496 9.524 9.554 9.556 9.601 9.594 9.618 9.634 9.653 9.661 9.666 9.679 9.674 9.701 9.676 9.656 9.656 9.691 9.706 9.674 9.679 9.679 9.681 9.696 9.731 9.736 9.728 9.751 9.773 9.783 9.788 9.806 9.798 9.806 9.788 9.793 9.826 9.841 9.828 9.858 9.876 9.833 9.861 9.868 9.891 9.853 9.858 9.866 9.858 9.871 9.853 9.856 9.863 9.883 9.891 9.913 9.876 9.893 9.903 9.908 9.956 9.978 9.991 10.011 10.028 10.081 10.078 10.096 10.066 10.091 10.168 10.176 10.146 10.193 11.668 10.298 10.211 10.141 10.078 10.028 9.986 9.973 9.951 9.923 9.906 9.903 9.858 9.838 9.821 9.811 9.801 9.798 9.786 9.778 9.756 9.746 9.726 9.721 9.711 9.683 9.671 9.648 9.606 9.573 9.543 9.523 9.486 9.468 9.441 9.398 9.401 9.326 9.258 9.193 9.126 9.071 9.021 8.971 8.936 8.886 8.828 8.768 8.691 8.603 8.558 8.458 8.348 8.256 8.186 8.121 8.038 7.958 7.906 7.808 7.728 7.608 7.563 7.451 7.423 7.321 7.253 7.743 8.876 6.566 6.131 13.908 13.998 13.996 13.956 14.056 14.018 6.203 6.111 6.031 5.921 5.821 5.743 5.761 5.676 6.631 4.978 5.081 5.198 5.236 5.176 5.391 5.808 4.468 4.406 4.376 4.328 4.836 4.916 4.246 4.133 4.828 5.611 5.876 6.518 6.276 6.266 6.428 6.621 6.618 6.756 5.891 4.493 5.633 6.333 2.183 2.246 2.221 2.203 2.391 3.556 4.301 4.406 5.096 6.271 6.253 4.366 4.091 4.046 4.073 4.061 3.991 4.058 4.111 4.051 3.996 3.993 3.963 3.936 3.891 3.738 3.721 3.983 4.016 3.989 3.828 3.776 3.752 3.762 3.808 3.781 3.748 3.749 3.65 3.535 3.483 3.508 3.558 3.565 3.587 3.598 3.573 3.503 3.44 3.457 3.427 3.41 3.436 3.329 3.362 3.49 3.547 3.553 3.579 3.611 3.726 3.776 3.828 3.773 3.781 3.788 3.771 3.771 3.781 3.793 3.831 3.883 3.906 3.841 3.943 3.981 4.043 4.138 4.233 4.301 4.376 4.371 4.336 4.231 4.236 4.251 4.318 4.433 4.436 4.406 4.376 4.351 4.336 4.378 4.461 4.481 4.478 4.473 4.486 4.466 4.483 4.513 4.533 4.543 4.551 4.576 4.596 4.568 4.571 4.596 4.621 4.636 4.631 4.676 4.681 4.673 4.703 4.698 4.763 4.796 4.803 4.821 4.781 4.766 4.708 4.686 4.693 4.853 6.316 5.608 6.216 6.396 6.431 6.381 7.591 8.281 9.843 8.056 7.666 7.793 6.993 9.161 7.321 9.126 10.378 8.976 5.923 5.653 4.683 5.041 4.726 4.641 6.406 4.748 5.968 5.768 6.018 5.496 5.003 4.858 4.753 4.688 5.411 5.841 5.618 5.203 5.541 5.636 5.661 5.708 5.758 6.096 5.926 6.488 6.238 6.248 5.711 5.208 4.108 4.108 4.111 4.288 4.443 4.366 4.443 4.526 4.513 4.936 5.773 5.741 5.223 5.093 5.118 5.148 5.201 5.246 5.701 6.131 5.218 5.116 5.103 5.128 5.113 5.116 5.093 5.108 5.106 5.078 5.076 5.068 5.088 5.081 5.088 5.141 5.091 5.081 5.103 5.098 5.076 5.053 5.056 5.028 4.971 5.091
8.949 8.904 8.889 8.884 8.901 8.884 8.889 8.895 8.887 8.899 8.899 8.906 8.873 8.888 8.869 8.885 8.886 8.865 8.884 8.885 8.877 8.891 8.949 8.966 8.996 8.999 8.996 9.016 9.044 9.139 9.214 9.239 9.246 9.239 9.229 9.231 9.191 9.109 9.294 9.244 9.311 9.324 9.356 9.391 9.419 9.404 9.401 9.431 9.411 9.411 9.421 9.401 9.384 9.331 9.323 9.336 9.333 9.354 9.373 9.339 9.309 9.331 9.361 9.406 9.399 9.421 9.416 9.406 9.413 9.446 9.448 9.466 9.474 9.481 9.498 9.498 9.536 9.551 9.601 9.601 9.611 9.631 9.649 9.659 9.651 9.654 9.679 9.676 9.666 9.679 9.661 9.681 9.689 9.684 9.691 9.689 9.676 9.688 9.731 9.758 9.731 9.766 9.768 9.798 9.791 9.808 9.803 9.801 9.808 9.791 9.788 9.826 9.823 9.838 9.866 9.831 9.836 9.876 9.883 9.831 9.856 9.853 9.846 9.863 9.841 9.843 9.861 9.871 9.888 9.901 9.871 9.891 9.911 9.928 9.961 10.011 9.998 10.043 10.041 10.088 10.083 10.086 10.078 10.176 10.161 10.173 10.048 11.753 10.256 10.218 10.123 10.078 10.021 9.978 9.958 9.933 9.913 9.883 9.878 9.863 9.838 9.823 9.811 9.803 9.793 9.778 9.753 9.723 9.723 9.723 9.716 9.678 9.673 9.646 9.613 9.583 9.566 9.526 9.506 9.466 9.441 9.406 9.373 9.323 9.298 9.248 9.171 9.108 9.063 9.013 8.966 8.921 8.851 8.808 8.751 8.668 8.608 8.508 8.428 8.336 8.241 8.168 8.133 8.073 7.993 7.913 7.816 7.711 7.618 7.541 7.458 7.366 7.336 7.231 9.096 7.766 7.076 6.093 12.228 12.293 12.323 12.626 12.463 12.473 6.206 8.618 7.543 8.133 5.801 5.673 5.653 5.593 6.163 4.883 5.063 5.988 7.163 5.213 5.436 4.431 4.423 4.391 4.343 4.936 4.978 4.183 4.046 4.531 5.611 5.748 5.943 5.978 6.053 6.106 6.221 6.586 6.611 6.628 6.103 4.453 2.813 4.341 2.183 2.701 2.196 2.226 2.201 3.828 4.221 4.478 5.351 5.386 4.913 4.198 4.091 4.028 4.003 3.998 3.986 4.021 4.096 4.073 4.028 3.988 3.926 3.856 3.801 3.641 3.713 3.838 3.873 3.865 3.775 3.752 3.763 3.76 3.762 3.741 3.776 3.744 3.676 3.49 3.478 3.514 3.61 3.593 3.599 3.602 3.559 3.475 3.413 3.398 3.36 3.42 3.4 3.365 3.448 3.4 3.448 3.55 3.544 3.756 3.753 3.798 3.816 3.766 3.788 3.771 3.781 3.768 3.768 3.773 3.831 3.903 3.891 3.916 3.913 3.951 4.063 4.158 4.273 4.348 4.373 4.346 4.316 4.261 4.256 4.278 4.333 4.411 4.433 4.386 4.351 4.313 4.321 4.393 4.458 4.463 4.478 4.461 4.463 4.458 4.483 4.501 4.506 4.541 4.591 4.568 4.563 4.568 4.588 4.588 4.593 4.646 4.661 4.658 4.658 4.658 4.668 4.686 4.746 4.791 4.778 4.736 4.718 4.721 4.673 4.628 4.638 4.661 5.891 5.771 5.866 6.348 6.428 6.413 6.346 8.848 7.483 8.733 7.621 6.358 7.873 6.318 8.181 8.491 8.246 7.583 5.398 5.636 6.001 4.648 4.636 4.648 4.626 4.826 5.611 5.446 6.181 8.073 5.793 5.716 4.738 4.623 5.288 5.796 5.148 5.323 4.916 4.673 5.198 5.181 5.408 5.901 6.161 6.083 5.898 6.108 6.208 6.066 6.003 5.363 4.741 4.166 4.106 4.133 4.433 4.218 4.486 4.728 7.251 5.801 6.451 6.851 6.986 5.121 5.103 5.141 5.173 5.196 5.266 6.156 5.276 5.276 5.136 5.168 5.123 5.131 5.141 5.118 5.078 5.058 5.046 5.063 5.038 5.078 5.078 5.113 5.038 5.051 5.106 5.068 5.078 5.073 5.056 5.061
