ncols 399
nrows 32
xllcorner    248104
yllcorner    138286
cellsize     2
NODATA_value -9999
97.707 97.502 97.297 97.099 96.917 96.739 96.584 96.407 96.227 96.064 95.902 95.739 95.612 95.457 95.352 95.249 95.122 95.042 94.949 94.874 94.789 94.709 94.642 94.567 94.492 94.399 94.289 94.172 94.057 93.969 93.899 93.837 93.744 93.649 93.562 93.434 93.304 93.172 93.072 92.922 92.837 92.739 92.654 92.564 92.472 92.367 92.294 92.207 92.124 92.002 91.944 91.879 91.802 91.772 91.702 91.629 91.612 91.579 91.554 91.514 91.509 91.499 91.512 91.492 91.512 91.499 91.547 91.577 91.629 91.672 91.709 91.697 91.692 91.694 91.704 91.684 91.669 91.682 91.722 91.684 91.604 91.599 91.609 91.664 91.709 91.729 91.754 91.752 91.749 91.757 91.742 91.709 91.707 91.697 91.704 91.724 91.712 91.704 91.719 91.754 91.734 91.747 91.754 91.769 91.782 92.152 92.894 93.519 93.544 93.794 93.367 92.582 92.517 92.612 92.762 92.957 93.072 93.217 93.309 93.432 93.552 93.597 93.694 93.784 93.852 93.922 94.002 94.067 94.112 94.197 94.272 94.319 94.392 94.434 94.477 94.534 94.602 94.647 94.669 94.739 94.757 94.809 94.857 94.887 94.919 94.932 94.944 94.952 94.896 94.854 94.831 94.786 94.719 94.681 94.601 94.536 94.484 94.394 94.301 94.229 94.129 94.036 93.951 93.854 93.739 93.639 93.531 93.391 93.294 93.159 93.024 92.906 92.769 92.661 92.494 92.356 92.234 92.106 91.921 91.764 91.599 91.426 91.266 91.074 90.874 90.711 90.486 90.251 90.046 89.796 89.561 89.361 89.111 88.886 88.669 88.419 88.211 88.061 87.841 87.594 87.291 87.214 87.274 85.566 85.036 84.781 84.439 84.059 83.691 83.354 82.999 82.609 82.231 81.836 81.414 80.984 80.569 80.126 79.651 79.214 78.736 78.236 77.719 77.166 76.531 75.884 75.206 74.496 73.769 73.051 72.336 71.619 70.916 70.184 69.469 68.736 68.071 67.459 66.879 66.349 65.629 64.929 64.309 63.809 63.319 62.841 62.339 61.821 61.353 60.858 60.378 59.918 59.431 58.911 58.413 57.883 57.358 56.866 56.373 55.811 55.128 54.443 53.851 53.351 52.666 51.936 51.271 50.763 50.273 49.876 49.596 49.388 49.118 48.813 48.551 48.258 47.871 47.446 47.078 46.891 46.893 47.188 47.648 48.136 48.516 48.866 49.258 49.601 49.863 50.693 51.618 51.193 51.438 51.648 51.813 52.131 52.491 52.852 53.202 53.563 53.92 54.27 54.673 55.099 55.503 55.92 56.381 56.817 57.273 57.742 58.197 58.656 59.071 59.518 59.928 60.383 60.866 61.333 61.843 62.361 62.866 63.376 63.921 64.501 65.101 65.723 66.336 66.968 67.581 68.183 68.833 69.493 70.156 70.851 71.576 72.288 73.008 73.776 74.541 75.316 76.128 76.938 77.773 78.583 79.341 80.126 80.963 81.771 82.588 83.391 84.181 84.983 85.751 86.506 87.078 87.468 88.258 89.126 89.818 90.496 91.356 92.341 92.901 92.628 92.701 93.003 93.288 93.526 93.901 94.166 94.468 94.766 95.023 95.218 95.343 95.463 95.568 95.646 95.718 95.728 95.731 95.723 95.676 95.548 95.468 95.318 95.141 94.956 94.746 94.513 94.261 93.971 93.693 93.411 93.118 92.793 92.481 92.128 91.763
98.142 97.922 97.722 97.549 97.364 97.212 97.032 96.817 96.639 96.467 96.332 96.149 96.009 95.874 95.737 95.649 95.547 95.427 95.342 95.244 95.157 95.087 95.014 94.949 94.852 94.744 94.614 94.502 94.397 94.322 94.247 94.182 94.107 94.032 93.924 93.817 93.687 93.562 93.452 93.347 93.249 93.157 93.067 93.002 92.894 92.812 92.759 92.654 92.539 92.417 92.364 92.264 92.184 92.127 92.072 91.979 91.972 91.947 91.914 91.894 91.902 91.869 91.872 91.904 91.904 91.909 91.894 91.957 91.987 92.027 92.044 92.037 92.034 92.022 92.032 92.034 92.042 92.074 92.069 92.002 91.909 91.902 91.919 91.934 91.924 91.979 92.002 92.002 91.962 91.932 91.927 91.902 91.897 91.864 91.844 91.859 91.857 91.837 91.844 91.834 91.839 91.957 92.359 92.749 93.402 93.687 93.479 93.147 92.712 92.499 92.592 92.699 92.837 92.984 93.054 93.167 93.282 93.452 93.487 93.624 93.689 93.789 93.844 93.919 93.992 94.089 94.139 94.204 94.269 94.367 94.434 94.462 94.544 94.622 94.664 94.707 94.759 94.819 94.872 94.924 94.954 94.997 95.042 95.089 95.124 95.142 95.174 95.159 95.141 95.101 95.061 95.024 94.976 94.891 94.851 94.784 94.706 94.659 94.556 94.469 94.359 94.276 94.171 94.084 93.974 93.886 93.769 93.624 93.531 93.404 93.281 93.159 93.006 92.844 92.719 92.574 92.404 92.289 92.131 91.966 91.824 91.656 91.479 91.296 91.096 90.939 90.726 90.514 90.286 90.046 89.799 89.589 89.354 89.101 88.866 88.599 88.379 88.211 88.066 87.809 87.544 87.324 87.674 87.039 85.306 84.981 84.691 84.321 83.949 83.576 83.221 82.856 82.481 82.079 81.699 81.276 80.861 80.426 79.956 79.491 79.006 78.519 77.994 77.426 76.784 76.109 75.429 74.714 73.984 73.269 72.534 71.819 71.089 70.349 69.659 68.941 68.249 67.599 67.024 66.531 65.851 65.109 64.429 63.919 63.416 62.931 62.419 61.919 61.423 60.931 60.528 60.023 59.498 58.988 58.521 58.021 57.541 57.093 56.571 56.038 55.423 54.788 54.363 54.166 52.683 51.811 51.236 50.713 50.281 49.908 49.556 49.321 49.096 48.806 48.498 48.198 47.846 47.378 47.116 46.883 46.793 47.076 47.586 48.033 48.391 48.776 49.151 49.511 49.798 50.356 51.508 51.161 51.358 51.586 51.726 52.046 52.443 52.769 53.116 53.481 53.882 54.253 54.643 55.055 55.467 55.912 56.357 56.805 57.243 57.704 58.164 58.588 59.006 59.448 59.863 60.313 60.768 61.243 61.736 62.258 62.811 63.298 63.798 64.366 64.941 65.548 66.136 66.776 67.428 68.038 68.676 69.333 70.003 70.693 71.346 72.051 72.778 73.528 74.298 75.098 75.843 76.641 77.471 78.231 79.016 79.801 80.628 81.428 82.261 83.091 83.861 84.728 85.518 86.366 86.828 87.248 88.046 88.886 89.523 90.216 91.191 92.241 92.728 92.566 92.606 92.906 93.188 93.456 93.768 94.081 94.386 94.693 94.963 95.173 95.336 95.451 95.561 95.661 95.718 95.743 95.746 95.741 95.688 95.576 95.521 95.388 95.228 95.048 94.831 94.596 94.358 94.088 93.813 93.541 93.233 92.916 92.586 92.236 91.833
98.592 98.392 98.194 98.022 97.832 97.664 97.464 97.274 97.069 96.904 96.742 96.584 96.422 96.264 96.152 96.034 95.902 95.787 95.719 95.614 95.532 95.477 95.379 95.304 95.199 95.097 94.972 94.859 94.769 94.674 94.607 94.534 94.474 94.429 94.319 94.204 94.092 93.954 93.837 93.762 93.674 93.589 93.517 93.434 93.354 93.257 93.157 93.047 92.939 92.847 92.752 92.642 92.567 92.477 92.417 92.377 92.342 92.327 92.289 92.244 92.267 92.252 92.267 92.294 92.274 92.277 92.297 92.309 92.367 92.372 92.387 92.369 92.364 92.349 92.349 92.372 92.414 92.374 92.337 92.244 92.164 92.139 92.167 92.189 92.212 92.212 92.194 92.179 92.132 92.124 92.074 92.019 92.017 91.989 91.999 91.949 91.952 92.067 92.434 92.952 93.032 93.592 93.784 93.392 92.957 92.507 92.532 92.597 92.687 92.777 92.897 93.007 93.127 93.214 93.319 93.399 93.477 93.562 93.664 93.789 93.864 93.919 93.992 94.059 94.107 94.222 94.272 94.354 94.414 94.524 94.579 94.672 94.717 94.757 94.812 94.882 94.912 94.982 95.047 95.087 95.157 95.199 95.219 95.257 95.304 95.339 95.372 95.374 95.364 95.319 95.316 95.239 95.221 95.146 95.114 95.041 94.966 94.894 94.819 94.711 94.631 94.529 94.441 94.321 94.236 94.116 94.016 93.891 93.764 93.654 93.526 93.381 93.254 93.089 92.964 92.791 92.634 92.494 92.341 92.186 92.039 91.856 91.701 91.524 91.346 91.151 90.969 90.744 90.511 90.309 90.051 89.844 89.591 89.369 89.116 88.856 88.589 88.404 88.276 88.049 87.811 87.539 87.386 87.571 86.009 85.184 84.944 84.581 84.221 83.861 83.489 83.134 82.766 82.379 81.971 81.569 81.174 80.746 80.304 79.816 79.339 78.824 78.269 77.689 77.054 76.386 75.696 74.974 74.239 73.489 72.746 72.039 71.271 70.551 69.844 69.139 68.449 67.789 67.179 66.669 66.081 65.319 64.601 64.054 63.556 63.026 62.521 62.011 61.528 61.066 60.818 60.306 59.728 59.468 58.801 58.283 57.786 57.413 56.911 56.423 55.856 55.111 54.196 53.641 52.556 52.031 51.248 50.748 50.316 49.908 49.561 49.248 49.021 48.723 48.443 48.153 47.848 47.401 47.156 46.858 46.738 47.106 47.508 47.933 48.286 48.666 49.088 49.451 49.733 49.978 51.376 51.111 51.316 51.551 51.661 51.988 52.393 52.72 53.024 53.434 53.829 54.242 54.644 55.055 55.48 55.897 56.338 56.773 57.213 57.657 58.126 58.546 58.976 59.413 59.838 60.248 60.688 61.156 61.651 62.153 62.668 63.178 63.703 64.263 64.833 65.406 65.981 66.593 67.251 67.886 68.533 69.166 69.808 70.483 71.183 71.851 72.563 73.296 74.061 74.808 75.591 76.368 77.146 77.923 78.733 79.511 80.308 81.096 81.911 82.736 83.568 84.421 85.241 86.131 86.578 87.066 87.901 88.771 89.478 90.071 91.158 92.108 92.646 92.441 92.513 92.811 93.073 93.391 93.681 94.008 94.331 94.633 94.926 95.176 95.346 95.458 95.586 95.673 95.753 95.791 95.788 95.791 95.756 95.653 95.593 95.473 95.321 95.143 94.941 94.736 94.478 94.211 93.953 93.661 93.358 93.061 92.736 92.391 91.978
99.034 98.872 98.682 98.502 98.302 98.127 97.937 97.732 97.532 97.344 97.149 96.997 96.832 96.662 96.534 96.399 96.274 96.172 96.102 95.972 95.924 95.819 95.747 95.682 95.572 95.437 95.322 95.222 95.122 95.019 94.957 94.894 94.854 94.749 94.694 94.594 94.492 94.362 94.277 94.182 94.102 94.012 93.949 93.864 93.784 93.702 93.602 93.467 93.362 93.249 93.137 93.039 92.942 92.854 92.767 92.737 92.702 92.697 92.679 92.634 92.612 92.619 92.642 92.657 92.644 92.644 92.639 92.682 92.699 92.734 92.719 92.692 92.674 92.654 92.664 92.682 92.699 92.664 92.569 92.427 92.359 92.387 92.407 92.374 92.404 92.422 92.394 92.379 92.342 92.249 92.197 92.164 92.152 92.602 93.017 93.579 93.772 93.789 93.817 93.397 93.007 92.737 92.684 92.544 92.619 92.732 92.819 92.919 92.992 93.069 93.154 93.247 93.347 93.447 93.494 93.552 93.667 93.722 93.849 93.914 94.019 94.059 94.154 94.214 94.294 94.369 94.442 94.517 94.584 94.667 94.739 94.804 94.842 94.924 94.974 95.062 95.092 95.134 95.182 95.244 95.307 95.339 95.414 95.472 95.519 95.539 95.589 95.592 95.584 95.551 95.554 95.514 95.491 95.419 95.391 95.301 95.254 95.169 95.074 94.969 94.891 94.799 94.714 94.606 94.489 94.381 94.271 94.146 94.016 93.899 93.744 93.599 93.479 93.339 93.179 93.044 92.864 92.716 92.564 92.426 92.254 92.111 91.954 91.756 91.594 91.426 91.211 90.991 90.819 90.584 90.349 90.116 89.884 89.624 89.346 89.121 88.844 88.636 88.436 88.286 88.056 87.844 87.554 87.471 87.214 85.364 85.179 84.891 84.536 84.184 83.831 83.454 83.081 82.686 82.306 81.904 81.526 81.099 80.669 80.204 79.709 79.179 78.609 77.991 77.354 76.674 75.944 75.229 74.504 73.736 73.014 72.244 71.529 70.766 70.034 69.359 68.666 68.014 67.386 66.856 66.339 65.589 64.829 64.219 63.659 63.129 62.616 62.151 61.723 61.246 60.856 60.476 59.988 59.501 59.528 59.268 58.478 57.903 57.348 56.356 55.638 55.011 57.188 54.196 52.668 51.938 51.351 50.778 50.328 49.918 49.526 49.198 48.963 48.701 48.426 48.128 47.811 47.471 47.071 46.828 46.726 47.131 47.421 47.831 48.231 48.628 49.021 49.383 49.648 49.881 51.296 51.113 51.283 51.501 51.681 51.918 52.341 52.699 52.986 53.363 53.789 54.206 54.613 55.034 55.46 55.898 56.338 56.778 57.203 57.638 58.085 58.507 58.923 59.373 59.818 60.233 60.633 61.083 61.598 62.066 62.608 63.068 63.593 64.091 64.631 65.211 65.778 66.368 67.026 67.671 68.303 68.968 69.623 70.321 71.003 71.663 72.346 73.068 73.818 74.558 75.301 76.061 76.853 77.638 78.456 79.236 80.063 80.851 81.613 82.426 83.281 84.166 84.983 85.816 86.338 86.806 88.011 88.791 89.331 90.033 91.148 92.163 92.506 92.353 92.426 92.726 92.986 93.306 93.626 94.031 94.313 94.623 94.936 95.193 95.383 95.523 95.623 95.716 95.803 95.846 95.876 95.886 95.821 95.768 95.711 95.593 95.453 95.276 95.081 94.856 94.616 94.361 94.093 93.798 93.503 93.178 92.848 92.516 92.155
99.517 99.354 99.174 98.987 98.807 98.587 98.407 98.184 97.999 97.789 97.587 97.417 97.244 97.102 96.927 96.807 96.654 96.544 96.467 96.382 96.289 96.214 96.119 96.022 95.919 95.809 95.687 95.582 95.479 95.417 95.324 95.277 95.234 95.154 95.087 95.004 94.879 94.762 94.684 94.589 94.489 94.434 94.389 94.279 94.224 94.127 94.009 93.882 93.782 93.664 93.549 93.434 93.337 93.252 93.159 93.112 93.084 93.042 93.032 93.017 93.022 93.042 93.027 93.012 93.017 93.019 93.007 93.029 93.047 93.029 93.004 92.977 92.929 92.969 92.944 92.952 92.909 92.867 92.772 92.599 92.557 92.584 92.604 92.594 92.577 92.527 92.542 92.707 92.594 93.452 93.794 93.752 94.272 94.049 93.632 93.369 93.099 92.764 92.637 92.624 92.662 92.747 92.827 92.902 92.967 93.024 93.124 93.157 93.244 93.324 93.389 93.459 93.489 93.584 93.694 93.752 93.827 93.894 94.017 94.069 94.157 94.212 94.312 94.389 94.494 94.517 94.612 94.667 94.749 94.807 94.922 94.967 95.017 95.087 95.149 95.202 95.254 95.307 95.362 95.427 95.464 95.504 95.564 95.642 95.679 95.734 95.759 95.774 95.799 95.774 95.771 95.756 95.726 95.694 95.644 95.591 95.501 95.416 95.339 95.239 95.151 95.069 94.964 94.854 94.751 94.646 94.534 94.416 94.294 94.144 94.019 93.854 93.736 93.594 93.406 93.269 93.121 92.941 92.824 92.646 92.494 92.344 92.201 92.011 91.834 91.671 91.469 91.259 91.074 90.866 90.654 90.376 90.134 89.881 89.629 89.369 89.099 88.876 88.671 88.474 88.309 88.121 87.911 87.601 87.534 86.364 85.389 85.206 84.884 84.536 84.169 83.806 83.466 83.041 82.676 82.281 81.896 81.491 81.039 80.584 80.081 79.549 78.989 78.359 77.686 76.999 76.284 75.541 74.794 74.024 73.254 72.526 71.749 71.026 70.294 69.606 68.891 68.249 67.634 67.076 66.581 65.881 65.089 64.389 63.826 63.301 63.036 62.664 62.138 61.573 61.226 60.923 60.561 62.398 60.421 62.781 58.108 57.021 56.651 55.881 55.371 56.173 55.658 53.403 52.538 52.008 51.301 50.811 50.311 49.893 49.498 49.163 48.906 48.658 48.418 48.131 47.808 47.513 47.103 46.741 46.561 47.046 47.398 47.823 48.191 48.568 48.963 49.311 49.601 49.833 51.158 51.068 51.223 51.436 51.633 51.861 52.296 52.652 53.001 53.371 53.768 54.166 54.589 55.018 55.457 55.899 56.348 56.779 57.216 57.636 58.05 58.478 58.908 59.343 59.778 60.203 60.618 61.048 61.536 62.016 62.523 63.013 63.503 64.001 64.531 65.063 65.628 66.218 66.858 67.458 68.113 68.753 69.406 70.081 70.768 71.468 72.141 72.858 73.578 74.313 75.041 75.821 76.613 77.393 78.208 79.008 79.808 80.578 81.363 82.206 83.028 83.888 84.718 85.593 86.101 86.613 87.976 88.583 89.241 90.043 91.136 92.091 92.448 92.268 92.331 92.631 92.913 93.241 93.576 93.958 94.323 94.646 94.963 95.228 95.441 95.611 95.693 95.791 95.898 95.963 95.971 95.961 95.903 95.873 95.823 95.733 95.593 95.433 95.241 95.023 94.778 94.523 94.233 93.968 93.671 93.358 93.023 92.711 92.345
100.004 99.817 99.644 99.472 99.274 99.084 98.869 98.647 98.412 98.229 98.007 97.852 97.649 97.482 97.344 97.189 97.052 96.952 96.844 96.754 96.672 96.569 96.509 96.397 96.277 96.164 96.044 95.932 95.852 95.749 95.684 95.649 95.587 95.527 95.444 95.367 95.262 95.157 95.074 95.009 94.919 94.832 94.774 94.702 94.617 94.537 94.439 94.314 94.192 94.069 93.962 93.819 93.709 93.617 93.554 93.497 93.447 93.469 93.417 93.432 93.419 93.399 93.417 93.402 93.397 93.382 93.362 93.359 93.347 93.292 93.267 93.242 93.184 93.177 93.157 93.102 93.087 93.059 92.964 92.854 92.792 93.097 93.469 93.327 93.489 93.829 93.917 94.209 94.487 94.327 94.057 93.669 93.409 92.954 92.842 92.859 92.884 92.924 92.927 92.974 93.022 93.077 93.122 93.152 93.254 93.317 93.354 93.389 93.429 93.514 93.569 93.624 93.727 93.779 93.844 93.939 94.007 94.109 94.164 94.257 94.317 94.382 94.472 94.547 94.609 94.694 94.797 94.847 94.919 94.987 95.089 95.117 95.194 95.259 95.294 95.354 95.412 95.482 95.547 95.559 95.632 95.692 95.742 95.802 95.882 95.934 95.954 95.972 96.004 96.001 95.989 95.989 95.954 95.949 95.901 95.814 95.766 95.674 95.586 95.496 95.451 95.346 95.221 95.119 95.011 94.909 94.794 94.699 94.559 94.421 94.294 94.144 93.994 93.864 93.689 93.526 93.349 93.221 93.076 92.896 92.741 92.584 92.451 92.276 92.076 91.929 91.734 91.534 91.336 91.139 90.901 90.679 90.436 90.171 89.914 89.659 89.431 89.176 88.936 88.691 88.556 88.406 88.219 87.899 87.894 87.686 85.751 85.506 85.246 84.934 84.541 84.186 83.829 83.446 83.084 82.704 82.339 81.899 81.454 80.996 80.501 79.969 79.379 78.744 78.069 77.361 76.636 75.886 75.119 74.364 73.549 72.779 72.026 71.289 70.584 69.866 69.176 68.514 67.884 67.291 66.836 66.194 65.379 64.614 64.009 63.594 63.114 63.564 64.416 62.758 62.003 64.166 60.308 59.503 61.431 65.563 59.506 57.163 57.621 55.711 55.108 54.331 53.733 53.403 55.166 52.071 51.411 50.831 50.343 49.916 49.513 49.123 48.833 48.611 48.388 48.106 47.793 47.531 47.171 46.803 46.513 46.911 47.323 47.753 48.143 48.513 48.923 49.258 49.528 49.648 50.893 50.968 51.156 51.346 51.561 51.748 52.233 52.589 52.968 53.351 53.758 54.149 54.553 55.004 55.441 55.894 56.373 56.811 57.202 57.626 58.032 58.444 58.853 59.301 59.723 60.148 60.611 61.056 61.493 61.971 62.461 62.951 63.408 63.891 64.386 64.928 65.491 66.043 66.683 67.313 67.953 68.588 69.246 69.911 70.588 71.278 71.978 72.658 73.388 74.133 74.878 75.618 76.406 77.198 77.996 78.771 79.566 80.363 81.173 81.961 82.766 83.608 84.478 85.351 85.831 86.343 87.838 88.391 89.118 90.021 90.978 92.083 92.448 92.223 92.298 92.588 92.873 93.211 93.956 93.941 94.326 94.668 95.021 95.293 95.521 95.693 95.821 95.943 96.031 96.088 96.126 96.091 96.036 96.013 95.961 95.863 95.741 95.576 95.383 95.176 94.956 94.713 94.426 94.153 93.843 93.536 93.208 92.901 92.54
100.504 100.304 100.149 99.934 99.749 99.529 99.319 99.094 98.892 98.672 98.442 98.277 98.059 97.919 97.737 97.572 97.447 97.332 97.229 97.147 97.049 96.974 96.859 96.737 96.634 96.512 96.412 96.279 96.199 96.104 96.049 95.979 95.919 95.902 95.832 95.737 95.649 95.547 95.459 95.379 95.319 95.252 95.179 95.107 95.002 94.904 94.819 94.687 94.564 94.474 94.342 94.199 94.117 94.007 93.952 93.892 93.842 93.844 93.787 93.794 93.794 93.784 93.772 93.729 93.712 93.682 93.682 93.644 93.589 93.557 93.474 93.432 93.394 93.397 93.344 93.299 93.559 93.652 94.282 94.267 94.744 94.914 94.607 94.582 94.449 94.339 94.049 93.894 93.619 93.259 93.202 93.144 93.152 93.179 93.197 93.242 93.249 93.279 93.282 93.307 93.312 93.347 93.409 93.477 93.479 93.519 93.542 93.589 93.632 93.714 93.782 93.857 93.892 93.952 94.057 94.104 94.197 94.269 94.382 94.429 94.474 94.569 94.659 94.724 94.784 94.892 94.947 95.004 95.079 95.152 95.222 95.269 95.362 95.412 95.472 95.514 95.592 95.654 95.712 95.744 95.799 95.857 95.907 95.967 96.047 96.074 96.137 96.167 96.186 96.199 96.206 96.201 96.199 96.181 96.116 96.109 96.021 95.961 95.854 95.769 95.681 95.596 95.506 95.379 95.301 95.204 95.074 94.931 94.834 94.686 94.579 94.436 94.279 94.159 93.954 93.799 93.624 93.501 93.331 93.161 93.006 92.856 92.679 92.554 92.366 92.199 92.004 91.834 91.624 91.449 91.224 90.974 90.716 90.519 90.216 89.984 89.724 89.471 89.244 89.019 88.826 88.686 88.529 88.296 88.011 88.106 86.866 85.769 85.601 85.311 84.949 84.589 84.251 83.899 83.509 83.131 82.766 82.316 81.874 81.429 80.951 80.404 79.804 79.161 78.476 77.764 77.024 76.266 75.469 74.676 73.891 73.104 72.326 71.594 70.851 70.146 69.469 68.821 68.164 67.556 67.049 66.516 65.731 64.901 64.296 64.099 64.999 70.774 69.843 63.658 62.183 65.258 60.583 59.423 60.038 58.363 57.593 56.971 56.493 55.826 58.493 54.458 53.953 53.653 57.838 54.506 51.541 51.011 50.366 49.921 49.498 49.101 48.771 48.543 48.311 48.056 47.761 47.543 47.221 46.828 46.383 46.806 47.283 47.683 48.086 48.488 48.851 49.168 49.431 49.596 50.891 50.976 51.031 51.271 51.438 51.648 52.143 52.526 52.902 53.291 53.728 54.18 54.621 55.024 55.437 55.878 56.343 56.807 57.22 57.626 58.021 58.429 58.858 59.286 59.701 60.146 60.591 61.028 61.491 61.958 62.421 62.886 63.363 63.848 64.338 64.856 65.406 65.973 66.578 67.181 67.773 68.383 69.028 69.701 70.386 71.061 71.736 72.426 73.128 73.871 74.611 75.366 76.116 76.891 77.691 78.448 79.251 80.063 80.878 81.658 82.478 83.308 84.148 85.013 85.536 86.076 87.468 88.333 89.006 89.956 90.893 92.083 92.541 92.218 92.251 92.538 92.848 93.201 93.563 94.001 94.376 94.721 95.068 95.366 95.623 95.823 95.958 96.088 96.186 96.296 96.348 96.318 96.206 96.186 96.128 96.041 95.878 95.746 95.553 95.366 95.156 94.903 94.633 94.346 94.041 93.728 93.416 93.071 92.743
100.947 100.777 100.597 100.412 100.204 99.999 99.754 99.519 99.282 99.064 98.889 98.667 98.447 98.277 98.112 97.939 97.812 97.699 97.584 97.484 97.409 97.307 97.219 97.102 96.994 96.857 96.742 96.637 96.532 96.464 96.397 96.347 96.309 96.254 96.204 96.099 96.027 95.959 95.887 95.782 95.719 95.617 95.539 95.474 95.382 95.307 95.214 95.077 94.937 94.827 94.714 94.597 94.502 94.419 94.349 94.284 94.242 94.229 94.159 94.149 94.137 94.107 94.067 94.079 94.057 94.009 93.927 93.869 93.819 93.767 93.784 93.812 94.029 94.949 94.702 95.219 95.177 95.209 94.894 94.577 94.254 93.957 93.697 93.637 93.594 93.582 93.584 93.569 93.554 93.574 93.529 93.552 93.519 93.529 93.522 93.544 93.577 93.534 93.554 93.574 93.572 93.597 93.619 93.637 93.674 93.699 93.749 93.787 93.854 93.914 93.954 94.017 94.092 94.164 94.219 94.334 94.394 94.472 94.517 94.607 94.697 94.754 94.827 94.907 94.982 95.027 95.119 95.202 95.269 95.317 95.409 95.442 95.534 95.592 95.629 95.689 95.764 95.817 95.864 95.897 95.964 96.029 96.079 96.149 96.167 96.229 96.299 96.349 96.366 96.356 96.404 96.404 96.416 96.369 96.341 96.321 96.266 96.216 96.126 96.041 95.949 95.844 95.761 95.676 95.564 95.446 95.349 95.236 95.101 94.986 94.864 94.711 94.549 94.409 94.246 94.051 93.944 93.776 93.596 93.439 93.281 93.121 92.956 92.814 92.619 92.469 92.281 92.111 91.916 91.709 91.511 91.291 91.034 90.851 90.554 90.306 90.069 89.819 89.531 89.341 89.101 88.944 88.824 88.591 88.346 88.214 87.751 86.344 85.921 85.721 85.394 85.016 84.654 84.329 83.964 83.601 83.191 82.791 82.351 81.869 81.384 80.841 80.251 79.594 78.919 78.169 77.396 76.661 75.851 75.044 74.241 73.444 72.679 71.909 71.194 70.471 69.811 69.251 68.521 67.891 67.339 66.826 66.111 65.514 65.154 65.036 64.284 64.384 63.731 62.326 61.203 61.463 60.873 59.503 59.533 59.941 58.291 64.556 59.661 55.888 55.286 54.598 54.006 53.626 54.168 57.623 52.051 50.998 50.378 49.896 49.446 49.058 48.736 48.471 48.236 48.008 47.706 47.503 47.283 46.863 46.328 46.638 47.203 47.611 48.001 48.398 48.776 49.078 49.331 49.456 50.913 50.973 50.933 51.158 51.396 51.581 52.041 52.438 52.868 53.247 53.687 54.19 54.71 55.087 55.459 55.899 56.319 56.76 57.198 57.6 58.014 58.386 58.818 59.263 59.713 60.143 60.576 61.043 61.513 61.963 62.423 62.878 63.348 63.821 64.296 64.818 65.353 65.923 66.516 67.096 67.668 68.281 68.893 69.538 70.243 70.901 71.573 72.261 72.961 73.653 74.388 75.136 75.893 76.638 77.443 78.226 79.026 79.796 80.628 81.423 82.173 83.041 83.861 84.743 85.286 85.978 86.786 87.996 88.893 89.658 90.818 92.053 92.523 92.116 92.183 92.493 92.788 93.168 93.573 94.018 94.433 94.798 95.143 95.453 95.713 95.946 96.098 96.211 96.318 96.431 96.483 96.456 96.403 96.378 96.298 96.203 96.058 95.926 95.736 95.553 95.338 95.093 94.813 94.521 94.238 93.956 93.641 93.301 92.973
101.362 101.189 101.007 100.802 100.599 100.389 100.164 99.932 99.694 99.472 99.244 99.047 98.824 98.632 98.459 98.284 98.169 98.042 97.934 97.837 97.747 97.659 97.542 97.434 97.319 97.219 97.097 97.009 96.924 96.847 96.772 96.719 96.687 96.634 96.579 96.509 96.444 96.352 96.239 96.152 96.074 96.002 95.919 95.852 95.739 95.659 95.544 95.447 95.329 95.244 95.109 94.992 94.877 94.817 94.747 94.652 94.619 94.542 94.499 94.489 94.474 94.452 94.419 94.342 94.332 94.279 94.222 94.199 94.497 94.914 95.099 95.954 95.707 95.404 95.109 94.739 94.259 94.054 94.047 93.999 94.014 93.982 93.982 93.957 93.972 93.967 93.937 93.917 93.892 93.887 93.877 93.867 93.824 93.802 93.814 93.789 93.842 93.784 93.787 93.772 93.789 93.819 93.832 93.867 93.884 93.912 93.969 93.999 94.027 94.092 94.164 94.224 94.294 94.392 94.444 94.529 94.577 94.639 94.732 94.799 94.874 94.932 94.999 95.087 95.159 95.219 95.302 95.342 95.414 95.484 95.542 95.634 95.682 95.747 95.794 95.854 95.924 95.959 96.029 96.062 96.117 96.149 96.224 96.309 96.339 96.412 96.469 96.462 96.499 96.541 96.569 96.589 96.621 96.596 96.586 96.554 96.511 96.459 96.396 96.299 96.231 96.129 96.049 95.936 95.849 95.709 95.601 95.504 95.386 95.264 95.146 95.026 94.849 94.671 94.539 94.359 94.226 94.041 93.889 93.709 93.571 93.391 93.234 93.094 92.889 92.729 92.566 92.374 92.196 92.011 91.799 91.579 91.329 91.134 90.871 90.621 90.379 90.154 89.859 89.649 89.439 89.246 89.084 88.901 88.699 88.429 88.469 87.691 86.269 86.076 85.811 85.464 85.094 84.754 84.411 84.039 83.664 83.256 82.811 82.331 81.816 81.276 80.716 80.056 79.339 78.591 77.811 77.039 76.229 75.439 74.634 73.821 73.056 72.306 71.741 70.916 70.396 71.931 68.961 68.294 67.611 67.081 66.639 66.189 65.656 64.751 63.934 64.121 65.368 63.021 61.516 61.173 62.781 61.738 60.551 58.611 57.783 58.141 58.961 56.038 55.286 54.828 53.993 53.683 53.126 52.233 51.758 51.011 50.358 49.876 49.411 49.018 48.653 48.411 48.173 47.936 47.671 47.441 47.208 46.821 46.348 46.498 47.091 47.546 47.923 48.288 48.666 48.953 49.241 49.358 50.308 50.836 50.868 51.028 51.301 51.448 51.948 52.386 52.767 53.162 53.606 54.108 54.596 55.023 55.427 55.869 56.289 56.7 57.124 57.57 58.03 58.431 58.806 59.231 59.683 60.138 60.581 61.001 61.468 61.941 62.436 62.891 63.371 63.828 64.301 64.788 65.321 65.883 66.463 67.001 67.583 68.158 68.768 69.423 70.108 70.763 71.411 72.108 72.836 73.508 74.171 74.888 75.668 76.448 77.218 78.033 78.756 79.531 80.381 81.148 81.936 82.751 83.588 84.466 85.083 85.633 86.588 87.588 88.761 89.546 90.736 91.783 92.501 92.051 92.126 92.458 92.751 93.133 93.568 94.036 94.456 94.868 95.243 95.558 95.828 96.063 96.241 96.381 96.463 96.553 96.636 96.621 96.568 96.563 96.483 96.373 96.248 96.106 95.943 95.733 95.523 95.281 95.016 94.738 94.451 94.163 93.878 93.516 93.21
101.744 101.562 101.382 101.184 100.982 100.784 100.547 100.304 100.077 99.847 99.617 99.384 99.177 98.982 98.789 98.652 98.512 98.374 98.274 98.179 98.097 97.974 97.894 97.789 97.712 97.599 97.487 97.374 97.292 97.219 97.164 97.117 97.077 97.024 96.957 96.864 96.794 96.729 96.622 96.524 96.432 96.337 96.269 96.169 96.107 96.029 95.909 95.807 95.677 95.554 95.454 95.352 95.292 95.202 95.097 95.047 94.989 94.909 94.864 94.802 94.742 94.709 94.692 94.679 94.727 95.372 95.784 95.842 96.037 95.607 95.289 94.894 94.529 94.412 94.392 94.389 94.412 94.414 94.399 94.404 94.387 94.387 94.342 94.314 94.279 94.287 94.239 94.217 94.207 94.167 94.139 94.177 94.089 94.057 94.064 94.047 94.044 94.009 93.999 94.014 94.027 94.044 94.057 94.107 94.094 94.124 94.162 94.199 94.267 94.284 94.362 94.422 94.509 94.557 94.624 94.709 94.774 94.842 94.902 95.009 95.084 95.142 95.197 95.284 95.354 95.409 95.454 95.549 95.609 95.654 95.709 95.774 95.849 95.894 95.969 96.042 96.082 96.109 96.187 96.222 96.274 96.337 96.402 96.434 96.494 96.547 96.584 96.639 96.664 96.716 96.731 96.766 96.799 96.781 96.796 96.806 96.734 96.691 96.641 96.544 96.494 96.389 96.299 96.204 96.109 96.011 95.879 95.776 95.664 95.526 95.429 95.286 95.129 94.954 94.804 94.639 94.499 94.339 94.164 94.004 93.836 93.651 93.521 93.346 93.174 92.996 92.824 92.656 92.491 92.279 92.071 91.854 91.691 91.441 91.221 90.954 90.716 90.454 90.229 90.006 89.774 89.549 89.316 89.194 89.041 88.774 88.571 88.379 87.579 86.404 86.224 85.894 85.519 85.186 84.831 84.486 84.129 83.719 83.289 82.794 82.276 81.699 81.109 80.464 79.736 79.019 78.244 77.449 76.649 75.826 75.019 74.224 73.409 72.651 71.929 71.386 71.831 73.479 72.054 68.456 68.111 67.446 66.614 66.001 65.301 64.661 64.049 64.976 66.841 63.466 61.768 61.013 60.633 61.843 64.228 58.821 58.158 57.538 56.863 56.153 55.453 54.648 54.138 54.158 53.116 52.428 51.608 50.913 50.383 49.833 49.371 48.976 48.603 48.341 48.101 47.878 47.628 47.353 47.118 46.731 46.323 46.378 46.998 47.408 47.806 48.191 48.541 48.831 49.148 49.293 50.211 50.963 50.763 50.948 51.178 51.351 51.791 52.283 52.657 53.051 53.503 53.988 54.487 54.936 55.392 55.822 56.251 56.681 57.09 57.502 57.977 58.418 58.829 59.218 59.691 60.143 60.611 61.063 61.503 61.978 62.433 62.926 63.401 63.861 64.323 64.798 65.341 65.893 66.478 67.008 67.553 68.158 68.706 69.296 69.956 70.631 71.296 71.981 72.711 73.386 74.018 74.708 75.451 76.243 76.988 77.801 78.573 79.338 80.136 80.946 81.748 82.528 83.351 84.181 84.678 85.148 86.573 87.268 88.423 89.323 90.541 91.606 92.428 92.046 92.086 92.406 92.723 93.106 93.546 94.023 94.496 94.931 95.343 95.663 95.963 96.216 96.426 96.613 96.676 96.748 96.791 96.781 96.733 96.721 96.653 96.563 96.436 96.291 96.118 95.928 95.723 95.501 95.221 94.948 94.668 94.393 94.088 93.731 93.43
102.102 101.909 101.704 101.524 101.324 101.119 100.877 100.679 100.422 100.177 99.944 99.729 99.514 99.322 99.137 98.992 98.862 98.724 98.622 98.542 98.442 98.349 98.249 98.154 98.064 97.977 97.862 97.772 97.717 97.612 97.547 97.477 97.462 97.384 97.319 97.262 97.169 97.099 96.994 96.877 96.794 96.684 96.604 96.524 96.422 96.322 96.219 96.124 96.009 95.914 95.807 95.702 95.622 95.529 95.442 95.352 95.299 95.189 95.144 95.122 95.092 95.084 95.714 96.182 96.574 96.787 96.087 95.367 95.094 94.914 94.857 94.842 94.829 94.784 94.784 94.767 94.749 94.732 94.724 94.737 94.684 94.644 94.649 94.597 94.589 94.574 94.519 94.489 94.444 94.427 94.362 94.349 94.339 94.319 94.299 94.289 94.259 94.254 94.237 94.252 94.259 94.282 94.259 94.284 94.324 94.352 94.397 94.424 94.457 94.512 94.557 94.624 94.729 94.764 94.844 94.907 94.972 95.029 95.127 95.234 95.274 95.337 95.407 95.474 95.554 95.577 95.642 95.704 95.764 95.829 95.877 95.934 95.987 96.057 96.109 96.189 96.244 96.272 96.339 96.387 96.429 96.477 96.534 96.592 96.659 96.712 96.767 96.777 96.836 96.869 96.899 96.914 96.959 96.981 96.986 96.994 96.959 96.929 96.879 96.811 96.726 96.644 96.579 96.464 96.369 96.254 96.174 96.059 95.944 95.811 95.686 95.539 95.409 95.236 95.089 94.919 94.771 94.591 94.439 94.281 94.121 93.919 93.781 93.619 93.456 93.261 93.084 92.931 92.744 92.549 92.364 92.171 91.969 91.756 91.539 91.274 91.024 90.801 90.539 90.314 90.094 89.871 89.611 89.439 89.306 89.126 88.834 88.829 88.686 87.064 86.574 86.291 85.951 85.601 85.246 84.886 84.546 84.159 83.726 83.266 82.709 82.141 81.529 80.874 80.146 79.406 78.664 77.844 77.071 76.251 75.389 74.666 73.774 73.221 73.451 71.771 70.961 75.911 77.809 71.901 69.046 67.739 67.844 67.794 65.219 64.751 64.264 64.781 65.726 64.868 62.211 61.216 60.626 60.658 62.526 58.896 58.271 57.538 56.998 56.231 55.818 55.276 54.231 53.721 53.056 52.308 51.596 50.948 50.396 49.826 49.363 48.946 48.538 48.256 48.031 47.808 47.563 47.283 47.083 46.698 46.231 46.266 46.901 47.296 47.693 48.056 48.406 48.718 49.036 49.211 50.126 50.716 50.586 50.826 51.066 51.248 51.648 52.176 52.57 52.983 53.403 53.871 54.4 54.879 55.37 55.799 56.219 56.626 57.047 57.461 57.905 58.39 58.836 59.248 59.688 60.121 60.563 61.051 61.541 62.008 62.468 62.946 63.431 63.883 64.358 64.841 65.351 65.871 66.428 66.968 67.533 68.101 68.668 69.278 69.896 70.548 71.218 71.898 72.583 73.281 73.931 74.601 75.336 76.066 76.843 77.593 78.388 79.186 79.968 80.708 81.513 82.353 83.153 83.968 84.436 84.833 86.463 87.068 88.253 88.953 90.581 91.456 92.321 92.031 92.043 92.326 92.673 93.046 93.466 93.978 94.466 94.953 95.381 95.726 96.056 96.326 96.588 96.816 96.898 97.011 97.056 97.023 97.003 96.913 96.826 96.746 96.643 96.501 96.318 96.101 95.893 95.666 95.416 95.146 94.873 94.586 94.293 93.968 93.65
102.417 102.229 102.022 101.837 101.654 101.457 101.227 100.997 100.747 100.532 100.294 100.049 99.857 99.657 99.479 99.334 99.207 99.077 98.977 98.884 98.804 98.699 98.622 98.547 98.457 98.367 98.257 98.172 98.097 98.004 97.949 97.909 97.849 97.782 97.709 97.617 97.517 97.427 97.324 97.222 97.154 97.024 96.909 96.817 96.747 96.637 96.529 96.432 96.349 96.234 96.139 96.057 95.982 95.877 95.757 95.654 95.587 95.559 95.567 96.057 96.337 96.939 96.864 96.952 96.039 95.627 95.279 95.257 95.257 95.267 95.219 95.207 95.159 95.119 95.107 95.082 95.054 95.044 95.032 95.024 94.947 94.889 94.889 94.819 94.837 94.802 94.789 94.737 94.727 94.687 94.682 94.607 94.614 94.577 94.554 94.512 94.504 94.492 94.484 94.487 94.487 94.524 94.517 94.522 94.559 94.554 94.627 94.682 94.692 94.734 94.802 94.834 94.929 94.969 95.037 95.129 95.184 95.234 95.337 95.409 95.472 95.527 95.594 95.642 95.702 95.762 95.832 95.877 95.944 95.987 96.062 96.114 96.154 96.229 96.297 96.337 96.402 96.427 96.477 96.549 96.587 96.632 96.692 96.754 96.764 96.824 96.872 96.932 96.986 97.014 97.039 97.091 97.131 97.131 97.154 97.181 97.149 97.124 97.099 97.031 96.941 96.874 96.796 96.706 96.616 96.494 96.396 96.296 96.201 96.049 95.931 95.794 95.639 95.516 95.319 95.191 95.026 94.866 94.686 94.544 94.371 94.201 94.019 93.851 93.701 93.544 93.376 93.201 93.006 92.826 92.621 92.411 92.224 92.036 91.799 91.559 91.344 91.104 90.866 90.611 90.396 90.146 89.914 89.689 89.556 89.381 89.169 88.896 88.984 88.111 86.881 86.629 86.344 85.976 85.609 85.276 84.931 84.546 84.136 83.684 83.144 82.564 81.946 81.281 80.564 79.824 79.049 78.246 77.441 76.624 75.841 75.004 74.404 74.039 74.384 72.204 71.549 71.431 78.966 70.414 70.036 75.344 74.654 68.884 65.294 66.769 66.019 63.854 64.308 64.268 61.793 61.173 60.531 60.116 59.281 58.868 58.363 57.601 57.053 56.416 55.533 55.008 54.578 53.836 53.408 52.351 51.738 50.963 50.398 49.836 49.333 48.876 48.473 48.171 47.951 47.726 47.488 47.198 47.016 46.651 46.171 46.233 46.781 47.156 47.538 47.923 48.286 48.598 48.898 49.128 49.788 50.651 50.513 50.721 51.008 51.191 51.526 52.061 52.47 52.871 53.307 53.779 54.283 54.78 55.276 55.737 56.169 56.585 56.993 57.433 57.831 58.303 58.773 59.226 59.678 60.146 60.591 61.061 61.546 62.041 62.501 62.981 63.448 63.921 64.403 64.891 65.388 65.908 66.448 66.978 67.543 68.111 68.686 69.243 69.876 70.501 71.151 71.823 72.523 73.168 73.858 74.563 75.233 75.948 76.673 77.446 78.228 78.998 79.756 80.448 81.258 82.083 82.878 83.718 84.201 84.756 86.093 86.896 87.948 88.771 90.116 91.231 92.193 92.081 92.008 92.233 92.633 93.018 93.413 93.898 94.421 94.936 95.403 95.771 96.106 96.401 96.688 96.946 97.083 97.196 97.313 97.363 97.296 97.213 97.063 96.966 96.863 96.746 96.548 96.323 96.086 95.866 95.606 95.351 95.096 94.796 94.491 94.181 93.875
102.747 102.564 102.379 102.169 101.977 101.754 101.544 101.309 101.087 100.844 100.612 100.379 100.164 99.989 99.852 99.679 99.539 99.427 99.337 99.254 99.174 99.089 99.022 98.932 98.852 98.774 98.687 98.617 98.532 98.442 98.362 98.302 98.237 98.169 98.102 97.977 97.882 97.787 97.664 97.557 97.464 97.344 97.232 97.137 97.037 96.927 96.814 96.734 96.634 96.517 96.457 96.377 96.282 96.182 96.127 96.029 96.084 96.934 97.452 97.577 97.497 96.504 95.999 95.819 95.767 95.759 95.719 95.692 95.634 95.589 95.567 95.514 95.459 95.422 95.384 95.362 95.342 95.294 95.257 95.234 95.214 95.167 95.149 95.117 95.074 95.062 95.024 94.997 94.989 94.959 94.899 94.864 94.872 94.839 94.772 94.777 94.777 94.744 94.737 94.719 94.759 94.777 94.779 94.774 94.809 94.837 94.879 94.909 94.947 94.974 95.012 95.054 95.144 95.189 95.264 95.322 95.359 95.449 95.529 95.577 95.652 95.729 95.777 95.849 95.899 95.959 96.004 96.079 96.124 96.157 96.199 96.272 96.344 96.372 96.457 96.497 96.554 96.549 96.637 96.714 96.752 96.807 96.814 96.887 96.927 96.984 97.014 97.087 97.109 97.166 97.194 97.224 97.266 97.289 97.271 97.306 97.319 97.309 97.281 97.251 97.174 97.109 97.009 96.939 96.831 96.744 96.649 96.519 96.406 96.291 96.144 96.019 95.899 95.741 95.581 95.434 95.249 95.096 94.939 94.771 94.631 94.429 94.269 94.089 93.929 93.746 93.604 93.439 93.246 93.066 92.861 92.674 92.481 92.296 92.059 91.851 91.614 91.384 91.141 90.886 90.691 90.434 90.184 89.951 89.754 89.636 89.414 89.156 89.054 89.089 87.679 86.916 86.674 86.314 85.954 85.626 85.289 84.901 84.501 84.064 83.544 82.936 82.324 81.671 80.981 80.229 79.441 78.624 77.894 77.076 76.406 75.439 74.759 74.511 75.044 73.006 72.479 70.574 70.659 68.911 68.429 72.856 71.421 66.771 65.649 64.906 64.416 63.764 63.218 62.688 62.156 61.341 60.618 60.506 62.696 60.646 58.396 57.801 57.203 56.488 55.716 54.963 54.343 53.738 55.258 52.311 51.858 50.981 50.406 49.836 49.293 48.826 48.406 48.091 47.896 47.651 47.398 47.141 46.943 46.601 46.151 46.083 46.643 47.028 47.371 47.761 48.168 48.481 48.791 49.028 49.611 50.533 50.413 50.616 50.921 51.121 51.426 51.936 52.365 52.784 53.195 53.659 54.148 54.634 55.14 55.612 56.06 56.513 56.958 57.372 57.823 58.271 58.721 59.208 59.668 60.106 60.608 61.051 61.556 62.031 62.516 62.991 63.491 63.978 64.456 64.951 65.433 65.948 66.451 66.983 67.561 68.161 68.726 69.313 69.911 70.503 71.118 71.776 72.458 73.133 73.803 74.506 75.203 75.858 76.608 77.381 78.096 78.846 79.591 80.333 81.148 81.873 82.668 83.476 83.996 84.436 85.936 86.676 87.733 88.563 89.761 90.963 91.958 92.116 91.981 92.193 92.558 92.953 93.353 93.853 94.376 94.873 95.393 95.803 96.128 96.461 96.766 97.013 97.216 97.361 97.473 97.556 97.526 97.468 97.391 97.228 97.116 96.953 96.783 96.563 96.326 96.063 95.813 95.571 95.301 95.006 94.701 94.381 94.078
103.049 102.884 102.687 102.487 102.292 102.079 101.854 101.634 101.404 101.164 100.949 100.729 100.517 100.337 100.194 100.029 99.912 99.807 99.727 99.629 99.577 99.497 99.417 99.339 99.272 99.174 99.122 99.034 98.934 98.842 98.782 98.692 98.622 98.547 98.472 98.337 98.224 98.122 98.002 97.889 97.759 97.637 97.509 97.402 97.302 97.207 97.102 97.047 96.947 96.899 96.774 96.652 96.562 96.529 96.957 97.714 97.939 97.742 96.964 96.552 96.337 96.282 96.237 96.204 96.167 96.097 96.049 95.992 95.919 95.884 95.834 95.789 95.712 95.669 95.639 95.657 95.592 95.564 95.514 95.492 95.444 95.432 95.409 95.367 95.334 95.324 95.284 95.247 95.242 95.227 95.197 95.162 95.124 95.104 95.052 95.042 95.022 95.027 95.017 95.022 95.014 95.037 95.039 95.052 95.074 95.077 95.102 95.134 95.169 95.202 95.247 95.279 95.302 95.402 95.447 95.514 95.559 95.659 95.719 95.797 95.857 95.902 95.987 96.042 96.094 96.127 96.182 96.234 96.279 96.347 96.412 96.442 96.477 96.547 96.634 96.662 96.709 96.759 96.802 96.867 96.917 96.949 96.979 97.032 97.059 97.137 97.164 97.229 97.254 97.274 97.324 97.354 97.391 97.426 97.466 97.446 97.434 97.444 97.401 97.431 97.379 97.274 97.219 97.176 97.046 96.944 96.856 96.739 96.616 96.499 96.364 96.209 96.096 95.951 95.789 95.654 95.479 95.326 95.159 94.999 94.829 94.634 94.484 94.291 94.161 94.006 93.821 93.639 93.479 93.289 93.119 92.914 92.694 92.499 92.304 92.101 91.854 91.649 91.446 91.159 90.946 90.689 90.444 90.239 89.989 89.866 89.661 89.429 89.136 89.206 88.794 87.121 86.944 86.629 86.276 85.946 85.616 85.259 84.841 84.424 83.889 83.304 82.706 82.059 81.344 80.571 79.816 79.051 78.404 77.699 77.139 77.069 75.376 75.444 75.121 72.529 76.034 70.779 70.034 69.249 68.286 68.304 66.904 66.266 66.796 65.704 64.501 63.889 63.161 62.748 61.996 61.538 61.081 61.508 63.246 63.506 58.633 57.763 57.041 56.478 55.851 55.093 54.383 53.828 53.298 52.326 51.818 50.968 50.391 49.803 49.258 48.788 48.366 48.046 47.816 47.578 47.328 47.081 46.883 46.541 46.186 45.958 46.516 46.888 47.218 47.591 48.001 48.318 48.641 48.901 49.378 50.411 50.283 50.541 50.796 51.023 51.268 51.818 52.238 52.654 53.065 53.523 53.988 54.48 54.963 55.447 55.916 56.399 56.876 57.323 57.724 58.227 58.687 59.163 59.671 60.121 60.588 61.106 61.588 62.051 62.551 62.998 63.498 64.006 64.506 64.991 65.496 65.993 66.528 67.058 67.613 68.148 68.746 69.341 69.948 70.516 71.101 71.778 72.423 73.093 73.756 74.451 75.133 75.856 76.528 77.228 77.953 78.678 79.428 80.203 80.983 81.721 82.528 83.311 83.878 84.266 85.746 86.241 87.311 88.351 89.438 90.631 91.608 92.003 91.893 92.118 92.498 92.903 93.326 93.803 94.338 94.798 95.323 95.778 96.173 96.511 96.791 97.043 97.306 97.478 97.611 97.703 97.698 97.653 97.608 97.481 97.343 97.133 96.943 96.748 96.538 96.278 96.038 95.783 95.506 95.193 94.908 94.588 94.288
103.397 103.209 103.022 102.834 102.629 102.402 102.174 101.944 101.717 101.484 101.264 101.057 100.867 100.687 100.539 100.404 100.284 100.192 100.117 100.024 99.982 99.932 99.837 99.754 99.674 99.604 99.534 99.459 99.382 99.284 99.157 99.077 98.994 98.904 98.839 98.719 98.579 98.459 98.329 98.197 98.049 97.932 97.819 97.717 97.597 97.492 97.379 97.339 97.279 97.129 97.034 97.137 97.234 96.879 97.249 97.702 97.332 96.809 96.774 96.719 96.717 96.652 96.594 96.517 96.462 96.399 96.362 96.299 96.202 96.174 96.119 96.032 95.974 95.954 95.909 95.862 95.839 95.799 95.772 95.722 95.717 95.672 95.652 95.637 95.617 95.587 95.559 95.554 95.537 95.489 95.464 95.444 95.399 95.367 95.329 95.309 95.294 95.267 95.279 95.297 95.284 95.304 95.299 95.284 95.327 95.357 95.359 95.379 95.387 95.432 95.467 95.497 95.537 95.607 95.639 95.707 95.764 95.842 95.902 95.969 96.052 96.099 96.164 96.177 96.262 96.332 96.354 96.417 96.459 96.522 96.554 96.642 96.689 96.732 96.797 96.832 96.874 96.934 96.992 97.019 97.079 97.114 97.149 97.197 97.229 97.284 97.317 97.374 97.409 97.424 97.456 97.471 97.501 97.536 97.566 97.541 97.586 97.596 97.569 97.569 97.536 97.461 97.401 97.331 97.224 97.151 97.009 96.929 96.794 96.681 96.531 96.416 96.286 96.131 95.984 95.829 95.689 95.516 95.364 95.201 95.021 94.844 94.661 94.509 94.334 94.171 93.984 93.831 93.674 93.489 93.309 93.106 92.909 92.714 92.509 92.301 92.086 91.881 91.669 91.426 91.174 90.936 90.691 90.506 90.256 90.014 89.854 89.654 89.376 89.279 89.289 87.456 87.131 86.914 86.564 86.231 85.906 85.529 85.159 84.724 84.211 83.641 83.049 82.371 81.776 81.046 80.399 79.729 78.976 78.376 78.391 79.099 75.409 75.514 78.326 74.489 71.929 71.166 70.919 72.444 70.074 67.754 67.236 66.479 65.891 65.451 65.201 64.064 64.288 62.876 62.066 61.663 61.216 61.763 60.011 59.116 58.583 57.723 57.201 56.426 55.753 54.891 54.383 53.868 53.128 52.383 51.921 50.951 50.396 49.751 49.186 48.733 48.313 47.973 47.756 47.528 47.241 47.016 46.806 46.476 46.151 45.793 46.353 46.746 47.076 47.433 47.813 48.151 48.491 48.753 49.428 50.316 50.158 50.363 50.663 50.898 51.113 51.671 52.073 52.498 52.919 53.358 53.791 54.277 54.754 55.237 55.733 56.247 56.755 57.228 57.67 58.107 58.635 59.143 59.621 60.063 60.551 61.053 61.596 62.118 62.601 63.071 63.518 64.026 64.526 65.026 65.538 66.053 66.603 67.153 67.698 68.248 68.798 69.396 69.998 70.603 71.181 71.798 72.416 73.078 73.751 74.406 75.081 75.793 76.478 77.168 77.886 78.581 79.301 80.026 80.761 81.501 82.296 83.093 83.651 84.156 85.408 86.118 87.113 88.271 89.288 90.258 91.276 91.833 91.813 92.033 92.441 92.856 93.296 93.756 94.293 94.753 95.221 95.711 96.146 96.516 96.818 97.103 97.358 97.573 97.736 97.858 97.866 97.793 97.818 97.696 97.541 97.343 97.131 96.938 96.738 96.503 96.251 95.986 95.681 95.381 95.108 94.781 94.453
103.719 103.522 103.339 103.139 102.959 102.737 102.499 102.287 102.069 101.824 101.604 101.394 101.227 101.049 100.892 100.764 100.679 100.594 100.512 100.434 100.394 100.334 100.244 100.197 100.107 100.029 99.932 99.849 99.759 99.649 99.542 99.454 99.359 99.279 99.169 99.037 98.889 98.777 98.642 98.514 98.374 98.244 98.124 97.997 97.919 97.834 97.742 97.674 97.594 97.452 98.282 99.154 98.859 97.294 97.217 97.182 97.194 97.199 97.162 97.089 97.044 96.964 96.899 96.814 96.759 96.662 96.592 96.519 96.454 96.417 96.337 96.282 96.222 96.197 96.182 96.097 96.119 96.059 96.044 96.009 95.999 95.969 95.937 95.944 95.897 95.894 95.862 95.794 95.809 95.777 95.754 95.709 95.689 95.642 95.632 95.584 95.574 95.544 95.564 95.542 95.512 95.552 95.552 95.559 95.574 95.577 95.572 95.587 95.629 95.652 95.704 95.729 95.742 95.814 95.867 95.914 95.962 96.039 96.069 96.159 96.214 96.277 96.337 96.402 96.459 96.512 96.544 96.612 96.669 96.709 96.764 96.824 96.879 96.927 96.954 97.017 97.067 97.117 97.172 97.199 97.262 97.277 97.324 97.369 97.392 97.437 97.477 97.497 97.539 97.556 97.596 97.639 97.644 97.641 97.679 97.671 97.684 97.724 97.704 97.699 97.691 97.616 97.564 97.479 97.401 97.281 97.194 97.089 96.979 96.849 96.716 96.594 96.449 96.311 96.156 96.006 95.851 95.669 95.541 95.374 95.196 95.021 94.824 94.686 94.501 94.336 94.174 93.984 93.831 93.636 93.489 93.304 93.099 92.886 92.726 92.491 92.339 92.076 91.879 91.634 91.381 91.156 90.921 90.696 90.456 90.244 90.041 89.841 89.621 89.351 89.389 88.649 87.326 87.154 86.866 86.514 86.166 85.819 85.434 85.011 84.496 83.961 83.381 82.801 82.169 81.499 80.959 80.591 79.574 78.834 77.624 77.149 75.756 74.809 74.206 73.174 73.201 71.501 70.926 70.224 69.211 68.066 67.364 66.629 66.106 65.679 64.901 64.389 64.223 64.846 62.266 61.653 61.231 60.483 59.788 59.196 58.468 57.848 57.131 56.538 55.928 55.191 54.333 53.783 53.708 52.608 51.731 50.958 50.296 49.721 49.163 48.671 48.258 47.911 47.676 47.458 47.181 46.928 46.731 46.391 46.106 45.683 46.176 46.578 46.918 47.281 47.648 47.991 48.321 48.586 49.133 50.173 49.996 50.286 50.556 50.808 50.976 51.538 51.933 52.34 52.765 53.225 53.667 54.137 54.621 55.1 55.599 56.123 56.63 57.094 57.58 58.087 58.573 59.081 59.608 60.051 60.533 61.038 61.553 62.071 62.583 63.071 63.533 64.013 64.508 65.018 65.536 66.088 66.626 67.181 67.728 68.271 68.858 69.428 70.018 70.643 71.253 71.868 72.466 73.103 73.738 74.378 75.058 75.753 76.426 77.113 77.816 78.513 79.193 79.916 80.653 81.411 82.168 82.963 83.493 83.968 85.198 86.001 86.921 87.871 88.918 90.126 91.051 91.943 91.761 91.973 92.363 92.786 93.238 93.701 94.238 94.748 95.183 95.638 96.071 96.476 96.798 97.101 97.378 97.598 97.781 97.956 97.981 97.941 97.978 97.901 97.743 97.571 97.328 97.138 96.928 96.673 96.453 96.188 95.871 95.593 95.296 94.978 94.663
104.049 103.879 103.672 103.489 103.292 103.067 102.874 102.619 102.397 102.169 101.954 101.757 101.582 101.434 101.294 101.184 101.064 100.997 100.912 100.854 100.824 100.729 100.677 100.589 100.497 100.422 100.309 100.227 100.122 100.017 99.884 99.794 99.697 99.607 99.504 99.372 99.222 99.084 98.959 98.814 98.667 98.542 98.429 98.332 98.259 98.154 98.059 97.974 97.932 97.907 98.749 99.274 97.844 97.532 97.549 97.579 97.597 97.534 97.484 97.404 97.344 97.284 97.149 97.069 96.987 96.934 96.854 96.787 96.734 96.642 96.592 96.547 96.504 96.487 96.472 96.409 96.402 96.374 96.334 96.319 96.289 96.269 96.237 96.237 96.204 96.179 96.134 96.119 96.094 96.034 96.024 95.972 95.972 95.919 95.909 95.864 95.844 95.837 95.829 95.787 95.764 95.789 95.809 95.812 95.814 95.794 95.797 95.799 95.859 95.862 95.912 95.909 95.944 95.979 96.047 96.109 96.167 96.217 96.294 96.344 96.414 96.474 96.522 96.589 96.644 96.709 96.749 96.807 96.864 96.919 96.979 97.004 97.069 97.129 97.157 97.217 97.292 97.314 97.362 97.397 97.434 97.459 97.509 97.527 97.559 97.607 97.637 97.649 97.694 97.719 97.716 97.734 97.766 97.754 97.804 97.779 97.789 97.826 97.824 97.826 97.779 97.734 97.686 97.631 97.551 97.441 97.359 97.244 97.106 96.999 96.881 96.751 96.594 96.439 96.299 96.164 95.994 95.836 95.689 95.529 95.346 95.171 94.981 94.829 94.641 94.471 94.314 94.151 93.969 93.804 93.611 93.456 93.249 93.074 92.874 92.679 92.456 92.249 92.056 91.829 91.609 91.331 91.116 90.886 90.656 90.416 90.204 90.031 89.846 89.554 89.384 89.526 87.711 87.344 87.096 86.789 86.434 86.056 85.664 85.251 84.771 84.411 83.761 83.316 82.831 82.266 81.741 80.856 81.276 78.816 77.964 77.001 76.469 75.186 74.304 73.514 73.594 71.894 71.159 75.189 69.674 68.344 67.696 66.849 66.289 65.879 65.079 64.491 63.708 63.598 62.428 62.113 61.373 60.681 60.113 59.311 58.791 57.758 57.738 59.526 63.023 58.431 55.668 53.731 54.038 53.408 51.701 50.941 50.246 49.663 49.093 48.618 48.206 47.868 47.581 47.366 47.093 46.856 46.646 46.348 46.058 45.626 45.963 46.421 46.758 47.096 47.481 47.843 48.181 48.461 48.908 50.083 49.846 50.166 50.433 50.711 50.853 51.418 51.833 52.25 52.634 53.057 53.498 53.95 54.428 54.904 55.428 55.978 56.488 56.984 57.501 58.027 58.536 59.038 59.568 60.073 60.511 60.961 61.501 62.071 62.573 63.083 63.573 64.043 64.521 65.033 65.551 66.123 66.681 67.236 67.781 68.371 68.956 69.511 70.066 70.698 71.308 71.926 72.528 73.141 73.771 74.413 75.091 75.748 76.403 77.096 77.783 78.423 79.098 79.781 80.486 81.276 81.986 82.806 83.356 83.823 85.016 85.758 86.881 87.708 88.688 89.983 90.816 91.873 91.848 91.973 92.326 92.786 93.201 93.651 94.188 94.713 95.178 95.601 96.046 96.448 96.818 97.128 97.408 97.651 97.856 97.981 98.083 98.098 98.106 98.028 97.908 97.748 97.556 97.338 97.118 96.883 96.641 96.411 96.081 95.801 95.496 95.196 94.88
104.402 104.229 104.032 103.837 103.659 103.417 103.197 102.972 102.757 102.522 102.307 102.119 101.959 101.804 101.677 101.564 101.477 101.419 101.337 101.289 101.209 101.137 101.069 100.989 100.907 100.797 100.699 100.592 100.457 100.329 100.239 100.134 100.017 99.909 99.809 99.677 99.517 99.394 99.274 99.134 99.034 98.922 98.814 98.704 98.609 98.484 98.344 98.302 98.322 98.344 98.797 99.517 97.834 97.854 97.822 97.907 97.914 97.879 97.764 97.674 97.579 97.509 97.419 97.362 97.239 97.197 97.107 97.049 96.982 96.922 96.862 96.832 96.787 96.782 96.744 96.692 96.674 96.652 96.612 96.604 96.587 96.557 96.549 96.514 96.482 96.449 96.427 96.409 96.362 96.339 96.284 96.234 96.212 96.209 96.179 96.107 96.104 96.099 96.119 96.057 96.049 96.049 96.059 96.067 96.062 96.064 96.049 96.072 96.077 96.074 96.122 96.144 96.164 96.179 96.254 96.307 96.354 96.407 96.492 96.559 96.609 96.649 96.734 96.807 96.852 96.924 96.964 97.039 97.072 97.124 97.212 97.269 97.322 97.342 97.399 97.444 97.512 97.527 97.567 97.619 97.629 97.682 97.704 97.729 97.749 97.797 97.804 97.839 97.856 97.871 97.899 97.894 97.889 97.914 97.934 97.914 97.894 97.934 97.939 97.924 97.896 97.859 97.809 97.731 97.666 97.584 97.474 97.394 97.271 97.141 97.009 96.894 96.766 96.596 96.449 96.291 96.116 95.959 95.796 95.654 95.454 95.296 95.099 94.926 94.779 94.584 94.419 94.249 94.096 93.916 93.731 93.584 93.374 93.189 92.999 92.811 92.626 92.419 92.211 92.004 91.779 91.536 91.301 91.069 90.861 90.604 90.394 90.196 90.021 89.801 89.459 89.646 88.706 87.544 87.286 87.019 86.661 86.276 85.969 85.746 85.259 85.524 84.854 84.051 84.016 82.911 81.771 81.014 80.134 79.254 78.314 77.381 76.411 75.511 74.531 73.779 73.211 72.291 71.274 71.571 70.334 68.684 68.299 67.369 66.724 65.999 65.424 64.744 64.031 63.618 62.728 62.036 61.243 60.471 60.171 59.486 58.708 57.878 57.816 60.551 63.256 58.163 54.381 53.861 53.383 52.743 53.023 50.956 50.176 49.613 49.023 48.556 48.126 47.801 47.526 47.288 47.011 46.763 46.538 46.288 45.991 45.676 45.763 46.261 46.583 46.948 47.333 47.681 48.041 48.321 48.841 50.011 49.711 49.991 50.283 50.593 50.746 51.276 51.686 52.072 52.473 52.861 53.308 53.777 54.276 54.754 55.246 55.768 56.311 56.811 57.359 57.917 58.433 58.996 59.488 60.028 60.498 60.968 61.431 61.958 62.521 63.053 63.576 64.041 64.546 65.061 65.568 66.131 66.718 67.281 67.836 68.413 69.031 69.598 70.151 70.776 71.396 71.998 72.571 73.186 73.788 74.436 75.113 75.753 76.413 77.071 77.763 78.403 79.048 79.686 80.378 81.141 81.856 82.663 83.221 83.746 84.796 85.653 86.583 87.528 88.431 89.691 90.876 91.778 91.936 91.978 92.246 92.721 93.153 93.611 94.156 94.666 95.178 95.613 96.031 96.448 96.808 97.166 97.461 97.721 97.931 98.098 98.228 98.266 98.236 98.156 98.033 97.921 97.748 97.531 97.301 97.086 96.828 96.603 96.301 96.031 95.718 95.418 95.093
104.777 104.597 104.392 104.189 103.982 103.772 103.569 103.332 103.094 102.877 102.684 102.512 102.334 102.187 102.079 101.967 101.882 101.807 101.744 101.699 101.637 101.547 101.467 101.379 101.274 101.152 101.027 100.917 100.759 100.627 100.542 100.422 100.302 100.214 100.094 99.987 99.847 99.719 99.587 99.472 99.364 99.262 99.159 99.047 98.922 98.789 98.682 98.674 98.657 98.677 98.932 99.859 98.379 98.149 98.184 98.212 98.142 98.082 97.989 97.904 97.837 97.749 97.669 97.589 97.509 97.439 97.404 97.334 97.262 97.197 97.134 97.124 97.119 97.079 97.034 96.974 96.977 96.957 96.912 96.897 96.867 96.837 96.809 96.772 96.779 96.734 96.732 96.694 96.662 96.622 96.567 96.529 96.509 96.457 96.412 96.392 96.357 96.344 96.382 96.344 96.327 96.312 96.309 96.317 96.287 96.279 96.299 96.282 96.314 96.332 96.327 96.362 96.369 96.392 96.489 96.492 96.559 96.634 96.707 96.752 96.809 96.904 96.964 97.029 97.064 97.124 97.199 97.249 97.314 97.364 97.447 97.494 97.552 97.579 97.639 97.667 97.717 97.789 97.809 97.827 97.852 97.902 97.907 97.932 97.962 97.979 98.004 98.019 98.029 98.034 98.054 98.039 98.059 98.044 98.044 98.039 98.016 98.006 98.021 98.014 97.986 97.966 97.926 97.841 97.754 97.694 97.594 97.504 97.384 97.279 97.154 97.026 96.869 96.744 96.576 96.419 96.259 96.096 95.896 95.756 95.589 95.396 95.219 95.041 94.866 94.709 94.541 94.366 94.204 94.029 93.849 93.666 93.496 93.306 93.144 92.951 92.746 92.569 92.356 92.191 91.931 91.724 91.466 91.239 91.011 90.786 90.579 90.324 90.191 89.984 89.654 89.624 90.056 87.746 87.476 87.201 86.874 86.536 86.279 86.606 86.121 86.736 86.811 84.596 83.546 82.801 82.186 81.819 81.256 79.566 80.494 77.891 77.081 76.079 75.021 74.166 73.259 72.341 71.501 70.819 69.874 69.019 68.314 67.474 66.856 66.599 65.736 65.114 64.308 63.668 62.843 62.271 61.738 61.053 60.078 59.553 58.781 58.006 57.293 56.413 55.816 55.316 54.281 53.878 52.958 52.801 51.718 50.813 50.121 49.541 48.981 48.471 48.051 47.711 47.436 47.198 46.928 46.668 46.438 46.201 45.901 45.686 45.646 46.131 46.493 46.793 47.191 47.536 47.893 48.183 48.538 49.908 49.703 49.831 50.166 50.501 50.628 51.088 51.521 51.913 52.284 52.671 53.14 53.612 54.091 54.594 55.093 55.607 56.142 56.673 57.223 57.785 58.349 58.912 59.438 59.928 60.483 60.936 61.448 61.951 62.461 62.958 63.493 63.996 64.501 65.041 65.578 66.128 66.721 67.308 67.883 68.453 69.063 69.668 70.256 70.816 71.426 72.026 72.623 73.228 73.828 74.438 75.088 75.746 76.413 77.041 77.728 78.378 78.998 79.636 80.313 81.038 81.733 82.521 83.076 83.638 84.718 85.506 86.403 87.281 88.223 89.333 90.563 91.666 92.198 92.041 92.246 92.656 93.096 93.546 94.071 94.608 95.148 95.591 96.048 96.448 96.831 97.171 97.501 97.788 98.041 98.266 98.408 98.496 98.511 98.431 98.171 98.111 97.973 97.741 97.496 97.286 97.061 96.806 96.508 96.231 95.943 95.658 95.328
105.112 104.917 104.752 104.544 104.354 104.137 103.929 103.717 103.487 103.287 103.094 102.919 102.752 102.632 102.507 102.397 102.314 102.229 102.177 102.102 102.014 101.934 101.839 101.729 101.607 101.474 101.354 101.207 101.059 100.942 100.854 100.729 100.612 100.517 100.409 100.289 100.164 100.029 99.932 99.834 99.722 99.589 99.454 99.319 99.214 99.152 99.067 99.047 99.004 98.979 99.087 99.894 98.417 98.357 98.337 98.422 98.397 98.312 98.229 98.142 98.052 97.984 97.917 97.824 97.787 97.737 97.677 97.632 97.532 97.504 97.437 97.404 97.369 97.357 97.342 97.307 97.259 97.234 97.197 97.202 97.167 97.144 97.094 97.069 97.059 97.044 96.992 96.979 96.967 96.899 96.857 96.817 96.812 96.752 96.707 96.692 96.657 96.624 96.664 96.619 96.579 96.564 96.579 96.542 96.559 96.542 96.544 96.529 96.532 96.564 96.594 96.562 96.592 96.657 96.697 96.739 96.777 96.849 96.922 96.984 97.004 97.107 97.177 97.244 97.307 97.377 97.442 97.499 97.559 97.642 97.724 97.762 97.779 97.859 97.864 97.937 97.977 97.992 98.057 98.039 98.099 98.117 98.142 98.147 98.167 98.179 98.214 98.219 98.234 98.221 98.206 98.209 98.211 98.206 98.196 98.176 98.166 98.114 98.139 98.116 98.106 98.066 98.004 97.936 97.876 97.796 97.724 97.621 97.519 97.411 97.264 97.154 96.996 96.849 96.709 96.539 96.394 96.201 96.054 95.856 95.686 95.499 95.349 95.164 94.976 94.831 94.639 94.474 94.301 94.134 93.986 93.786 93.616 93.426 93.264 93.089 92.881 92.691 92.474 92.334 92.099 91.876 91.649 91.419 91.164 90.956 90.736 90.516 90.341 90.151 89.884 89.594 90.061 88.589 87.764 87.436 87.404 87.309 86.869 87.151 86.639 88.434 85.179 84.539 83.959 83.171 82.516 82.184 84.209 81.129 82.784 78.026 77.119 76.591 76.234 74.286 74.489 72.574 71.991 71.111 70.634 70.379 68.589 67.879 67.121 66.519 66.046 65.299 64.463 63.988 63.301 62.431 62.068 62.411 60.346 59.571 59.088 58.318 57.386 56.641 55.828 55.278 54.483 54.978 53.068 52.251 51.513 50.701 50.078 49.491 48.913 48.418 47.998 47.668 47.366 47.121 46.836 46.571 46.353 46.111 45.846 45.666 45.571 46.068 46.398 46.701 47.071 47.411 47.738 48.073 48.328 49.786 49.563 49.678 50.061 50.366 50.538 50.876 51.353 51.735 52.116 52.527 52.976 53.424 53.907 54.429 54.914 55.423 55.963 56.512 57.064 57.657 58.23 58.792 59.336 59.883 60.351 60.891 61.368 61.883 62.398 62.873 63.418 63.941 64.471 64.993 65.563 66.143 66.703 67.328 67.936 68.493 69.121 69.751 70.351 70.931 71.511 72.106 72.686 73.301 73.903 74.501 75.096 75.758 76.416 77.053 77.706 78.358 78.981 79.621 80.278 80.996 81.631 82.378 82.956 83.486 84.771 85.296 86.231 87.128 87.928 88.951 90.211 91.411 92.293 92.191 92.258 92.598 93.061 93.503 93.961 94.476 95.043 95.553 96.028 96.463 96.851 97.218 97.541 97.848 98.113 98.348 98.516 98.636 98.663 98.621 98.441 98.323 98.208 98.001 97.731 97.516 97.303 97.046 96.736 96.401 96.153 95.866 95.58
105.459 105.262 105.117 104.907 104.722 104.519 104.317 104.102 103.897 103.684 103.517 103.347 103.207 103.072 102.952 102.842 102.727 102.647 102.557 102.499 102.394 102.279 102.187 102.039 101.919 101.789 101.657 101.502 101.357 101.232 101.082 100.987 100.892 100.744 100.672 100.584 100.497 100.374 100.292 100.169 100.002 99.879 99.742 99.609 99.524 99.464 99.429 99.382 99.324 99.269 99.304 100.212 99.234 98.569 98.604 98.639 98.594 98.539 98.474 98.357 98.304 98.257 98.177 98.079 98.064 98.019 97.932 97.862 97.819 97.774 97.742 97.724 97.694 97.672 97.624 97.594 97.574 97.519 97.524 97.502 97.472 97.429 97.412 97.334 97.332 97.324 97.294 97.274 97.212 97.174 97.142 97.104 97.072 97.032 96.992 96.994 96.952 96.904 96.914 96.894 96.887 96.854 96.839 96.837 96.822 96.799 96.812 96.824 96.792 96.824 96.797 96.799 96.874 96.902 96.929 96.962 97.034 97.072 97.127 97.192 97.279 97.359 97.417 97.489 97.557 97.609 97.702 97.747 97.834 97.897 97.967 97.997 98.057 98.107 98.154 98.199 98.239 98.267 98.292 98.324 98.342 98.372 98.384 98.382 98.407 98.394 98.427 98.429 98.419 98.411 98.401 98.394 98.371 98.346 98.336 98.319 98.294 98.251 98.244 98.246 98.204 98.146 98.101 98.061 98.006 97.921 97.849 97.749 97.644 97.519 97.381 97.276 97.129 96.994 96.819 96.666 96.519 96.339 96.184 95.984 95.814 95.659 95.456 95.281 95.106 94.939 94.766 94.589 94.409 94.244 94.061 93.904 93.711 93.551 93.384 93.226 93.024 92.831 92.641 92.441 92.234 92.016 91.776 91.566 91.326 91.121 90.914 90.711 90.456 90.301 90.074 89.786 90.074 89.796 88.249 87.869 87.779 89.246 87.274 86.821 86.791 85.701 85.356 84.796 84.834 83.849 83.049 82.134 81.304 82.244 81.069 78.666 77.539 76.701 75.784 75.691 76.704 73.676 72.189 71.261 70.551 69.839 68.776 67.996 67.486 66.854 66.269 65.481 64.928 64.208 63.588 62.696 62.078 61.628 60.576 60.026 60.446 58.881 57.491 56.746 56.223 55.498 54.846 55.163 53.606 52.396 51.538 50.711 50.046 49.466 48.883 48.378 47.976 47.613 47.281 47.016 46.753 46.518 46.293 46.073 45.791 45.548 45.516 46.041 46.323 46.598 46.961 47.298 47.616 47.936 48.163 49.631 49.463 49.556 49.918 50.258 50.486 50.703 51.188 51.581 52.002 52.392 52.834 53.288 53.751 54.27 54.774 55.3 55.792 56.36 56.905 57.523 58.111 58.65 59.188 59.738 60.273 60.743 61.303 61.803 62.311 62.801 63.326 63.861 64.426 64.976 65.523 66.111 66.718 67.338 67.936 68.536 69.146 69.766 70.368 70.936 71.551 72.138 72.738 73.338 73.921 74.526 75.113 75.731 76.376 77.011 77.671 78.328 78.928 79.566 80.253 80.911 81.571 82.306 82.893 83.418 84.438 85.106 86.081 86.876 87.746 88.723 89.778 90.961 91.916 92.373 92.311 92.561 92.993 93.426 93.871 94.348 94.931 95.513 95.998 96.441 96.856 97.233 97.586 97.901 98.181 98.383 98.533 98.653 98.748 98.728 98.651 98.543 98.403 98.233 97.976 97.761 97.548 97.321 96.998 96.643 96.351 96.063 95.78
105.797 105.629 105.474 105.292 105.092 104.902 104.699 104.492 104.319 104.137 103.952 103.782 103.632 103.489 103.364 103.257 103.164 103.072 102.974 102.854 102.737 102.627 102.509 102.377 102.234 102.082 101.934 101.752 101.614 101.477 101.354 101.244 101.172 101.054 100.954 100.879 100.749 100.719 100.619 100.464 100.304 100.142 100.012 99.909 99.842 99.797 99.737 99.677 99.594 99.547 99.567 100.322 99.824 98.897 98.879 98.869 98.859 98.779 98.729 98.629 98.587 98.519 98.444 98.374 98.359 98.327 98.239 98.167 98.112 98.092 98.052 98.024 97.979 97.954 97.947 97.894 97.902 97.819 97.822 97.802 97.742 97.702 97.667 97.642 97.632 97.587 97.577 97.549 97.529 97.482 97.457 97.404 97.369 97.349 97.294 97.287 97.262 97.227 97.197 97.162 97.164 97.137 97.117 97.117 97.074 97.074 97.082 97.084 97.074 97.104 97.077 97.087 97.127 97.157 97.187 97.212 97.287 97.342 97.397 97.462 97.537 97.594 97.667 97.754 97.829 97.859 97.969 98.029 98.089 98.149 98.237 98.292 98.357 98.394 98.457 98.497 98.494 98.537 98.549 98.569 98.612 98.619 98.634 98.624 98.639 98.652 98.654 98.657 98.641 98.631 98.586 98.589 98.546 98.539 98.489 98.469 98.449 98.401 98.389 98.371 98.316 98.271 98.221 98.166 98.114 98.039 97.959 97.859 97.784 97.669 97.561 97.396 97.264 97.126 96.976 96.816 96.656 96.454 96.299 96.124 95.929 95.759 95.566 95.366 95.231 95.036 94.864 94.719 94.544 94.359 94.171 94.034 93.849 93.666 93.491 93.331 93.149 92.969 92.771 92.561 92.391 92.159 91.951 91.731 91.491 91.271 91.074 90.876 90.606 90.469 90.281 89.999 90.199 90.026 90.261 88.434 88.141 87.524 87.086 87.706 90.449 86.199 85.696 85.204 86.094 84.886 84.001 83.456 82.776 81.046 79.986 79.111 77.894 76.921 76.494 75.801 74.389 73.219 72.464 71.651 70.719 69.959 69.204 68.361 67.574 67.094 66.619 65.984 65.233 64.461 63.686 63.033 62.378 61.598 60.813 61.478 62.438 60.318 58.098 57.121 56.331 55.533 56.098 53.656 53.231 52.366 51.396 50.638 50.008 49.428 48.871 48.336 47.906 47.553 47.246 46.958 46.711 46.451 46.223 45.993 45.731 45.506 45.443 45.986 46.241 46.538 46.873 47.171 47.466 47.808 48.066 49.216 49.421 49.386 49.728 50.113 50.371 50.541 51.016 51.428 51.844 52.236 52.682 53.132 53.614 54.094 54.616 55.126 55.647 56.199 56.74 57.348 57.941 58.495 59.046 59.573 60.126 60.636 61.158 61.721 62.213 62.721 63.263 63.781 64.331 64.931 65.513 66.078 66.678 67.296 67.911 68.553 69.178 69.798 70.396 70.983 71.558 72.128 72.736 73.348 73.918 74.521 75.118 75.748 76.373 77.066 77.678 78.293 78.948 79.566 80.163 80.826 81.486 82.243 82.818 83.338 84.248 85.078 85.953 87.051 87.771 88.468 89.301 90.366 91.641 92.586 92.468 92.613 92.958 93.366 93.788 94.213 94.766 95.438 95.956 96.438 96.868 97.256 97.593 97.916 98.221 98.468 98.628 98.743 98.836 98.846 98.803 98.718 98.603 98.426 98.196 97.996 97.758 97.526 97.223 96.891 96.553 96.286 95.965
106.129 105.977 105.824 105.632 105.479 105.284 105.084 104.889 104.727 104.574 104.384 104.217 104.062 103.929 103.812 103.684 103.562 103.449 103.329 103.222 103.094 102.962 102.814 102.679 102.509 102.342 102.177 102.019 101.869 101.749 101.637 101.549 101.447 101.367 101.299 101.184 101.057 100.972 100.832 100.692 100.552 100.419 100.304 100.252 100.177 100.087 100.037 99.947 99.882 99.837 99.857 100.497 100.312 99.182 99.139 99.112 99.084 99.057 98.969 98.907 98.849 98.764 98.719 98.669 98.637 98.592 98.514 98.504 98.419 98.384 98.337 98.324 98.259 98.267 98.227 98.194 98.159 98.144 98.087 98.072 98.064 97.987 97.974 97.952 97.914 97.914 97.907 97.867 97.814 97.782 97.757 97.732 97.714 97.654 97.624 97.607 97.554 97.524 97.507 97.502 97.464 97.449 97.409 97.412 97.399 97.374 97.354 97.377 97.367 97.327 97.359 97.374 97.417 97.432 97.439 97.477 97.547 97.597 97.649 97.742 97.814 97.867 97.937 98.019 98.084 98.139 98.232 98.329 98.397 98.449 98.524 98.582 98.637 98.679 98.717 98.742 98.774 98.822 98.844 98.864 98.869 98.902 98.879 98.872 98.884 98.887 98.872 98.889 98.861 98.844 98.824 98.779 98.764 98.709 98.659 98.634 98.599 98.564 98.526 98.519 98.456 98.419 98.346 98.306 98.254 98.151 98.064 97.969 97.886 97.786 97.679 97.539 97.396 97.256 97.114 96.931 96.774 96.606 96.416 96.256 96.061 95.909 95.726 95.519 95.374 95.186 95.019 94.824 94.654 94.494 94.334 94.141 93.991 93.804 93.629 93.421 93.269 93.111 92.881 92.724 92.519 92.309 92.084 91.891 91.651 91.426 91.229 91.016 90.761 90.576 90.456 90.196 90.196 91.111 91.364 88.749 87.966 87.634 87.426 88.096 87.439 86.149 85.804 85.324 85.964 84.516 89.091 85.471 82.141 81.239 80.399 79.279 78.241 77.326 76.526 75.596 74.286 73.491 74.316 71.874 71.044 70.319 69.299 68.474 67.936 67.249 66.824 65.941 65.503 64.813 64.381 63.436 63.023 61.936 61.146 60.653 60.056 59.886 59.078 57.248 60.901 61.641 58.078 53.991 53.428 52.273 51.311 50.751 50.013 49.446 48.853 48.348 47.893 47.533 47.208 46.903 46.648 46.378 46.151 45.916 45.678 45.438 45.411 45.911 46.168 46.448 46.758 47.058 47.346 47.668 47.948 48.878 49.346 49.218 49.558 49.883 50.251 50.381 50.843 51.273 51.696 52.101 52.571 53.009 53.488 53.962 54.464 54.983 55.5 56.038 56.581 57.178 57.769 58.333 58.896 59.441 59.973 60.493 61.023 61.541 62.108 62.661 63.161 63.693 64.261 64.823 65.426 65.991 66.616 67.266 67.896 68.486 69.111 69.741 70.358 70.951 71.521 72.108 72.693 73.296 73.896 74.531 75.108 75.711 76.341 77.021 77.668 78.283 78.906 79.526 80.146 80.788 81.468 82.246 82.743 83.293 84.133 85.003 85.863 86.663 87.603 88.238 89.023 89.793 91.068 92.313 92.681 92.673 92.913 93.306 93.723 94.096 94.583 95.231 95.851 96.363 96.843 97.236 97.596 97.906 98.223 98.503 98.721 98.898 98.981 98.966 98.976 98.873 98.808 98.631 98.403 98.183 97.978 97.741 97.448 97.138 96.783 96.421 96.135
106.462 106.309 106.149 106.019 105.864 105.687 105.479 105.317 105.172 105.017 104.844 104.677 104.524 104.387 104.239 104.114 103.982 103.842 103.704 103.534 103.414 103.272 103.104 102.924 102.784 102.597 102.462 102.297 102.184 102.064 101.942 101.862 101.787 101.714 101.599 101.454 101.322 101.167 101.037 100.914 100.792 100.682 100.582 100.522 100.482 100.412 100.302 100.202 100.112 100.109 100.137 100.469 100.674 99.422 99.362 99.367 99.354 99.347 99.264 99.207 99.127 99.054 98.992 98.967 98.912 98.824 98.792 98.734 98.732 98.682 98.624 98.577 98.552 98.542 98.517 98.474 98.442 98.434 98.394 98.362 98.347 98.282 98.302 98.297 98.249 98.227 98.197 98.157 98.154 98.122 98.074 98.057 98.027 98.002 97.947 97.939 97.904 97.887 97.849 97.814 97.804 97.777 97.724 97.712 97.737 97.719 97.687 97.677 97.659 97.682 97.669 97.677 97.704 97.722 97.752 97.797 97.824 97.874 97.957 98.027 98.084 98.162 98.219 98.289 98.364 98.439 98.512 98.619 98.704 98.747 98.797 98.882 98.944 98.984 99.017 99.062 99.107 99.109 99.127 99.137 99.142 99.152 99.172 99.152 99.162 99.154 99.149 99.139 99.091 99.086 99.041 99.011 98.956 98.894 98.851 98.801 98.764 98.734 98.701 98.651 98.601 98.549 98.496 98.441 98.364 98.289 98.189 98.121 98.001 97.909 97.799 97.676 97.514 97.401 97.246 97.081 96.919 96.771 96.601 96.414 96.224 96.029 95.854 95.674 95.496 95.329 95.139 94.971 94.801 94.621 94.419 94.281 94.094 93.936 93.779 93.571 93.374 93.234 93.014 92.846 92.676 92.446 92.244 92.031 91.784 91.586 91.349 91.171 90.929 90.716 90.596 90.396 90.351 90.911 90.046 88.636 88.386 87.974 87.651 87.299 86.889 86.564 86.041 85.871 85.269 84.936 86.416 85.611 82.874 81.831 80.799 79.951 78.901 77.556 76.629 75.641 74.861 73.809 74.219 72.886 71.281 70.341 69.571 68.786 68.179 67.611 67.046 67.264 65.568 65.041 64.436 63.638 63.683 62.208 61.548 60.713 59.673 59.301 58.546 57.426 60.223 64.771 54.826 54.003 53.938 52.688 51.521 51.013 50.158 49.428 48.853 48.353 47.916 47.528 47.183 46.868 46.603 46.348 46.096 45.863 45.626 45.338 45.291 45.868 46.116 46.413 46.673 46.976 47.236 47.533 47.791 48.488 49.351 49.086 49.361 49.761 50.111 50.193 50.638 51.093 51.524 51.969 52.417 52.873 53.345 53.801 54.306 54.825 55.355 55.908 56.464 57.006 57.609 58.183 58.733 59.261 59.816 60.341 60.868 61.428 61.931 62.541 63.098 63.603 64.183 64.768 65.336 65.938 66.568 67.213 67.853 68.478 69.076 69.688 70.266 70.883 71.446 72.051 72.633 73.238 73.858 74.466 75.088 75.703 76.311 76.946 77.618 78.223 78.861 79.481 80.121 80.791 81.461 82.151 82.698 83.261 84.061 84.868 85.738 86.438 87.158 87.828 88.726 89.496 90.641 91.531 92.623 92.913 92.963 93.271 93.653 94.073 94.461 95.031 95.668 96.248 96.743 97.173 97.548 97.896 98.246 98.521 98.788 98.951 99.108 99.171 99.153 99.061 98.931 98.816 98.603 98.366 98.156 97.923 97.646 97.318 96.986 96.616 96.295
106.789 106.649 106.524 106.362 106.229 106.069 105.917 105.747 105.612 105.449 105.252 105.084 104.949 104.824 104.654 104.504 104.337 104.189 104.019 103.862 103.729 103.567 103.392 103.227 103.077 102.899 102.757 102.597 102.477 102.339 102.234 102.122 102.039 101.959 101.812 101.684 101.564 101.429 101.289 101.177 101.079 100.969 100.894 100.817 100.749 100.669 100.604 100.469 100.392 100.397 100.407 100.597 101.077 99.714 99.627 99.639 99.624 99.602 99.547 99.472 99.444 99.347 99.279 99.272 99.182 99.132 99.089 99.037 99.017 98.979 98.917 98.877 98.864 98.809 98.802 98.777 98.749 98.744 98.709 98.654 98.644 98.614 98.612 98.572 98.549 98.557 98.527 98.497 98.492 98.447 98.439 98.404 98.379 98.384 98.329 98.289 98.254 98.229 98.192 98.194 98.127 98.127 98.079 98.072 98.062 98.047 98.022 98.032 97.992 97.982 97.982 97.999 98.009 98.039 98.059 98.119 98.139 98.162 98.247 98.324 98.389 98.444 98.529 98.569 98.654 98.742 98.809 98.894 99.012 99.052 99.104 99.217 99.262 99.297 99.327 99.357 99.419 99.419 99.432 99.429 99.444 99.449 99.419 99.429 99.409 99.419 99.417 99.372 99.326 99.321 99.296 99.226 99.189 99.111 99.046 98.989 98.921 98.906 98.851 98.799 98.769 98.669 98.641 98.571 98.484 98.409 98.344 98.256 98.156 98.071 97.959 97.799 97.664 97.524 97.399 97.249 97.081 96.909 96.721 96.554 96.371 96.211 96.026 95.819 95.641 95.459 95.301 95.086 94.929 94.751 94.569 94.414 94.251 94.079 93.881 93.694 93.504 93.346 93.156 92.989 92.796 92.604 92.396 92.156 91.924 91.721 91.506 91.294 91.091 90.869 90.724 90.559 90.374 90.669 90.476 89.549 89.166 88.189 87.939 87.496 87.114 86.691 86.266 85.894 85.831 84.994 84.999 83.661 83.074 82.164 81.099 80.286 79.154 77.871 79.596 78.566 74.971 73.991 73.301 74.216 74.169 72.746 69.781 69.254 69.111 70.004 73.181 70.806 65.998 65.146 64.566 63.796 62.921 62.358 61.478 60.766 59.998 59.363 58.438 57.391 56.501 55.851 55.036 54.041 53.368 54.871 51.791 50.896 50.358 49.571 48.896 48.373 47.911 47.513 47.186 46.841 46.581 46.308 46.038 45.801 45.541 45.216 45.328 45.866 46.088 46.326 46.576 46.868 47.113 47.428 47.671 48.211 49.323 49.006 49.261 49.576 49.923 50.061 50.426 50.913 51.34 51.784 52.243 52.718 53.214 53.672 54.171 54.698 55.217 55.758 56.313 56.857 57.407 57.98 58.518 59.066 59.596 60.141 60.688 61.236 61.801 62.353 62.966 63.548 64.113 64.676 65.248 65.808 66.408 67.051 67.701 68.353 69.026 69.596 70.201 70.778 71.363 71.973 72.573 73.198 73.783 74.408 75.031 75.663 76.258 76.928 77.571 78.181 78.801 79.451 80.106 80.791 81.443 82.088 82.633 83.231 83.986 84.743 85.518 86.268 86.986 87.641 88.378 89.121 90.098 91.118 92.376 93.261 93.081 93.273 93.601 94.013 94.426 94.873 95.403 96.018 96.593 97.068 97.456 97.836 98.203 98.503 98.793 98.978 99.118 99.218 99.248 99.208 99.096 98.946 98.756 98.538 98.318 98.066 97.803 97.476 97.133 96.798 96.46
107.102 106.997 106.862 106.717 106.584 106.437 106.319 106.164 106.047 105.894 105.712 105.547 105.379 105.227 105.047 104.872 104.702 104.537 104.359 104.214 104.057 103.887 103.717 103.564 103.397 103.229 103.069 102.902 102.737 102.597 102.494 102.369 102.269 102.164 102.034 101.927 101.807 101.687 101.587 101.462 101.377 101.269 101.187 101.104 101.044 100.939 100.862 100.742 100.684 100.672 100.692 100.789 101.762 99.984 99.904 99.874 99.897 99.852 99.847 99.782 99.724 99.632 99.572 99.544 99.459 99.442 99.367 99.342 99.342 99.267 99.227 99.172 99.164 99.119 99.114 99.089 99.039 99.047 98.997 98.964 98.944 98.932 98.947 98.932 98.907 98.884 98.879 98.854 98.859 98.834 98.809 98.779 98.754 98.742 98.674 98.647 98.642 98.619 98.569 98.531 98.531 98.491 98.446 98.449 98.424 98.416 98.381 98.361 98.359 98.344 98.349 98.346 98.336 98.374 98.401 98.451 98.449 98.546 98.601 98.646 98.676 98.766 98.839 98.891 98.969 99.046 99.151 99.239 99.284 99.379 99.451 99.506 99.574 99.621 99.654 99.669 99.699 99.706 99.729 99.709 99.726 99.721 99.726 99.704 99.679 99.679 99.666 99.621 99.609 99.569 99.519 99.471 99.411 99.326 99.261 99.226 99.146 99.096 99.051 98.974 98.934 98.871 98.811 98.741 98.641 98.569 98.469 98.401 98.301 98.206 98.084 97.944 97.824 97.689 97.561 97.389 97.229 97.074 96.914 96.721 96.541 96.374 96.189 96.009 95.809 95.636 95.461 95.269 95.074 94.914 94.721 94.551 94.381 94.209 94.036 93.854 93.664 93.489 93.306 93.091 92.946 92.734 92.514 92.281 92.074 91.861 91.684 91.441 91.229 91.009 90.861 90.676 90.381 90.656 90.451 90.281 89.316 88.364 88.154 87.631 87.251 88.959 86.416 86.124 85.614 85.174 84.616 83.964 83.334 82.559 81.866 80.821 79.609 78.366 79.359 76.574 75.686 75.564 75.601 73.201 72.061 71.619 71.256 69.251 68.581 68.414 72.081 66.559 65.891 65.466 64.691 63.773 63.148 62.301 61.676 60.848 62.573 67.176 59.953 58.276 56.648 55.946 55.081 54.141 53.678 55.486 52.481 52.613 50.111 49.498 48.946 48.416 47.928 47.516 47.181 46.836 46.543 46.268 45.996 45.771 45.486 45.093 45.336 45.863 46.043 46.261 46.481 46.743 47.021 47.321 47.571 47.971 49.163 49.028 49.071 49.343 49.738 49.923 50.213 50.711 51.158 51.585 52.043 52.573 53.055 53.522 54.029 54.539 55.056 55.613 56.138 56.69 57.221 57.749 58.326 58.861 59.403 59.926 60.491 61.073 61.651 62.258 62.803 63.403 63.983 64.563 65.151 65.748 66.346 66.948 67.548 68.203 68.828 69.471 70.068 70.671 71.228 71.841 72.433 73.076 73.726 74.328 74.988 75.611 76.231 76.881 77.523 78.143 78.77 79.428 80.093 80.768 81.388 82.048 82.6 83.168 83.95 84.698 85.438 86.165 86.84 87.458 88.12 88.838 89.67 90.533 91.66 92.848 93.498 93.368 93.56 93.93 94.365 94.76 95.25 95.768 96.345 96.878 97.315 97.7 98.108 98.443 98.763 98.985 99.113 99.258 99.323 99.31 99.233 99.075 98.905 98.68 98.465 98.198 97.92 97.608 97.275 96.93 96.57
107.452 107.337 107.254 107.107 106.982 106.874 106.747 106.584 106.442 106.312 106.122 105.939 105.777 105.592 105.427 105.219 105.047 104.872 104.699 104.549 104.382 104.212 104.037 103.867 103.707 103.522 103.359 103.184 103.049 102.902 102.769 102.657 102.527 102.382 102.314 102.219 102.124 101.999 101.882 101.774 101.677 101.572 101.474 101.369 101.292 101.202 101.129 101.037 100.964 100.932 100.969 101.034 101.787 100.697 100.199 100.142 100.169 100.122 100.127 100.052 99.994 99.947 99.879 99.809 99.744 99.737 99.702 99.697 99.612 99.577 99.524 99.492 99.479 99.427 99.419 99.397 99.339 99.337 99.322 99.267 99.309 99.307 99.287 99.267 99.302 99.279 99.249 99.257 99.224 99.217 99.199 99.199 99.152 99.127 99.092 99.054 99.027 98.964 98.966 98.929 98.919 98.859 98.849 98.841 98.806 98.804 98.781 98.749 98.749 98.734 98.714 98.729 98.736 98.719 98.794 98.776 98.839 98.884 98.949 98.981 99.041 99.094 99.159 99.231 99.291 99.381 99.456 99.551 99.611 99.704 99.756 99.851 99.911 99.934 99.979 99.999 100.006 100.024 100.026 100.044 100.024 100.004 100.006 99.999 99.954 99.951 99.939 99.876 99.866 99.841 99.776 99.756 99.639 99.574 99.494 99.439 99.361 99.314 99.244 99.166 99.091 99.056 98.954 98.919 98.836 98.734 98.604 98.554 98.449 98.356 98.246 98.121 97.986 97.849 97.704 97.539 97.369 97.216 97.076 96.891 96.694 96.561 96.339 96.161 95.961 95.789 95.606 95.414 95.251 95.046 94.866 94.714 94.539 94.351 94.174 94.009 93.816 93.624 93.449 93.231 93.061 92.859 92.654 92.439 92.216 91.991 91.766 91.576 91.354 91.136 90.971 90.779 90.496 90.766 90.721 89.374 89.009 88.746 88.419 87.981 87.391 87.154 88.019 87.406 85.856 85.149 84.904 84.279 83.641 82.899 82.221 81.281 79.861 78.759 77.769 78.284 83.999 76.929 74.161 73.559 73.239 76.871 72.314 69.244 68.569 68.021 67.414 66.811 66.196 66.746 64.938 63.926 63.063 62.606 61.568 64.431 61.546 64.156 66.166 60.916 56.821 56.708 56.228 53.961 53.598 56.103 54.713 55.656 50.673 49.618 48.956 48.418 47.938 47.521 47.178 46.831 46.508 46.233 45.951 45.708 45.456 45.076 45.313 45.793 45.971 46.166 46.401 46.623 46.873 47.166 47.451 47.611 48.601 49.101 48.868 49.108 49.538 49.746 49.968 50.559 51.033 51.417 51.851 52.366 52.878 53.35 53.873 54.366 54.889 55.415 55.936 56.508 57.054 57.59 58.101 58.648 59.168 59.721 60.288 60.903 61.503 62.091 62.713 63.286 63.833 64.408 65.023 65.598 66.213 66.806 67.381 67.993 68.626 69.278 69.923 70.543 71.141 71.748 72.348 72.921 73.551 74.223 74.856 75.518 76.166 76.828 77.451 78.071 78.708 79.348 80.02 80.695 81.35 82.003 82.568 83.105 83.878 84.588 85.328 86.005 86.658 87.295 87.953 88.625 89.35 90.17 91.493 92.365 93.433 93.568 93.603 93.858 94.26 94.68 95.093 95.588 96.128 96.695 97.145 97.55 97.955 98.368 98.713 98.958 99.158 99.298 99.388 99.408 99.365 99.213 98.998 98.815 98.595 98.303 98.033 97.76 97.395 97.06 96.685
107.827 107.709 107.579 107.442 107.304 107.217 107.069 106.932 106.799 106.659 106.492 106.322 106.109 105.929 105.722 105.519 105.362 105.192 105.034 104.839 104.649 104.464 104.284 104.089 103.927 103.817 103.697 103.509 103.372 103.169 103.027 102.932 102.799 102.704 102.612 102.509 102.417 102.332 102.217 102.064 101.939 101.812 101.734 101.639 101.577 101.477 101.412 101.324 101.229 101.169 101.229 101.202 101.857 101.042 100.437 100.414 100.444 100.397 100.397 100.334 100.287 100.219 100.152 100.082 100.052 100.029 99.997 99.969 99.902 99.889 99.832 99.774 99.772 99.737 99.752 99.727 99.694 99.672 99.654 99.632 99.619 99.652 99.654 99.647 99.642 99.639 99.642 99.662 99.652 99.629 99.614 99.599 99.582 99.549 99.497 99.487 99.457 99.442 99.434 99.349 99.324 99.279 99.254 99.224 99.231 99.204 99.166 99.151 99.116 99.126 99.101 99.104 99.109 99.124 99.131 99.144 99.219 99.246 99.274 99.331 99.389 99.434 99.511 99.559 99.639 99.734 99.806 99.866 99.969 100.029 100.106 100.166 100.206 100.269 100.299 100.299 100.339 100.346 100.349 100.336 100.326 100.336 100.291 100.309 100.249 100.184 100.191 100.149 100.124 100.066 100.009 99.944 99.871 99.811 99.734 99.649 99.569 99.514 99.436 99.366 99.289 99.244 99.126 99.064 99.016 98.904 98.804 98.701 98.611 98.484 98.359 98.261 98.121 97.999 97.841 97.709 97.556 97.381 97.249 97.029 96.869 96.694 96.519 96.321 96.129 95.956 95.771 95.604 95.396 95.211 95.021 94.844 94.654 94.501 94.269 94.114 93.931 93.744 93.586 93.369 93.194 92.986 92.779 92.569 92.329 92.099 91.891 91.679 91.464 91.244 91.061 90.869 90.584 90.619 91.191 89.721 89.281 89.029 88.621 88.404 88.594 87.416 86.961 86.804 85.871 85.269 85.094 84.426 83.899 83.199 83.614 83.504 80.571 79.294 78.104 76.804 75.711 74.726 74.186 72.976 72.969 79.624 75.269 71.089 68.796 68.269 67.566 67.024 66.336 67.268 65.038 63.941 63.198 62.548 61.733 61.093 61.856 64.001 58.811 57.521 63.181 58.711 55.876 54.146 53.248 55.523 54.623 50.898 50.346 49.678 49.018 48.441 47.948 47.51 47.151 46.79 46.467 46.22 45.903 45.651 45.389 44.966 45.164 45.63 45.806 46.024 46.25 46.478 46.767 47.03 47.293 47.467 48.188 48.98 48.679 48.902 49.233 49.596 49.75 50.333 50.803 51.229 51.664 52.162 52.694 53.197 53.7 54.219 54.729 55.272 55.803 56.326 56.875 57.384 57.931 58.458 58.991 59.551 60.143 60.731 61.338 61.953 62.543 63.106 63.723 64.263 64.868 65.491 66.068 66.711 67.248 67.821 68.428 69.086 69.711 70.383 71.026 71.638 72.256 72.873 73.476 74.146 74.786 75.408 76.066 76.736 77.378 78.013 78.658 79.29 79.948 80.623 81.31 81.955 82.505 83.078 83.818 84.538 85.225 85.865 86.538 87.155 87.813 88.435 89.138 89.93 90.68 91.738 92.878 93.683 93.753 93.868 94.183 94.595 94.993 95.41 95.915 96.478 96.95 97.38 97.808 98.235 98.605 98.935 99.143 99.298 99.453 99.525 99.495 99.35 99.14 98.913 98.733 98.433 98.143 97.863 97.508 97.16 96.77
108.134 107.997 107.874 107.717 107.579 107.467 107.367 107.229 107.072 106.939 106.762 106.607 106.409 106.204 105.992 105.842 105.669 105.477 105.279 105.102 104.914 104.727 104.537 104.352 104.199 104.067 103.939 103.747 103.614 103.472 103.332 103.214 103.092 102.989 102.934 102.837 102.737 102.614 102.492 102.329 102.204 102.099 101.999 101.909 101.849 101.742 101.684 101.604 101.522 101.439 101.474 101.432 102.119 101.554 100.714 100.679 100.712 100.692 100.684 100.629 100.594 100.549 100.449 100.399 100.352 100.324 100.304 100.299 100.224 100.207 100.162 100.107 100.137 100.074 100.084 100.077 100.052 100.024 100.012 100.009 100.002 100.047 100.047 100.022 100.034 100.074 100.074 100.057 100.077 100.039 100.054 100.054 100.044 99.984 99.969 99.919 99.899 99.872 99.866 99.789 99.731 99.729 99.699 99.634 99.649 99.606 99.601 99.564 99.566 99.521 99.494 99.509 99.499 99.539 99.519 99.566 99.594 99.626 99.684 99.709 99.759 99.801 99.854 99.914 99.996 100.074 100.139 100.214 100.269 100.371 100.451 100.501 100.556 100.601 100.636 100.649 100.666 100.661 100.686 100.659 100.634 100.601 100.599 100.561 100.519 100.471 100.431 100.399 100.359 100.314 100.269 100.186 100.104 100.039 99.941 99.879 99.791 99.701 99.654 99.539 99.504 99.424 99.329 99.254 99.184 99.069 98.951 98.831 98.771 98.641 98.526 98.404 98.284 98.159 97.981 97.826 97.689 97.536 97.384 97.221 97.014 96.854 96.704 96.496 96.326 96.116 95.949 95.741 95.551 95.329 95.171 95.004 94.821 94.634 94.429 94.236 94.066 93.899 93.694 93.494 93.291 93.071 92.884 92.654 92.434 92.196 91.994 91.781 91.526 91.331 91.106 90.926 90.676 90.559 90.686 89.856 89.289 89.179 88.834 88.321 87.714 87.404 87.049 86.464 85.881 85.586 85.046 84.601 83.981 83.399 83.916 83.839 80.691 79.371 78.196 77.994 78.926 76.576 74.504 73.369 74.526 72.791 75.684 72.776 68.936 68.111 67.731 67.186 66.463 69.466 66.128 64.131 63.333 62.473 61.828 61.118 60.628 60.967 58.63 58.98 65.454 57.115 54.888 54.042 53.379 54.693 52.845 50.959 50.459 49.672 48.945 48.443 47.953 47.532 47.155 46.776 46.446 46.191 45.887 45.617 45.386 44.967 44.833 45.405 45.671 45.874 46.062 46.322 46.598 46.853 47.108 47.323 47.779 48.92 48.583 48.776 48.989 49.435 49.572 50.077 50.499 50.981 51.446 51.966 52.496 53.004 53.505 54.038 54.528 55.101 55.645 56.183 56.695 57.203 57.731 58.286 58.816 59.376 59.971 60.573 61.178 61.791 62.418 62.991 63.543 64.161 64.731 65.333 65.928 66.533 67.093 67.678 68.231 68.818 69.493 70.156 70.798 71.473 72.083 72.718 73.351 74.018 74.671 75.336 75.971 76.623 77.311 77.961 78.603 79.223 79.88 80.548 81.233 81.913 82.425 82.995 83.713 84.415 85.125 85.728 86.388 87.083 87.73 88.345 88.925 89.633 90.38 91.298 92.268 93.465 93.91 93.88 94.113 94.465 94.875 95.23 95.655 96.2 96.705 97.175 97.605 98.06 98.505 98.865 99.133 99.308 99.533 99.653 99.645 99.493 99.288 99.063 98.788 98.528 98.243 97.943 97.598 97.228 96.833
108.389 108.242 108.144 108.007 107.884 107.737 107.634 107.484 107.319 107.154 107.032 106.859 106.684 106.459 106.272 106.094 105.899 105.747 105.537 105.357 105.164 104.947 104.757 104.637 104.504 104.367 104.182 104.039 103.879 103.749 103.637 103.519 103.414 103.347 103.257 103.152 103.032 102.904 102.787 102.632 102.514 102.384 102.279 102.192 102.117 102.019 101.947 101.899 101.792 101.727 101.742 101.704 102.297 101.937 100.987 100.964 100.979 100.969 100.967 100.932 100.857 100.814 100.772 100.694 100.672 100.642 100.639 100.599 100.562 100.532 100.499 100.434 100.449 100.437 100.424 100.437 100.394 100.397 100.392 100.417 100.397 100.417 100.452 100.459 100.477 100.479 100.514 100.497 100.502 100.499 100.532 100.494 100.502 100.452 100.402 100.382 100.362 100.332 100.271 100.251 100.239 100.156 100.156 100.091 100.114 100.074 100.029 100.004 99.999 99.971 99.939 99.929 99.931 99.954 99.934 99.996 100.021 100.044 100.064 100.106 100.131 100.199 100.264 100.301 100.376 100.426 100.521 100.589 100.629 100.711 100.771 100.861 100.894 100.936 100.974 100.981 100.986 101.009 100.989 100.941 100.939 100.901 100.881 100.856 100.789 100.746 100.684 100.651 100.619 100.576 100.514 100.429 100.339 100.251 100.181 100.089 100.019 99.901 99.861 99.776 99.696 99.614 99.561 99.434 99.364 99.254 99.166 99.006 98.924 98.796 98.669 98.544 98.426 98.301 98.136 97.986 97.849 97.696 97.549 97.379 97.191 96.986 96.841 96.684 96.501 96.271 96.099 95.914 95.719 95.536 95.346 95.191 94.994 94.766 94.591 94.389 94.221 93.989 93.824 93.594 93.401 93.184 92.974 92.734 92.514 92.291 92.054 91.851 91.586 91.399 91.171 90.976 90.764 90.496 90.986 90.066 89.269 89.006 88.684 89.266 88.141 87.649 87.149 86.639 86.044 85.619 84.941 84.549 84.016 83.399 82.534 81.569 80.509 79.654 82.664 80.546 82.711 75.204 78.194 75.261 72.424 71.794 72.644 72.139 69.189 68.471 67.746 67.116 68.131 69.081 65.995 64.461 64.213 62.581 61.58 60.876 60.307 59.26 58.489 57.625 58.791 55.82 55.001 55.939 53.263 52.725 57.923 51.18 50.346 49.743 48.961 48.446 47.959 47.53 47.134 46.775 46.418 46.161 45.853 45.583 45.358 45.051 44.666 45.22 45.511 45.712 45.909 46.167 46.428 46.661 46.923 47.18 47.489 48.685 48.457 48.587 48.773 49.264 49.432 49.86 50.282 50.721 51.224 51.745 52.264 52.771 53.3 53.851 54.32 54.86 55.416 55.967 56.55 57.042 57.563 58.133 58.681 59.233 59.816 60.418 61.026 61.628 62.251 62.868 63.486 64.018 64.556 65.146 65.746 66.321 66.903 67.501 68.063 68.681 69.296 69.936 70.596 71.246 71.933 72.566 73.221 73.868 74.498 75.166 75.806 76.491 77.206 77.853 78.505 79.135 79.783 80.448 81.113 81.798 82.323 82.863 83.648 84.313 85.008 85.668 86.308 86.985 87.673 88.258 88.865 89.418 90.155 91.005 91.835 93.145 93.913 93.998 94.11 94.38 94.738 95.115 95.463 95.923 96.428 96.928 97.365 97.853 98.36 98.778 99.105 99.35 99.628 99.79 99.77 99.648 99.453 99.2 98.885 98.603 98.315 98 97.653 97.263 96.89
108.637 108.512 108.404 108.272 108.137 108.024 107.892 107.714 107.532 107.377 107.222 107.067 106.909 106.732 106.552 106.367 106.167 105.952 105.739 105.554 105.399 105.224 105.052 104.919 104.757 104.599 104.457 104.324 104.179 104.057 103.937 103.824 103.744 103.657 103.562 103.439 103.329 103.192 103.059 102.897 102.789 102.672 102.562 102.462 102.377 102.332 102.237 102.174 102.087 102.009 102.014 101.992 102.359 102.854 101.289 101.244 101.247 101.257 101.259 101.244 101.189 101.119 101.062 100.989 100.982 100.942 100.957 100.919 100.882 100.852 100.832 100.802 100.797 100.802 100.812 100.757 100.759 100.757 100.787 100.829 100.824 100.857 100.857 100.887 100.892 100.909 100.942 100.984 100.979 101.014 100.979 100.984 100.992 100.927 100.912 100.862 100.852 100.817 100.751 100.719 100.691 100.659 100.601 100.576 100.541 100.526 100.496 100.479 100.444 100.414 100.394 100.409 100.379 100.359 100.389 100.424 100.429 100.479 100.506 100.539 100.569 100.601 100.669 100.686 100.726 100.824 100.901 100.969 101.024 101.084 101.141 101.216 101.256 101.306 101.321 101.344 101.324 101.346 101.319 101.266 101.231 101.211 101.159 101.111 101.049 101.019 100.941 100.909 100.884 100.814 100.764 100.661 100.586 100.486 100.386 100.346 100.219 100.126 100.066 99.974 99.884 99.809 99.741 99.624 99.531 99.439 99.339 99.211 99.074 98.981 98.849 98.716 98.571 98.446 98.296 98.151 97.989 97.839 97.679 97.524 97.351 97.156 97.001 96.849 96.661 96.454 96.286 96.084 95.891 95.704 95.491 95.306 95.121 94.924 94.729 94.499 94.341 94.114 93.931 93.711 93.484 93.271 93.074 92.836 92.601 92.379 92.114 91.899 91.666 91.441 91.229 91.019 90.809 90.561 90.819 90.134 89.269 89.106 88.731 88.359 87.909 87.461 87.151 86.586 86.121 85.651 84.961 84.636 84.221 83.189 82.581 81.659 80.466 82.369 87.609 78.849 79.639 75.676 75.779 73.444 72.774 71.869 71.089 70.074 69.064 68.466 67.779 67.839 67.513 65.948 64.961 71.749 73.75 64.693 61.717 60.762 60.022 59.076 58.368 57.82 56.634 55.813 54.902 54.337 53.373 52.53 54.455 50.925 50.32 49.564 48.97 48.437 47.971 47.547 47.153 46.777 46.428 46.129 45.846 45.576 45.349 45.086 44.52 45.042 45.363 45.558 45.755 46.008 46.242 46.463 46.731 46.997 47.206 48.285 48.387 48.361 48.554 49.1 49.252 49.581 50.077 50.559 50.991 51.513 52.042 52.538 53.088 53.614 54.148 54.683 55.236 55.802 56.35 56.844 57.378 57.956 58.518 59.116 59.718 60.313 60.898 61.513 62.126 62.723 63.313 63.916 64.436 65.003 65.571 66.136 66.716 67.313 67.883 68.488 69.106 69.741 70.366 71.051 71.723 72.393 73.051 73.741 74.383 75.028 75.668 76.348 77.058 77.766 78.42 79.058 79.695 80.358 81.023 81.663 82.218 82.745 83.498 84.213 84.91 85.558 86.24 86.878 87.555 88.213 88.78 89.32 89.86 90.563 91.48 92.483 93.358 94.03 94.113 94.305 94.623 94.993 95.34 95.693 96.138 96.618 97.095 97.545 98.073 98.578 98.973 99.33 99.66 99.905 99.925 99.793 99.618 99.323 99.015 98.693 98.393 98.05 97.66 97.26 96.893
108.889 108.739 108.637 108.514 108.392 108.229 108.052 107.889 107.729 107.562 107.397 107.232 107.059 106.892 106.714 106.549 106.369 106.192 105.987 105.814 105.657 105.502 105.367 105.227 105.102 104.949 104.804 104.622 104.474 104.367 104.229 104.132 104.047 103.939 103.839 103.737 103.639 103.484 103.334 103.199 103.074 102.954 102.847 102.722 102.639 102.607 102.527 102.469 102.372 102.314 102.304 102.297 102.474 103.684 101.774 101.529 101.527 101.542 101.497 101.522 101.449 101.412 101.377 101.329 101.347 101.274 101.307 101.247 101.257 101.202 101.177 101.182 101.177 101.177 101.184 101.177 101.152 101.187 101.209 101.249 101.244 101.304 101.299 101.327 101.359 101.392 101.412 101.452 101.447 101.474 101.484 101.464 101.462 101.412 101.424 101.357 101.339 101.304 101.241 101.224 101.189 101.156 101.104 101.129 101.041 101.029 100.984 100.946 100.914 100.874 100.876 100.841 100.846 100.821 100.864 100.889 100.879 100.931 100.931 100.939 101.006 101.031 101.071 101.139 101.129 101.221 101.286 101.349 101.386 101.464 101.506 101.566 101.631 101.629 101.669 101.659 101.631 101.664 101.611 101.611 101.541 101.499 101.454 101.379 101.309 101.269 101.189 101.151 101.111 101.069 100.979 100.886 100.831 100.751 100.651 100.536 100.416 100.356 100.256 100.211 100.114 100.011 99.934 99.806 99.721 99.641 99.514 99.369 99.246 99.149 99.011 98.886 98.736 98.579 98.439 98.291 98.119 97.986 97.836 97.676 97.514 97.336 97.169 96.994 96.809 96.646 96.431 96.274 96.049 95.874 95.656 95.444 95.296 95.079 94.866 94.666 94.459 94.249 93.996 93.799 93.574 93.376 93.144 92.916 92.684 92.434 92.184 91.944 91.721 91.474 91.221 91.041 90.859 90.569 90.859 90.431 89.424 89.039 88.731 88.314 87.966 87.644 87.004 86.556 86.066 85.601 85.086 86.249 85.629 83.984 82.501 83.284 80.929 81.961 84.909 79.826 77.871 75.564 74.589 73.714 72.856 72.034 71.351 70.429 69.286 68.664 67.876 70.621 70.183 65.906 64.948 66.597 65.848 62.406 61.548 60.93 59.856 59.025 58.122 57.391 56.731 55.658 54.818 53.929 53.246 52.495 52.664 53.173 50.241 49.525 48.962 48.452 47.976 47.561 47.123 46.769 46.418 46.122 45.849 45.583 45.354 45.086 44.508 44.839 45.207 45.385 45.6 45.809 46.052 46.288 46.538 46.794 47.045 47.834 48.551 48.204 48.372 48.792 49.102 49.315 49.864 50.327 50.796 51.266 51.779 52.317 52.837 53.387 53.921 54.456 55.002 55.566 56.132 56.681 57.233 57.811 58.368 58.918 59.553 60.156 60.771 61.391 61.991 62.588 63.173 63.743 64.241 64.856 65.386 65.948 66.548 67.113 67.696 68.318 68.893 69.536 70.171 70.831 71.506 72.188 72.851 73.538 74.213 74.868 75.533 76.218 76.926 77.596 78.27 78.925 79.588 80.245 80.888 81.535 82.133 82.653 83.34 84.068 84.77 85.418 86.115 86.765 87.46 88.115 88.725 89.27 89.83 90.32 91.158 91.978 93.095 94.065 94.465 94.335 94.525 94.845 95.203 95.568 95.913 96.348 96.798 97.25 97.708 98.233 98.66 99.078 99.578 99.93 100.045 99.908 99.75 99.44 99.098 98.78 98.44 98.098 97.658 97.218 96.795
