ncols 424
nrows 32
xllcorner    248146
yllcorner    137730
cellsize     2
NODATA_value -9999
94.997 94.949 94.857 94.769 94.662 94.564 94.442 94.327 94.209 94.114 94.019 93.919 93.857 93.852 93.799 93.724 93.659 93.632 93.607 93.597 93.614 93.654 93.699 93.729 93.764 93.827 93.894 93.927 93.947 93.932 93.869 93.774 93.654 93.414 93.172 92.847 92.554 92.379 92.279 92.457 92.687 92.639 92.552 92.272 92.007 91.697 91.452 91.219 90.994 90.787 90.522 90.222 89.977 89.709 89.444 89.157 88.854 88.557 88.259 87.972 87.697 87.392 87.087 86.792 86.494 86.167 85.859 85.559 85.222 84.889 84.554 84.237 83.902 83.602 83.272 82.919 82.537 82.144 81.771 81.439 81.524 81.451 81.914 80.364 79.234 76.149 75.336 74.674 74.439 74.329 74.241 74.161 74.154 74.216 74.341 73.879 72.661 73.144 78.351 78.344 74.276 73.546 73.234 73.799 73.619 74.801 76.179 73.434 73.749 74.654 73.116 69.576 69.431 70.221 69.366 68.566 68.621 68.821 69.509 69.586 69.716 69.218 68.199 66.402 65.874 65.568 65.219 64.893 64.523 64.196 63.943 63.715 63.533 63.355 63.149 62.768 62.339 61.756 61.389 61.029 60.654 60.419 60.256 60.111 59.996 59.904 59.869 59.816 59.901 59.319 58.281 57.986 54.296 53.334 53.031 52.754 52.421 52.121 51.776 51.496 51.324 55.181 52.254 52.266 50.361 50.071 49.619 49.416 49.284 48.989 48.699 48.706 48.689 48.251 47.274 45.121 45.421 44.996 44.881 44.829 49.886 45.039 45.049 45.054 44.949 45.301 44.826 44.949 44.556 43.144 42.644 41.321 40.469 39.979 39.461 39.234 39.249 39.041 38.814 38.756 38.744 38.681 37.461 37.044 36.531 36.071 35.671 35.321 35.006 34.669 34.316 34.004 33.741 33.489 33.114 32.809 32.514 32.196 31.861 31.566 31.309 30.976 32.144 32.676 34.514 34.086 31.574 33.028 30.788 27.411 27.126 26.746 26.371 26.016 25.683 25.393 25.136 24.913 24.778 24.738 24.723 28.083 32.553 27.243 32.936 35.278 29.226 29.768 31.598 35.563 27.341 35.976 25.301 26.633 29.473 34.951 28.771 33.968 28.638 24.281 23.953 23.921 23.913 23.896 23.981 24.186 24.293 24.313 24.201 24.103 23.946 23.938 23.921 23.901 25.831 25.786 27.246 29.931 34.116 29.613 32.301 25.701 24.231 24.283 24.336 24.401 24.426 24.456 24.451 24.411 24.411 24.373 24.376 24.378 24.546 24.786 24.978 25.251 25.376 25.393 25.288 25.046 24.948 24.641 24.573 24.588 24.591 24.583 24.641 24.946 25.811 25.968 26.763 26.056 26.491 27.051 27.428 27.466 27.328 27.291 27.263 27.198 27.018 29.266 27.756 27.821 26.868 26.835 26.783 26.75 26.773 26.825 27.11 27.163 27.333 27.778 27.858 28.49 29.613 30.97 31.43 34.24 31.708 31.955 32.408 36.923 33.208 33.655 34.133 34.555 34.938 35.305 35.748 36.238 36.57 37.113 37.548 37.918 38.358 38.758 39.488 40.178 40.72 43.905 42.095 43.3 43.1 43.613 44.235 46.173 45.345 46.263 46.578 46.178 45.958 45.93 45.975 48.003 47.165 46.888 46.913 46.218 45.77 45.755 45.78 45.86 45.93 45.945 45.988 46.155 47.058 46.995 47.225 47.72 48.09 48.398 49.06 49.463 49.278 49.473 48.99 49 49.578 50.2 51.245 52.595 54.405 55.7 57.56 58.838 58.56 58.793 60.27 60.603 60.84 62.97 61.613 63.825 60.235 60.37 63.218 63.77 63.408 62.045
94.709 94.652 94.579 94.499 94.402 94.269 94.142 93.997 93.902 93.802 93.702 93.604 93.557 93.479 93.399 93.357 93.314 93.309 93.284 93.302 93.322 93.329 93.342 93.359 93.389 93.447 93.484 93.529 93.549 93.544 93.459 93.307 93.197 93.032 92.719 92.492 92.167 91.929 91.769 91.952 92.492 92.664 95.889 91.859 91.572 91.354 91.122 90.869 90.632 90.402 90.154 89.894 89.659 89.372 89.092 88.824 88.522 88.224 87.944 87.654 87.364 87.082 86.797 86.482 86.179 85.907 85.602 85.289 84.952 84.677 84.372 84.052 83.744 83.397 83.019 82.627 82.257 81.864 81.526 81.234 82.074 80.116 79.521 77.366 75.449 74.949 74.586 74.416 74.319 74.264 74.169 74.154 74.141 74.286 73.991 74.206 72.346 72.846 71.936 73.564 71.971 73.416 73.621 75.661 76.241 72.326 73.794 74.126 73.256 74.361 74.364 70.941 69.221 69.444 69.816 68.946 69.059 69.319 69.574 69.456 69.299 69.089 69.44 67.047 65.566 65.273 64.896 64.544 64.233 63.95 63.671 63.464 63.31 63.224 62.994 62.575 62.179 61.741 61.574 62.026 60.684 60.431 60.246 60.161 60.139 59.941 59.946 59.914 59.749 58.734 57.646 54.241 53.539 53.301 53.074 52.734 52.421 52.066 51.676 51.334 51.089 50.931 52.501 51.869 50.241 49.901 49.589 49.359 49.069 48.619 48.501 48.424 48.359 48.339 48.079 45.109 45.091 48.221 51.951 53.794 53.269 45.099 45.091 45.121 45.164 45.084 44.991 44.891 44.696 43.939 42.964 42.131 41.251 40.721 40.416 39.584 39.416 39.261 39.089 38.911 38.896 38.896 38.831 42.486 37.186 36.529 36.034 35.644 35.284 34.899 34.519 34.214 33.931 33.624 33.256 32.916 32.611 32.269 31.906 31.539 31.204 30.884 30.454 33.561 33.671 34.236 30.696 32.926 30.946 27.301 27.041 26.696 26.281 25.948 25.556 25.286 25.003 24.776 24.691 24.646 24.591 24.536 24.881 28.106 27.866 27.273 24.618 24.488 26.593 32.663 33.648 36.556 32.296 27.848 33.383 33.921 31.181 29.898 28.953 24.081 24.026 23.948 23.913 23.886 23.786 24.016 23.951 23.693 23.726 23.686 23.761 23.856 23.886 23.876 25.246 27.353 26.433 31.808 25.301 28.448 31.038 24.183 24.191 24.271 24.338 24.411 24.476 24.478 24.426 24.411 24.363 24.381 24.371 24.381 24.618 24.823 25.038 25.263 25.296 25.306 25.193 25.013 24.718 24.596 24.558 24.573 24.581 24.603 24.748 25.523 26.341 27.186 26.688 27.053 27.353 27.386 27.296 27.258 27.221 27.101 26.971 26.923 27.941 27.098 26.793 26.751 26.703 27.418 26.725 26.753 26.998 27.083 27.205 27.393 27.938 28.248 29.418 30.528 31.01 31.355 31.343 32.33 34.418 32.673 33.19 33.683 34.088 34.53 35.015 35.36 35.813 36.23 36.553 36.993 37.38 37.8 38.278 38.918 39.288 39.823 40.438 41.228 41.798 42.21 42.948 43.693 47.83 44.76 45.418 46.203 46.63 46.298 46.105 46.095 46.153 47.57 48.335 47.435 47.193 47.328 47.075 46.965 45.853 45.86 45.915 46.045 46.135 46.518 47.133 47.29 47.388 47.373 47.82 48.508 48.668 48.783 49.47 50.195 50.238 50.345 51.3 51.413 51.788 52.278 53.163 54.183 56.825 56.163 59.65 59.253 60.258 60.785 61.01 62.34 65.958 64.09 66.815 67.408 68.285 67.228 65.93 69.22 68.423 65.135
94.397 94.332 94.259 94.177 94.054 93.927 93.812 93.712 93.604 93.477 93.367 93.282 93.217 93.117 93.032 93.009 92.992 92.987 92.979 92.994 93.007 93.014 93.017 93.024 93.017 93.069 93.092 93.119 93.127 93.064 92.914 92.742 92.634 92.597 92.349 92.082 91.834 91.534 91.292 91.397 92.852 93.752 95.442 91.569 91.207 90.979 90.729 90.497 90.244 90.029 89.789 89.539 89.312 89.029 88.767 88.469 88.162 87.909 87.657 87.347 87.057 86.767 86.482 86.204 85.897 85.597 85.312 85.027 84.752 84.464 84.172 83.824 83.479 83.114 82.739 82.352 81.899 81.541 81.031 80.426 80.051 78.554 76.834 75.609 74.961 74.616 74.564 74.399 74.304 74.196 74.149 74.184 74.126 74.149 73.959 74.079 72.716 72.096 73.926 76.284 74.326 75.594 76.131 73.206 72.449 71.746 72.414 76.191 75.109 73.696 74.399 73.546 69.256 68.954 69.404 69.149 68.951 68.776 68.696 68.591 68.559 68.954 69.262 68.634 65.465 64.874 64.522 64.234 63.941 63.623 63.366 63.225 63.169 63.015 62.525 62.397 62.106 61.974 61.551 61.141 61.169 60.529 60.301 60.251 60.216 60.169 60.079 60.011 59.176 58.356 54.746 53.844 53.576 53.349 53.179 54.789 54.986 56.046 55.144 55.509 51.174 50.746 50.601 50.549 51.801 49.786 49.464 49.276 48.766 48.639 48.766 48.474 48.386 48.306 50.219 50.936 52.541 53.594 53.829 54.496 54.194 47.396 45.199 45.201 45.241 45.149 45.104 45.036 44.866 44.441 43.264 42.594 42.351 41.491 41.121 40.399 39.689 39.349 39.301 39.199 39.091 39.101 39.076 38.981 37.826 37.206 36.536 36.034 35.606 35.156 34.789 34.516 34.199 33.814 33.439 33.079 32.729 32.359 31.961 31.596 31.191 30.776 30.381 33.786 33.476 32.246 32.384 30.588 30.541 27.216 26.936 26.601 26.218 25.901 25.551 25.308 25.331 24.656 24.561 24.548 24.513 24.538 24.488 24.441 24.406 24.416 24.361 24.321 24.366 25.633 29.053 30.846 32.091 31.811 29.991 27.983 29.983 27.471 24.056 24.091 24.081 24.078 24.108 24.198 24.226 24.253 24.506 24.811 24.131 23.768 26.526 26.676 26.876 29.026 28.206 29.346 31.808 28.386 36.291 30.066 26.673 24.166 24.216 24.291 24.328 24.428 24.478 24.476 24.443 24.378 24.353 24.306 24.346 24.371 24.641 24.881 25.073 25.283 25.283 25.261 25.113 24.886 24.641 24.551 24.576 24.573 24.608 24.673 25.231 26.373 27.521 27.241 27.463 27.528 27.246 27.208 27.183 27.083 26.926 26.876 26.818 26.768 26.706 26.656 26.613 26.561 28.146 26.733 26.993 27.118 27.34 28.128 28.535 29.178 29.76 30.28 30.525 30.788 32.178 31.518 31.943 32.835 33.04 33.435 33.985 34.465 34.9 35.368 35.86 36.225 36.595 36.983 37.433 37.803 38.198 38.728 39.235 39.753 40.3 40.888 41.358 42.063 42.578 43.565 44.085 44.73 49.993 46.16 46.855 46.833 46.308 46.293 46.248 47.263 48.545 49.715 49.603 48.435 47.513 47.603 47.265 47.26 46.345 46.58 46.74 47.293 47.62 47.87 47.573 47.585 48.078 47.995 48.373 49.928 50.42 50.663 51.243 51.523 52.273 52.62 53.2 54.14 55.033 56.305 56.58 56.638 56.36 59.885 59.243 59.825 60.9 61.943 65.85 71.055 65.423 69.88 68.145 67.128 67.495 69.378 67.64 69.075 67.49 68.23
94.094 94.009 93.899 93.807 93.649 93.494 93.492 93.384 93.254 93.157 93.044 92.947 92.854 92.787 92.754 92.734 92.707 92.684 92.704 92.719 92.697 92.687 92.654 92.639 92.632 92.652 92.669 92.672 92.682 92.589 92.312 92.134 92.037 92.109 91.969 91.767 91.459 91.144 90.874 90.782 91.457 92.219 91.469 91.114 90.882 90.592 90.352 90.102 89.864 89.657 89.429 89.194 88.957 88.714 88.399 88.132 87.849 87.584 87.322 87.029 86.749 86.454 86.189 85.929 85.649 85.352 85.062 84.787 84.489 84.212 83.894 83.564 83.184 82.772 82.334 81.864 81.437 80.936 80.451 79.869 79.279 78.406 76.496 75.336 74.679 74.696 74.426 74.336 74.249 74.159 74.141 74.206 74.436 74.444 74.304 74.034 72.744 71.686 73.069 73.289 72.009 73.081 73.211 70.974 72.771 76.196 74.166 74.331 72.916 71.851 71.444 69.984 68.929 68.746 68.776 68.714 68.674 68.611 68.566 68.474 68.519 69.084 68.859 68.247 65.602 64.524 64.271 63.93 63.665 63.342 63.138 62.991 62.956 62.917 62.768 62.567 62.201 61.834 60.606 60.624 60.644 62.149 60.524 60.349 60.339 60.189 60.081 59.536 58.834 55.356 54.164 53.851 53.669 53.586 54.896 53.499 53.736 52.581 52.386 52.141 52.346 51.011 50.381 50.291 50.309 50.276 49.344 49.266 48.654 48.501 48.489 48.439 49.436 48.261 52.671 53.804 54.454 54.314 53.586 52.941 52.259 50.741 46.666 46.619 46.236 45.404 45.264 45.134 44.999 44.761 43.959 43.391 43.044 42.539 41.846 41.681 40.256 39.544 39.384 39.371 40.604 39.331 45.419 39.244 39.071 37.614 37.009 36.466 35.974 35.524 35.106 34.781 34.394 34.026 33.631 33.249 32.904 32.499 32.121 31.681 31.176 30.834 30.256 29.734 32.846 32.704 28.981 32.661 27.311 27.218 26.861 26.411 26.213 25.886 24.458 24.371 24.521 24.608 24.463 24.451 24.433 24.483 24.433 24.376 24.331 24.296 24.316 24.306 24.233 24.286 26.483 28.303 26.206 26.533 28.606 26.053 27.168 24.416 23.981 23.988 24.028 23.961 24.006 24.116 24.203 24.221 24.243 24.233 24.141 24.196 28.588 30.836 29.031 27.563 30.016 27.988 33.363 32.776 30.408 28.863 24.166 24.178 24.228 24.306 24.376 24.468 24.488 24.503 24.471 24.421 24.341 24.281 24.251 24.431 24.688 24.893 25.131 25.298 25.288 25.193 25.043 24.733 24.616 24.558 24.581 24.598 24.621 24.991 26.028 26.931 27.391 27.433 27.293 27.173 27.141 27.086 26.878 26.818 26.753 26.703 26.643 26.586 26.511 26.486 26.586 26.733 26.928 29.728 27.633 28.46 29.948 34.695 35.67 30.578 30.4 32.91 30.925 31.43 31.933 32.38 32.895 33.363 33.888 34.413 34.768 35.233 36.555 36.12 36.685 36.965 37.385 37.873 38.26 38.728 39.25 39.735 40.328 40.918 41.6 41.923 43.2 43.065 52.395 44.818 46.513 46.25 46.743 47.075 46.51 46.468 46.418 46.745 48.64 49.358 50.033 50.298 50.613 49.18 48.003 47.698 47.863 48.488 48.205 47.865 47.548 47.63 48.013 48.493 48.64 48.878 50.228 50.3 51.28 51.49 52.395 53.418 53.88 54.235 53.83 54.08 54.743 55.478 56.468 57.585 57.125 57.8 57.7 58.163 59.043 62.098 64.77 62.138 63.095 65.1 68.793 69.593 68.098 68.533 71.86 72.015 69.898 78.678 69.245 68.795
93.747 93.629 93.547 93.454 93.397 93.317 93.254 93.099 92.907 92.807 92.707 92.617 92.544 92.487 92.457 92.427 92.442 92.424 92.392 92.387 92.349 92.332 92.279 92.254 92.239 92.232 92.217 92.242 92.229 92.089 91.794 91.602 91.524 91.587 91.622 91.417 91.124 90.702 90.444 90.362 90.787 92.067 91.012 90.919 90.504 90.207 89.949 89.724 89.499 89.267 89.052 88.809 88.609 88.349 88.069 87.787 87.539 87.279 86.989 86.719 86.429 86.187 85.912 85.689 85.394 85.062 84.774 84.489 84.229 83.932 83.584 83.224 82.799 82.322 81.837 81.377 80.912 80.404 79.831 79.249 78.684 78.621 77.031 75.441 74.721 74.624 74.426 74.306 74.169 74.186 74.141 76.319 78.779 75.899 73.936 74.206 73.524 71.416 71.556 72.661 75.759 72.304 74.289 76.011 75.314 75.319 72.686 70.906 70.251 69.146 68.856 68.691 68.624 68.521 68.516 68.414 68.386 68.406 68.386 68.439 68.459 68.816 68.64 67.637 65.727 64.2 63.95 63.685 63.415 63.236 63.07 62.989 63.323 63.655 62.953 62.561 62.416 60.759 60.526 60.549 60.509 60.741 62.596 60.489 60.441 60.211 59.786 59.606 56.604 54.471 54.179 53.991 53.954 56.166 54.286 53.236 52.669 52.404 52.029 51.674 51.694 55.576 50.884 50.149 50.004 50.171 49.344 49.246 48.699 48.451 48.419 48.341 47.996 46.151 45.706 53.736 53.049 52.381 51.274 47.159 46.629 46.379 46.284 45.934 45.746 45.561 45.516 46.246 46.109 45.381 45.231 44.601 44.896 43.701 42.374 41.826 41.676 40.089 39.666 44.569 45.174 48.949 45.101 41.724 39.299 38.934 37.389 36.809 36.389 37.006 35.539 35.099 34.681 34.286 35.999 33.489 36.249 35.379 43.049 36.829 31.211 30.816 30.024 30.254 32.339 32.024 28.316 27.103 27.111 26.978 26.291 25.316 24.466 25.833 28.271 32.513 31.893 24.583 24.408 24.363 24.341 24.353 24.351 24.361 24.348 24.243 24.238 24.238 24.186 24.151 24.143 24.048 23.971 23.966 24.148 23.878 23.866 23.876 23.913 23.881 23.921 23.891 23.898 23.901 23.983 24.026 24.023 24.043 24.116 24.161 25.958 26.461 27.516 29.343 28.211 27.141 27.868 28.686 28.376 24.176 24.168 24.178 24.253 24.338 24.431 24.471 24.471 24.453 24.453 24.376 24.306 24.223 24.256 24.506 24.741 24.928 25.231 25.268 25.253 25.143 24.956 24.661 24.621 24.593 24.588 24.613 24.771 26.056 26.878 27.311 27.806 27.173 27.098 27.068 26.856 26.783 26.718 26.641 26.581 27.121 27.118 26.423 26.536 26.733 26.886 27.278 28.153 32.318 29.968 29.96 31.093 31.658 32.373 33.108 32.41 31.44 31.868 32.358 32.9 33.343 33.838 34.32 35.013 35.458 35.743 36.083 36.435 36.9 37.353 37.758 38.315 38.795 39.238 39.715 40.36 40.925 41.455 46.718 42.82 43.223 43.253 44.193 45.365 46.055 47.245 47.323 46.748 46.635 46.595 46.653 48.453 49.15 49.988 50.318 50.57 51.093 50.88 50.69 49.348 48.65 48.405 48.643 48.638 48.595 48.905 50.378 52.048 52.523 52.688 53.278 53.87 54.023 54.23 54.853 55.188 55.44 55.88 56.528 56.68 56.733 57.185 58.76 62.69 59.468 61.78 60.393 61.22 60.555 61.068 61.543 62.268 63.85 67.93 70.16 71.923 71.275 69.053 69.655 70.02 74.345 72.105 73.59 70.343 71.768
93.374 93.249 93.214 93.202 93.309 93.677 93.934 93.644 92.634 92.447 92.379 92.307 92.224 92.222 92.199 92.169 92.139 92.132 92.067 92.032 91.977 91.919 91.904 91.874 91.862 91.817 91.802 91.789 91.764 91.662 91.389 91.107 90.952 91.137 91.249 91.067 90.789 90.377 90.004 89.809 90.097 90.787 90.737 90.509 90.209 89.859 89.577 89.389 89.187 88.939 88.712 88.464 88.237 87.992 87.737 87.487 87.222 86.954 86.672 86.427 86.174 85.912 85.679 85.387 85.054 84.742 84.459 84.177 83.877 83.504 83.117 82.757 82.329 81.872 81.354 80.892 80.314 79.636 78.959 78.426 77.886 77.664 77.931 75.621 74.959 74.636 74.344 74.221 74.179 74.996 77.694 79.126 79.261 79.019 73.854 73.951 73.399 71.169 71.051 73.516 76.036 73.396 73.634 75.839 71.604 70.554 69.581 68.866 68.574 68.471 68.429 68.389 68.354 68.321 68.326 68.281 68.244 68.256 68.684 68.761 68.466 68.696 68.302 67.211 65.37 63.951 63.679 63.405 63.293 63.255 63.366 63.8 63.395 62.257 61.952 61.864 60.566 60.489 60.479 60.456 60.424 60.404 62.049 61.636 60.586 60.021 59.379 56.614 54.751 54.496 54.329 54.276 57.129 54.874 53.671 52.999 52.791 52.546 52.166 51.506 51.394 52.889 54.244 50.669 49.836 49.696 50.219 50.034 48.806 48.406 48.329 47.639 47.974 47.981 47.749 51.919 48.671 47.286 47.001 46.784 46.534 46.364 46.154 45.916 45.699 45.484 45.349 45.221 45.294 45.089 45.484 46.636 45.524 45.599 44.409 43.531 41.574 40.866 44.556 43.449 47.784 49.876 49.904 42.689 39.619 39.344 37.831 42.136 40.931 39.804 43.404 35.554 41.166 45.789 39.084 40.914 38.839 45.006 39.281 33.706 31.446 30.649 31.024 32.841 35.956 34.336 27.979 26.868 26.913 25.941 24.463 28.406 31.371 32.831 33.466 34.153 34.866 24.586 24.363 24.331 24.323 24.288 24.293 24.336 24.336 24.271 24.163 24.183 24.198 24.111 24.063 23.996 23.938 23.871 23.843 23.858 23.896 23.856 23.871 23.866 23.916 23.958 23.878 23.913 23.928 23.973 23.938 24.028 24.096 24.118 26.773 26.203 26.186 27.733 28.328 30.706 30.326 29.876 25.736 24.161 24.158 24.186 24.268 24.353 24.438 24.438 24.411 24.403 24.381 24.303 24.253 24.226 24.321 24.578 24.813 25.106 25.251 25.251 25.251 25.048 24.901 24.658 24.583 24.601 24.633 24.713 25.501 26.876 27.708 27.491 27.091 27.048 26.991 26.776 26.683 26.608 26.528 26.443 26.386 26.348 26.433 27.866 26.866 27.151 27.856 28.841 29.703 30.44 30.805 31.018 31.58 31.743 34.218 33.298 38.713 33.238 32.868 33.425 33.895 34.41 35.073 35.315 35.83 36.293 36.753 36.92 37.29 37.803 38.263 38.703 39.225 39.803 40.283 40.965 45.06 42.208 42.71 44.623 46.71 44.618 44.74 46.203 47.575 47.278 47.048 46.86 46.815 46.75 47.655 49.1 49.968 50.665 50.463 50.64 51.028 51.525 51.83 52.28 52.355 51.91 51.28 51.605 54.005 53.703 53.74 54.77 55.01 55.173 55.52 56.398 56.705 56.733 56.95 60.303 57.735 61.088 59.813 60.085 59.708 59.995 59.628 60.995 61.675 62.008 65 63.113 64.53 64.098 63.613 63.68 66.495 68.953 68.035 68.87 69.315 70.428 70.165 70.508 71.328 71.408 71.88 75.678 72.923 74.113
93.034 92.977 93.022 93.202 93.574 92.689 92.762 93.742 93.299 92.287 92.054 91.994 91.974 91.919 91.894 91.854 91.852 91.784 91.707 91.669 91.612 91.577 91.574 91.519 91.479 91.414 91.387 91.364 91.317 91.237 91.049 90.782 90.674 90.807 90.867 90.699 90.417 90.094 89.649 89.369 89.307 90.137 90.417 90.104 89.854 89.504 89.242 89.112 88.857 88.614 88.382 88.142 87.889 87.654 87.399 87.134 86.889 86.659 86.409 86.177 85.909 85.607 85.322 85.062 84.732 84.419 84.092 83.792 83.407 83.007 82.627 82.257 81.812 81.307 80.734 80.149 79.552 78.789 78.216 77.724 77.444 76.959 76.801 77.066 75.191 74.601 74.431 74.591 75.549 78.414 79.271 79.294 78.441 76.351 73.844 74.331 74.566 71.044 70.834 71.011 71.509 70.749 70.889 70.841 69.679 69.106 68.909 68.734 68.511 68.364 68.281 68.214 68.166 68.176 68.201 68.196 68.286 68.626 69.966 68.477 68.399 68.307 67.217 66.288 64.872 63.79 63.58 63.448 63.586 63.813 64.171 63.318 62.226 61.872 60.752 60.567 60.529 60.511 60.439 60.381 60.329 60.329 60.279 60.484 60.949 60.066 57.441 55.096 54.749 54.601 54.611 58.094 55.539 53.939 53.381 53.254 52.911 52.439 52.044 51.499 51.029 50.934 51.376 54.344 50.359 49.524 49.421 49.381 50.544 48.959 48.321 48.849 50.186 49.274 47.824 47.599 47.381 47.169 47.056 46.816 46.586 46.479 46.521 46.506 47.086 48.819 53.136 47.731 45.019 44.819 46.484 44.474 44.759 45.234 45.316 45.209 42.671 46.929 44.751 49.316 51.334 50.564 53.946 54.174 42.766 40.264 40.004 42.604 47.514 48.074 44.901 44.619 39.631 53.251 49.969 41.081 46.356 44.036 45.614 40.206 31.456 32.141 33.101 35.606 33.009 29.969 26.934 26.936 25.951 26.388 27.238 33.168 33.781 34.503 34.976 34.288 33.606 26.278 24.508 25.258 24.338 24.281 24.271 24.258 24.278 24.288 24.228 24.153 24.123 24.078 23.981 23.916 23.891 23.843 23.851 23.853 23.848 23.821 23.856 23.841 23.886 23.921 23.936 23.886 23.883 23.901 23.953 23.978 24.028 24.043 24.088 28.991 31.073 27.371 31.758 32.018 29.376 25.086 23.748 24.143 24.133 24.176 24.258 24.383 24.398 24.373 24.383 24.361 24.286 24.176 24.201 24.221 24.363 24.671 24.941 25.166 25.246 25.243 25.173 24.971 24.743 24.661 24.606 24.628 24.746 25.248 27.133 27.411 27.306 27.038 26.993 26.811 26.691 26.606 26.508 26.413 26.336 26.263 26.358 26.558 26.746 27.108 27.786 28.238 30.351 30.153 30.598 31.325 31.635 32.573 32.218 32.363 32.478 32.903 33.19 33.568 33.93 34.358 34.918 35.298 35.785 36.315 36.993 37.058 37.46 37.79 38.205 38.708 39.183 39.68 40.24 40.833 41.473 42.295 44.315 43.758 48.283 46.455 46.62 45.793 47.66 47.445 47.365 47.053 47.073 47.02 46.985 48.738 49.655 50.288 54.52 50.69 50.878 50.873 50.998 51.518 53.488 54.448 54.988 55.213 55.45 55.633 57.688 55.973 56.988 60.123 59.895 58.54 59.015 58.7 58.955 59.433 59.64 60.45 60.928 61.55 61.563 66.723 63.54 63.07 64.265 64.398 64.748 66.948 67.045 66.238 67.343 66.093 66.41 67.418 68.398 68.948 69.353 69.853 70.31 71.543 71.063 71.485 72.088 75.19 72.763 74.115 76.845 73.905
92.784 92.864 93.222 93.039 91.594 91.324 91.279 91.949 93.192 93.247 92.297 91.749 91.607 91.619 91.572 91.542 91.467 91.417 91.349 91.309 91.249 91.217 91.179 91.142 91.092 91.009 90.974 90.917 90.897 90.837 90.764 90.624 90.537 90.537 90.502 90.337 90.052 89.759 89.312 88.842 88.874 89.439 89.794 89.414 89.239 89.092 88.907 88.764 88.522 88.269 88.024 87.794 87.579 87.324 87.064 86.819 86.579 86.352 86.089 85.794 85.577 85.247 84.939 84.604 84.299 83.967 83.684 83.349 82.937 82.537 82.132 81.687 81.144 80.544 79.957 79.317 78.709 78.114 77.544 77.194 76.951 76.244 75.731 76.816 74.931 74.494 74.421 76.996 79.059 79.381 79.176 77.644 73.961 73.996 74.609 74.941 74.564 71.544 70.749 70.744 70.706 70.299 69.956 69.679 69.454 71.069 72.319 71.484 69.194 68.234 68.101 68.019 67.999 68.031 68.076 68.121 68.209 68.276 68.185 68.054 67.682 67.026 66.241 65.342 64.198 63.637 63.506 63.528 64.118 64.677 63.106 62.3 61.879 60.846 60.64 60.556 60.549 60.491 60.436 60.346 60.276 60.219 60.249 60.199 61.376 60.791 55.631 55.006 54.889 54.926 58.256 55.319 54.234 53.744 53.861 53.304 52.736 52.264 51.849 51.454 50.936 50.624 50.584 50.474 51.501 50.121 49.331 49.174 49.014 49.086 50.364 48.544 48.261 48.004 47.839 47.659 47.479 47.344 47.416 47.394 47.344 48.134 49.416 48.849 49.199 52.051 52.526 51.109 47.486 44.899 44.599 55.894 49.041 54.581 44.269 44.641 50.469 46.359 46.879 51.021 58.834 51.059 53.676 47.569 46.436 46.221 44.329 39.224 54.721 51.996 46.561 42.999 42.206 45.711 49.974 51.726 47.261 47.356 38.886 44.924 31.241 33.009 35.131 33.871 32.096 31.079 27.469 24.931 25.126 24.526 26.911 30.013 34.743 34.028 33.288 32.616 27.516 24.378 24.236 25.693 25.593 24.211 24.211 24.213 24.221 24.218 24.226 24.128 24.071 24.003 23.971 23.893 23.878 23.821 23.853 23.876 23.838 23.816 23.841 23.881 23.861 23.883 23.913 23.903 23.883 23.901 23.958 23.976 23.981 24.018 27.668 24.128 25.231 29.901 30.651 27.281 24.473 23.503 24.131 24.091 24.091 24.156 24.236 24.278 24.293 24.331 24.298 24.256 24.143 24.113 24.098 24.233 24.471 24.761 25.001 25.191 25.221 25.241 25.113 24.981 24.571 24.641 24.631 24.741 25.071 26.638 27.058 27.023 26.996 26.958 26.721 26.613 26.518 26.418 26.321 26.236 26.271 26.358 26.631 27.163 28.176 29.071 29.341 29.673 33.668 31.131 31.721 32.055 32.283 34.038 32.59 32.875 33.218 33.665 34.11 34.49 34.945 35.338 35.755 36.13 36.648 36.925 37.398 37.878 38.25 39.013 39.16 39.568 40.058 40.648 41.423 42.28 49.33 48.458 45.438 50.81 47.268 47.16 47.9 48.105 47.753 47.33 47.285 47.258 47.36 47.41 47.38 49.573 50.423 51.355 50.645 50.425 50.738 50.765 50.95 50.973 51.655 55.55 53.74 54.745 56.505 56.518 57.018 57.5 58.665 59.27 59.81 59.5 63.123 60.718 60.6 61.215 61.703 62.37 63.035 63.175 63.618 63.985 64.45 64.783 65.21 65.768 66.09 67.985 66.953 67.483 67.763 69.81 68.705 69.84 71.518 69.95 70.46 74.99 71.378 72.165 72.205 72.678 72.918 75.045 73.635 75.035 77.143 74.923
92.989 92.962 91.889 91.279 91.117 91.017 90.964 90.889 91.269 92.237 92.884 92.609 91.497 91.222 91.222 91.214 91.119 91.074 91.004 90.952 90.884 90.847 90.807 90.749 90.662 90.599 90.577 90.512 90.464 90.407 90.342 90.267 90.237 90.154 90.069 89.922 89.699 89.452 89.032 88.497 88.954 89.129 88.669 88.454 88.694 88.497 88.392 88.304 88.164 87.924 87.714 87.464 87.242 87.017 86.767 86.497 86.234 85.962 85.664 85.404 85.109 84.777 84.449 84.129 83.837 83.522 83.199 82.804 82.392 81.949 81.482 80.924 80.319 79.749 79.144 78.564 78.032 77.506 77.121 76.819 76.204 75.589 75.474 75.036 74.569 74.454 74.391 75.299 78.931 79.004 76.944 74.114 74.224 74.819 74.811 73.981 71.274 70.819 70.721 70.666 70.649 71.939 73.159 72.071 70.721 73.164 73.986 73.549 71.986 68.191 67.916 67.85 67.872 67.931 68.074 68.167 68.14 67.944 67.636 67.181 66.779 66.884 65.217 64.211 63.711 63.552 63.544 64.204 64.719 62.885 62.239 61.883 60.825 60.688 60.647 60.574 60.531 60.461 60.404 60.341 60.261 60.359 60.224 60.556 60.931 61.329 55.274 55.179 55.166 58.519 55.754 56.066 54.171 54.066 53.546 53.014 52.594 52.139 51.691 51.259 50.916 50.651 50.469 50.524 52.394 50.884 50.104 49.171 48.949 48.831 48.679 48.461 48.279 48.104 48.254 48.419 48.334 48.486 49.061 49.404 50.036 52.301 51.241 51.559 51.044 51.656 52.004 48.851 50.621 57.499 59.349 56.311 55.909 53.714 49.234 43.719 51.001 58.274 56.224 58.569 62.754 54.226 56.864 47.951 48.609 46.029 48.961 48.061 52.454 55.194 56.429 44.846 48.346 48.454 51.331 48.649 38.781 43.846 38.371 31.631 32.381 34.989 37.001 35.754 32.961 30.124 25.939 24.691 24.563 25.798 26.068 24.228 33.003 32.293 25.013 24.233 24.211 24.211 24.208 24.251 25.851 25.056 24.146 24.168 24.228 24.211 24.181 24.171 24.056 24.003 23.918 23.853 23.826 23.806 23.858 23.848 23.861 23.846 23.838 23.856 23.883 23.878 23.886 23.893 23.956 23.918 23.923 26.178 28.978 29.476 26.918 26.498 23.711 23.338 23.393 23.403 23.458 24.066 24.086 24.043 24.066 24.108 24.193 24.161 24.216 24.263 24.196 24.121 24.098 24.043 24.086 24.206 24.453 24.896 25.068 25.158 25.178 25.168 24.991 24.876 24.651 24.591 24.693 24.911 26.188 26.891 26.991 26.956 26.908 26.666 26.556 26.461 26.341 26.231 26.146 26.226 26.441 26.738 28.018 31.623 30.666 30.778 32.543 31.116 31.676 32.121 32.481 32.775 32.88 33.028 33.405 33.74 34.205 34.635 35.02 35.4 35.798 36.26 36.613 36.948 37.24 38.218 38.133 38.61 39.2 39.538 40.088 40.458 41.06 41.87 42.703 43.553 44.418 47.558 45.955 46.783 47.53 48.455 48.325 47.74 47.535 47.483 47.625 48.538 48.103 47.913 47.875 48.665 50.22 50.835 50.618 50.703 50.625 51.035 50.9 50.618 50.975 55.093 53.33 54.518 55.908 55.883 56.925 58.283 59.15 59.388 59.99 60.82 61.025 62.26 61.6 62.22 63.23 63.438 63.78 64.083 64.678 64.915 65.323 65.795 66.16 66.543 67.13 67.365 67.705 68.208 68.73 69.283 69.485 70.398 73.448 71.568 75.603 71.915 72.433 72.89 73.718 73.693 74.018 74.78 75.203 75.39 76.123 76.365
91.959 91.229 91.132 91.004 90.877 90.784 90.702 90.629 90.607 90.614 91.294 92.354 92.567 91.539 90.867 90.832 90.792 90.704 90.657 90.597 90.512 90.449 90.397 90.327 90.269 90.214 90.144 90.104 90.064 89.999 89.949 89.879 89.822 89.734 89.644 89.514 89.317 89.089 88.724 88.167 87.909 88.762 88.547 87.724 88.072 88.169 87.879 87.829 87.744 87.607 87.412 87.189 86.939 86.662 86.379 86.089 85.812 85.497 85.174 84.864 84.539 84.237 83.904 83.599 83.289 82.944 82.527 82.074 81.662 81.209 80.674 80.039 79.557 78.984 78.434 77.887 77.427 77.049 76.569 75.736 75.414 75.356 75.121 74.631 74.451 74.424 74.334 74.054 75.859 74.704 74.109 74.889 75.116 74.589 72.636 71.199 70.981 70.841 70.721 70.971 72.669 75.341 75.334 73.461 72.329 73.584 74.853 74.233 72.614 68.038 67.783 67.735 67.79 67.979 68.109 68.03 67.701 66.882 67.882 68.264 67.528 67.77 66.937 66.579 65.248 63.713 63.977 64.903 62.856 62.261 61.859 60.853 60.74 60.693 60.65 60.602 60.584 60.471 60.391 60.324 60.354 60.104 60.124 60.514 59.224 56.004 55.494 55.511 57.294 55.696 55.689 54.451 55.131 53.839 53.351 52.884 52.394 51.984 51.436 51.171 50.889 50.566 50.494 50.591 50.826 53.531 50.684 50.211 49.196 48.961 48.811 48.949 49.226 49.014 49.591 49.881 50.546 50.839 50.351 51.586 51.744 51.714 52.196 51.579 50.606 52.434 52.519 52.881 49.726 48.781 53.776 60.756 57.109 54.846 54.499 46.976 58.166 59.239 63.339 60.549 57.116 58.196 57.509 52.271 47.934 51.326 50.291 44.764 46.429 55.131 56.656 53.676 47.301 49.546 49.319 48.811 44.344 38.304 33.446 35.544 36.634 32.434 30.024 32.809 33.439 27.084 24.961 24.728 24.591 24.516 24.403 24.288 25.228 24.218 24.211 24.223 24.198 24.213 24.176 24.193 25.843 25.573 24.698 24.103 24.123 24.098 24.123 24.133 24.101 23.973 23.893 23.861 23.793 23.866 23.846 23.816 23.831 23.846 23.856 23.858 23.863 23.873 24.713 23.916 23.913 23.893 27.846 27.601 27.806 27.548 28.663 30.541 27.178 23.341 23.341 23.376 23.986 24.063 24.048 24.033 24.023 24.041 24.113 24.123 24.106 24.098 24.083 24.021 24.008 24.043 24.031 24.288 24.386 25.006 25.076 25.091 25.123 25.131 24.943 24.696 24.648 24.628 24.778 25.536 26.786 26.983 26.923 26.881 26.628 26.508 26.393 26.271 26.166 26.116 26.233 26.488 27.026 28.333 31.186 30.553 31.528 34.628 32.016 32.261 32.593 32.911 33.108 33.33 33.545 33.898 34.338 34.58 35.068 35.628 35.915 36.658 36.615 37.115 37.37 37.758 38.1 38.72 39.073 39.453 39.923 40.41 40.855 41.48 42.31 43.063 43.838 51.443 45.388 48.355 46.908 48.108 49.093 48.165 47.788 47.748 47.82 48.883 49.33 48.825 48.568 48.7 48.288 48.36 49.263 50.24 50.568 50.61 50.443 50.53 50.418 50.145 50.798 50.578 50.948 52.715 54.203 55.635 57.385 60.17 60.773 62.773 61.045 61.363 61.868 62.54 66.235 63.25 63.7 64.31 64.938 65.11 65.52 66.073 66.273 66.795 67.283 69.953 67.98 68.523 68.76 70.533 69.713 69.93 70.375 70.96 73.11 72.105 72.588 73.035 73.508 76.878 74.47 74.7 75.025 75.258 75.688 75.843 76.248 77.098
91.132 91.012 90.912 90.807 90.702 90.634 90.552 90.467 90.367 90.282 90.217 90.424 91.422 92.117 91.562 90.497 90.424 90.377 90.292 90.189 90.137 90.057 90.014 89.932 89.889 89.819 89.767 89.702 89.632 89.549 89.502 89.464 89.377 89.304 89.212 89.109 88.939 88.719 88.299 87.759 87.319 87.062 86.862 87.004 87.294 87.589 87.427 87.427 87.334 87.202 87.002 86.779 86.539 86.269 85.942 85.692 85.337 84.967 84.619 84.297 83.964 83.657 83.317 82.932 82.627 82.224 81.792 81.362 80.897 80.394 79.867 79.329 78.797 78.274 77.797 77.374 77.694 76.629 75.521 75.384 75.221 75.091 74.751 74.414 74.364 74.341 74.126 73.829 73.544 74.361 77.716 77.291 75.836 72.489 71.316 71.176 71.041 70.936 70.484 69.659 71.611 74.48 75.664 74.415 72.698 72.88 73.733 73.384 72.028 67.687 67.666 67.626 67.748 67.798 67.691 67.71 68.631 69.853 70.44 71.105 69.423 69.241 69.163 69.178 67.7 63.402 63.374 64.656 62.54 61.611 60.973 60.822 60.737 60.735 60.645 60.639 60.564 60.471 60.414 60.426 60.149 60.579 60.544 58.476 55.989 55.836 55.824 54.806 55.419 55.539 54.659 54.991 54.159 53.666 53.214 52.736 52.269 51.649 51.389 51.074 50.749 50.764 50.651 50.646 50.901 51.294 54.634 50.829 50.629 50.411 50.519 50.854 50.506 50.451 51.714 53.031 51.701 51.619 51.421 51.076 52.499 50.776 51.656 50.509 51.269 52.074 52.544 52.041 56.994 55.789 49.601 49.104 56.631 56.921 54.274 52.726 52.569 55.069 47.291 56.289 52.126 52.064 51.169 53.661 53.141 49.149 49.384 55.654 58.591 54.511 49.674 43.646 46.039 42.844 48.346 50.206 47.551 47.011 47.166 39.044 37.471 34.631 31.786 30.124 28.679 25.651 24.714 24.668 24.601 24.523 24.406 24.316 24.221 24.166 24.138 24.208 24.201 24.228 24.241 24.213 24.513 25.618 25.106 24.303 24.033 23.973 23.956 24.016 23.971 23.833 23.756 23.761 23.788 23.758 23.788 23.811 24.701 25.028 26.196 30.928 29.078 28.926 30.681 23.853 23.876 25.456 30.706 26.881 25.561 29.023 30.751 26.136 24.546 23.338 23.348 23.373 23.923 24.016 24.051 24.023 23.973 23.976 23.993 24.058 24.121 24.043 23.968 23.931 24.001 23.968 24.053 24.276 24.648 25.096 25.113 25.121 25.118 25.043 24.896 24.686 24.656 24.693 25.048 26.873 26.858 26.891 26.846 26.586 26.471 26.348 26.233 26.103 26.088 26.256 26.506 27.193 28.651 29.758 30.838 32.288 32.003 32.468 32.693 33.091 33.386 33.746 33.886 34.058 34.313 34.785 35.065 35.463 35.873 36.303 38.413 37.14 37.46 37.858 38.173 38.57 38.963 39.33 39.655 40.415 40.808 41.32 41.823 42.41 43.53 46.895 51.603 50.898 47.608 48.383 49.253 48.975 48.103 47.985 47.91 50.088 50.085 49.953 49.498 49.148 48.908 48.945 49.408 48.61 48.658 49.03 49.563 50.293 49.933 49.793 49.668 49.73 49.94 49.62 50.028 52.978 54.723 57.218 58.295 60.85 63.58 61.74 62.225 63.36 63.355 64.47 64.055 64.808 65.038 67.568 66.143 66.61 66.45 66.788 67.44 67.815 68.123 68.548 69.328 69.638 69.705 70.085 74.503 70.893 71.383 75.333 72.498 73.258 74.2 74.245 74.978 75.558 75.848 75.85 76.035 76.755 76.62 76.87 77.24 77.67
90.877 90.789 90.709 90.627 90.542 90.472 90.387 90.289 90.189 90.087 89.947 89.854 89.807 90.759 91.539 91.229 90.277 89.972 89.914 89.842 89.769 89.692 89.659 89.559 89.512 89.434 89.349 89.309 89.229 89.134 89.044 88.992 88.937 88.874 88.779 88.684 88.527 88.284 87.889 87.352 86.817 86.457 87.419 86.577 86.522 86.914 87.004 86.964 86.907 86.762 86.549 86.254 85.952 85.602 85.244 85.079 84.584 84.227 83.904 83.584 83.244 82.924 82.577 82.229 81.872 81.459 81.009 80.527 80.077 79.624 79.152 78.677 78.217 77.757 77.764 77.779 76.424 75.531 75.301 75.169 75.024 74.824 74.406 74.329 74.284 74.131 73.896 73.596 73.754 76.239 77.384 77.899 76.801 73.966 71.426 72.046 71.022 69.679 69.324 69.322 70.069 73.374 75.292 75.235 73.474 72.041 72.308 71.374 68.536 67.506 67.571 67.686 67.771 68.633 69.722 70.335 70.858 71.251 71.341 70.957 69.326 68.632 68.689 68.791 68.175 63.336 63.157 64.63 63.394 61.025 60.957 60.836 60.769 60.708 60.742 60.634 60.539 60.546 60.496 60.291 60.266 60.529 56.684 56.361 56.169 56.269 56.374 57.286 55.059 54.941 55.494 54.501 54.034 53.576 53.084 52.616 52.026 51.744 51.561 51.079 50.904 50.909 51.326 51.111 50.999 51.276 51.626 54.514 50.916 51.026 51.161 51.299 51.974 51.909 51.384 51.859 51.264 51.479 50.981 51.949 52.074 52.841 52.319 52.604 52.959 54.406 53.376 59.736 66.179 61.569 61.649 53.024 49.266 48.866 54.254 53.849 54.571 52.684 52.544 50.569 51.451 52.994 52.611 53.261 52.519 56.031 53.336 56.464 52.224 60.286 54.034 45.819 47.881 47.056 51.726 48.754 47.529 49.524 48.216 44.569 38.251 32.706 33.981 27.266 26.299 24.779 24.654 24.608 24.573 24.418 24.351 24.296 24.226 24.223 24.211 24.221 24.246 24.223 24.213 24.201 24.201 24.251 25.076 25.166 24.743 24.113 23.871 23.838 23.846 23.716 23.718 23.758 23.776 23.791 25.791 23.776 24.458 27.586 29.793 30.578 32.421 27.628 32.581 27.518 25.321 25.328 25.761 29.306 30.796 26.496 30.663 29.473 31.531 26.371 23.346 23.876 23.953 24.046 24.083 24.043 23.973 24.008 23.998 23.973 23.983 23.936 23.926 23.926 23.936 23.971 24.093 24.256 24.931 25.081 25.103 25.098 25.123 25.018 24.898 24.758 24.733 25.778 26.586 26.838 26.858 26.813 26.561 26.443 26.313 26.181 26.061 26.033 26.351 26.781 27.713 28.896 29.828 31.568 32.853 32.328 32.871 33.123 33.368 33.813 34.086 34.301 34.563 34.7 34.99 35.363 36.07 36.208 36.785 37.205 37.66 40.003 38.343 39.458 39.685 41.828 39.74 40.313 41.328 42.088 41.878 42.263 42.928 43.418 44.185 47.4 50.655 50.573 52.118 49.708 49.09 48.27 48.165 48.313 49.95 52.91 50.458 50.17 49.795 49.815 57.718 49.588 54.125 49.163 48.765 48.823 48.833 49.215 49.308 49.26 49.273 49.465 49.53 49.673 49.443 53.038 56.78 58.315 64.123 61.725 63.375 63.045 65.623 65.46 64.23 64.688 65.258 66.025 65.943 66.348 66.458 66.87 67.485 67.753 68.603 69.943 69.175 69.725 70.033 70.388 70.728 71.708 72.1 72.55 72.47 73.535 73.608 74.333 74.9 75.303 76.165 77.433 76.733 77.225 77.56 77.353 77.71 78.005 78.138 78.39
90.657 90.577 90.524 90.434 90.344 90.247 90.167 90.067 89.969 89.872 89.752 89.604 89.452 89.379 89.774 90.899 91.172 90.302 89.569 89.449 89.417 89.332 89.234 89.139 89.082 88.999 88.957 88.867 88.794 88.672 88.587 88.529 88.447 88.389 88.302 88.239 88.067 87.834 87.444 86.944 86.449 86.002 85.942 85.592 85.807 86.177 86.547 86.604 86.504 86.279 85.872 85.557 85.197 84.804 84.529 84.264 83.892 83.502 83.124 82.852 82.492 82.144 81.827 81.479 81.119 80.694 80.272 79.864 79.407 78.957 78.527 78.107 77.784 78.062 77.349 75.899 75.579 75.401 75.161 74.964 74.774 74.511 74.301 74.249 74.116 73.914 73.626 73.316 73.171 74.314 76.526 77.632 77.63 76.449 73.743 73.895 70.686 69.332 69.492 69.292 69.303 72.389 74.477 75.66 74.299 72.717 71.601 69.752 67.45 67.344 67.619 68.747 69.621 70.243 71.402 71.495 71.093 70.514 69.906 68.524 66.176 65.502 65.356 66.201 65.375 63.126 62.996 62.882 64.289 61.131 60.94 60.878 60.792 60.744 60.682 60.661 60.689 60.519 60.421 60.661 60.561 56.976 56.739 56.534 56.826 57.824 56.569 56.216 55.311 55.366 54.874 54.389 53.916 53.471 53.009 52.359 52.091 51.756 51.466 51.199 51.281 51.511 52.186 51.576 51.431 51.396 51.691 52.024 54.991 51.269 51.546 51.719 51.996 52.416 51.561 51.649 51.906 53.596 53.731 52.724 51.761 51.866 52.539 52.649 53.246 56.431 60.281 64.384 61.839 66.666 56.274 64.044 57.494 54.651 49.466 53.401 55.131 50.379 58.454 50.039 50.449 50.211 43.844 55.059 46.546 52.356 49.384 53.121 57.314 56.431 53.381 50.401 45.249 47.599 48.559 48.649 42.591 43.724 38.921 39.626 36.559 31.664 30.136 27.986 25.426 24.686 24.649 24.546 24.403 24.346 24.313 24.278 24.313 24.318 24.288 24.206 24.151 24.133 24.163 24.143 24.123 24.008 23.938 24.181 25.068 24.928 24.883 24.728 23.741 23.711 23.683 23.743 23.763 28.643 26.606 25.968 27.523 26.421 31.496 31.696 29.053 31.051 28.868 28.741 25.588 29.271 27.813 28.693 29.741 27.611 24.096 30.411 30.833 28.658 23.333 23.763 24.011 24.061 24.078 24.048 23.986 23.991 23.971 23.918 23.963 23.938 23.918 23.883 23.896 24.046 24.218 24.361 24.963 25.091 25.091 25.093 25.076 24.983 24.908 24.868 25.918 26.633 26.768 26.843 26.783 26.543 26.411 26.293 26.161 26.023 25.993 26.353 27.188 27.953 28.946 29.858 31.013 32.026 32.736 32.933 33.371 33.741 34.131 34.396 34.601 34.921 35.203 35.31 36.15 36.175 36.885 37.518 37.7 38.455 38.84 42.608 39.355 40.935 39.93 40.17 40.56 41.005 41.718 42.075 42.72 43.323 43.708 45.325 46.995 47.238 49.058 51.6 49.958 49.575 48.415 48.313 49.07 50.355 51.55 51.07 50.81 51.625 50.588 50.48 49.578 49.475 49.793 49.888 49.573 49.01 48.925 49.013 48.983 49.123 49.198 49.298 49.37 49.605 49.76 49.718 55.208 64.353 65.06 63.248 64.33 65.65 64.528 65.24 66.298 65.763 66.913 66.808 67.063 67.43 67.625 68.86 68.365 72.343 69.275 69.695 70.645 70.595 70.99 71.315 71.61 72.66 73.543 74.12 74.37 75.323 74.815 75.335 75.81 76.305 76.813 77.238 77.688 77.945 78.185 78.363 78.573 78.915 78.933 79.3
90.439 90.372 90.289 90.207 90.102 90.024 89.907 89.834 89.739 89.652 89.502 89.372 89.237 89.107 89.007 88.984 89.969 90.967 90.427 89.417 88.989 88.932 88.894 88.797 88.699 88.607 88.492 88.422 88.327 88.249 88.147 88.062 87.989 87.917 87.869 87.789 87.617 87.419 87.062 86.594 86.047 85.649 85.302 85.104 85.189 85.562 85.942 85.997 85.837 85.452 85.107 84.774 84.462 84.112 83.764 83.429 83.037 82.722 82.382 82.042 81.717 81.412 81.109 80.789 80.439 80.007 79.644 79.232 78.857 78.467 78.049 77.959 78.424 76.599 75.822 75.654 75.434 75.214 75.004 74.806 74.601 74.376 74.256 74.041 73.864 73.686 73.351 73.136 72.864 72.425 74.461 76.922 77.977 77.277 75.947 74.622 73.109 69.441 69.411 69.252 69.312 70.239 72.827 75.174 75.03 73.444 72.05 71.149 67.474 67.125 67.287 70.363 70.726 70.286 70.241 70.116 69.338 68.031 65.138 64.409 64.164 63.935 63.665 63.375 63.07 62.859 62.746 62.614 63.251 63.239 60.953 60.899 61.041 60.733 60.741 60.744 60.686 60.554 60.949 59.514 57.306 57.084 56.879 58.976 56.936 56.946 56.279 55.749 55.741 55.146 54.739 54.271 53.776 53.359 52.764 52.509 52.104 51.916 51.561 51.696 51.864 51.954 51.979 51.979 52.821 51.834 51.914 52.251 52.436 51.611 51.804 52.294 51.964 51.974 52.359 51.844 51.831 53.149 51.811 52.104 53.374 52.044 52.376 55.676 54.476 55.471 63.821 61.339 69.251 68.606 62.284 65.034 56.886 58.341 54.629 62.956 58.901 56.399 60.081 56.994 48.649 48.529 47.779 47.316 45.251 48.709 53.559 50.221 49.279 57.674 55.126 53.904 51.504 50.731 43.999 45.014 39.256 38.394 44.764 36.514 33.049 33.311 31.251 25.811 24.569 24.594 24.554 24.476 24.378 24.291 24.316 24.343 24.336 24.293 24.223 24.108 24.073 24.178 24.121 24.071 23.991 23.903 23.858 23.821 23.946 25.746 25.503 24.981 24.973 23.876 23.633 23.691 27.561 29.523 30.796 28.706 27.266 33.763 26.131 36.098 38.978 29.238 30.803 30.213 24.211 26.431 26.726 33.428 30.266 28.193 28.956 35.196 33.601 25.768 23.493 23.946 24.043 24.048 24.038 24.003 24.003 23.941 23.953 23.961 23.876 23.863 23.868 23.841 23.961 23.996 24.276 24.636 25.051 25.106 25.103 25.078 24.983 24.918 24.978 25.743 26.653 26.616 26.813 26.738 26.531 26.396 26.278 26.128 25.998 25.948 26.261 27.008 28.268 28.771 29.966 31.036 32.776 32.411 34.408 34.548 34.046 34.503 34.648 34.951 35.366 35.723 36.578 37.735 37.735 37.735 38.213 38.533 39.128 39.473 40.13 41.215 41.408 41.69 40.95 41.235 41.645 42.423 42.638 42.978 43.598 44.665 45.96 46.698 48.255 51.025 51.918 50.343 50.63 48.518 48.448 49.123 50.353 52.088 51.75 51.468 53.113 55.488 51.293 50.473 50.173 50.153 49.91 50.115 50.098 49.968 49.235 49.238 49.373 49.57 49.28 49.27 49.305 49.47 49.795 49.765 52.168 64.005 65.573 64.725 65.183 66.113 65.81 66.16 67.83 67.035 67.458 67.85 68.123 69.495 69.033 70.763 70.033 70.483 72.483 71.44 72.115 71.663 71.93 72.238 72.788 73.108 74.923 73.993 74.66 75.063 76.773 76.158 76.67 78.015 77.55 78.055 79.368 78.973 79.015 79.378 79.543 79.793 82.36 80.408
90.204 90.127 90.054 89.944 89.862 89.764 89.674 89.564 89.477 89.364 89.252 89.159 89.014 88.879 88.722 88.602 88.567 89.174 90.334 90.327 89.404 88.597 88.434 88.362 88.312 88.227 88.132 88.052 87.934 87.822 87.752 87.684 87.582 87.529 87.459 87.402 87.244 86.964 86.614 86.212 85.657 85.209 84.864 84.662 84.702 85.059 85.414 85.389 85.102 84.747 84.359 83.969 83.649 83.282 82.902 82.567 82.229 81.959 81.647 81.319 81.037 80.757 80.469 80.104 79.742 79.412 79.054 78.707 78.317 77.972 78.114 78.254 76.497 75.867 75.649 75.477 75.249 75.049 74.844 74.651 74.416 74.284 74.134 73.792 73.616 73.465 73.166 72.978 72.735 72.321 72.862 75.989 77.385 78.028 76.844 75.496 74.268 71.204 69.231 69.219 69.222 69.822 73.094 74.534 75.595 74.174 72.633 71.548 69.511 66.957 67.622 69.475 69.352 68.28 65.814 66.101 65.179 64.973 64.729 64.856 65.098 64.465 63.809 63.4 63.007 62.651 62.488 62.382 62.263 64.178 61.077 60.916 60.819 60.849 60.746 60.776 60.701 60.809 58.261 57.631 57.431 57.259 59.356 57.306 56.806 56.271 56.036 55.996 55.566 55.096 54.604 54.166 53.701 53.141 52.994 52.564 52.371 52.016 52.124 52.254 52.299 52.379 52.409 52.419 52.391 52.219 52.214 52.329 52.569 55.151 51.689 51.779 52.174 52.019 53.091 51.981 52.539 52.674 52.769 52.626 52.201 52.201 51.466 51.906 52.211 62.799 61.604 63.931 63.601 60.081 64.331 59.924 66.416 64.464 64.704 67.914 54.226 64.011 53.256 56.381 52.886 59.896 53.336 43.206 45.609 46.286 44.301 49.251 57.629 56.244 59.959 52.036 52.669 49.706 42.894 41.984 39.284 40.554 36.246 36.756 34.031 33.854 29.649 24.889 24.469 24.464 24.449 24.483 24.378 24.263 24.288 24.286 24.246 24.173 24.131 24.068 24.038 24.073 24.011 23.938 23.923 23.901 24.071 23.846 23.821 26.451 25.696 23.858 25.088 24.438 23.578 24.506 27.518 29.716 33.978 26.976 26.046 29.951 28.643 32.156 32.451 34.563 31.606 27.101 23.958 25.936 26.976 25.406 26.298 25.418 24.663 27.548 27.711 24.016 23.523 24.031 24.041 24.053 24.048 23.988 23.946 23.941 23.921 23.918 23.936 23.883 23.833 23.901 24.063 24.256 24.496 24.993 25.076 25.043 25.071 25.063 25.081 25.328 27.153 26.328 26.448 26.688 26.701 26.603 26.383 26.261 26.126 25.971 25.863 26.123 26.956 27.213 27.253 28.186 30.908 32.358 32.133 33.291 33.908 34.426 35.071 35.313 35.278 35.673 39.281 38.743 40.178 38.99 39.243 39.803 40.168 40.33 40.92 41.585 41.998 42.718 42.85 42.768 42.638 42.793 43.298 43.97 43.84 44.393 44.823 45.605 46.803 49.46 49.273 49.328 53.308 51.32 49.115 48.513 48.713 50.203 51.77 52.533 52.185 52.538 53.895 54.043 53.188 51.113 50.578 50.248 50.13 50.058 50.113 49.958 49.938 49.323 49.4 49.448 49.645 49.345 49.34 49.45 49.628 50.013 51.253 63.06 65.813 65.843 67.245 67.668 67.025 67.46 68.938 68.27 68.503 68.835 69.243 69.583 76.338 70.495 70.918 71.84 71.818 72.205 72.455 72.73 72.96 73.305 73.87 74.09 74.43 75.043 76.12 75.933 76.555 77.535 77.458 78.875 78.3 78.58 79.025 79.28 83.388 80.22 80.55 80.753 82.835 81.77
89.967 89.887 89.784 89.684 89.604 89.507 89.419 89.317 89.232 89.099 89.002 88.892 88.787 88.647 88.532 88.362 88.199 88.064 88.057 89.139 89.867 89.357 88.382 87.934 87.837 87.807 87.759 87.649 87.557 87.467 87.409 87.319 87.242 87.192 87.107 87.002 86.804 86.504 86.162 85.802 85.332 84.839 84.432 84.184 84.147 84.344 84.827 84.684 84.314 83.949 83.554 83.217 82.834 82.459 82.127 81.792 81.549 81.274 80.974 80.707 80.412 80.149 79.852 79.527 79.197 78.887 78.517 78.192 77.917 78.234 77.879 76.294 75.884 75.694 75.489 75.269 75.087 74.889 74.676 74.469 74.274 74.166 73.909 73.634 73.448 73.287 73.063 72.862 72.429 72.372 72.211 73.781 76.317 77.797 77.776 76.187 69.975 69.277 69.191 69.127 70.078 71.629 72.546 73.86 75.323 74.883 73.314 71.709 68.529 66.745 66.594 66.72 66.119 65.825 65.635 65.424 65.36 65.615 65.011 64.653 64.152 65.208 63.864 63.457 65.389 62.56 62.287 62.149 62.053 62.099 62.799 60.964 60.984 61.039 62.101 60.909 61.431 58.514 57.981 57.794 57.724 60.301 57.209 57.519 56.646 57.426 56.169 55.741 55.429 55.021 54.566 54.014 53.484 53.256 52.916 53.329 56.046 54.771 52.666 52.724 52.769 53.521 53.054 52.796 52.579 52.559 52.649 52.736 55.199 52.321 51.964 52.009 52.161 52.079 52.351 53.231 52.344 52.949 52.466 54.636 52.696 53.466 55.176 54.141 64.324 58.889 68.731 63.504 67.119 60.121 67.259 61.274 68.864 57.291 65.164 63.509 63.971 59.121 54.156 57.154 61.929 63.186 57.216 46.781 43.294 46.636 47.244 45.506 50.776 45.814 54.364 51.611 54.881 43.911 48.101 44.219 40.706 39.251 34.806 32.509 31.244 30.779 28.924 25.006 24.786 29.404 30.491 28.651 24.348 24.233 24.246 24.216 24.216 24.176 24.076 23.998 23.951 23.971 23.956 23.866 23.858 23.838 24.391 23.838 23.811 25.188 23.848 23.748 24.758 24.616 23.558 26.158 25.978 29.376 34.968 38.638 31.098 28.948 27.641 32.738 32.108 33.688 33.113 27.968 27.573 29.498 25.513 25.278 23.946 23.906 24.698 28.956 30.048 24.703 23.848 24.023 24.048 24.033 24.041 23.941 23.903 23.873 23.891 23.866 23.866 23.873 23.846 23.951 24.328 24.601 24.778 25.113 25.073 25.016 25.026 25.026 25.228 26.211 26.183 26.326 26.746 26.678 26.631 26.378 26.251 26.121 26.643 25.816 25.896 26.548 27.276 27.343 27.533 27.941 30.041 31.548 31.971 33.493 34.228 34.696 35.898 36.221 36.448 38.811 39.208 39.781 40.413 40.945 41.775 41.538 41.86 42.413 42.515 42.753 43.468 43.898 43.96 44.125 50.008 48.783 44.545 45.125 45.48 45.998 46.86 48.225 48.69 49.11 49.23 51.535 53.853 51.433 48.63 48.565 50.238 53.035 53.9 52.723 52.613 53.65 54.373 56.418 54.495 53.253 51.13 50.323 49.843 49.735 49.92 50.328 49.978 49.583 49.65 49.545 49.458 49.448 49.538 49.568 50.23 50.975 52.045 60.278 66.67 67.165 67.688 68.583 68.215 69.71 69.56 69.328 69.678 69.965 71.135 70.735 71.018 71.515 71.893 73.063 72.775 75.263 73.54 73.848 74.338 74.51 74.7 74.993 75.48 79.605 77.48 76.925 77.295 77.808 78.363 78.838 79.088 79.593 79.825 79.923 80.29 80.878 83.353 81.75 81.918 82.048
89.737 89.624 89.514 89.442 89.339 89.264 89.142 89.049 88.954 88.847 88.762 88.634 88.529 88.389 88.262 88.132 87.962 87.787 87.607 87.494 88.017 88.944 89.307 88.702 87.629 87.327 87.199 87.162 87.159 87.109 87.057 86.974 86.909 86.799 86.657 86.529 86.307 85.992 85.689 85.382 84.962 84.479 84.079 83.817 83.742 84.259 85.009 84.252 83.532 83.122 82.797 82.439 82.099 81.767 81.469 81.167 80.867 80.587 80.337 80.062 79.767 79.522 79.247 78.967 78.649 78.377 78.084 77.949 78.314 76.829 76.157 75.892 75.697 75.484 75.283 75.056 74.881 74.718 74.517 74.299 74.13 74.005 73.772 73.561 73.364 73.127 72.967 72.611 72.503 72.303 72.1 71.758 74.084 76.942 77.442 75.629 71.442 69.214 69.146 69.053 68.949 70.997 72.047 73.221 74.661 74.861 73.818 68.902 66.813 66.603 66.421 66.224 66.632 66.78 69.262 68.637 65.761 64.742 64.438 64.252 64.063 63.794 63.497 63.243 63.051 63.41 62.105 61.97 61.895 61.748 63.586 61.092 61.116 60.849 62.491 61.291 58.789 58.386 58.141 58.114 61.724 60.289 57.089 56.869 56.739 56.499 56.074 55.691 55.231 54.879 54.434 53.846 53.624 53.319 53.134 55.326 54.999 54.664 53.106 53.116 53.146 53.159 53.066 52.899 52.969 53.046 53.091 53.964 52.286 52.554 52.334 52.739 52.411 52.874 52.594 52.674 53.564 53.494 53.631 55.614 55.186 53.049 54.964 53.761 64.086 65.111 63.621 68.446 60.896 63.836 65.174 68.651 55.026 62.326 57.436 56.229 56.936 53.789 59.559 60.976 63.456 57.261 56.994 59.996 49.659 52.344 52.086 46.481 43.764 52.046 54.314 53.009 47.119 52.056 46.514 42.856 40.459 33.481 32.581 33.126 30.214 30.321 28.634 24.694 24.444 29.336 30.621 28.573 24.328 24.206 24.188 24.116 24.126 24.083 24.048 23.961 23.858 23.921 23.866 23.851 23.843 23.808 24.221 24.786 23.731 23.741 23.668 23.686 24.723 24.298 23.576 24.833 28.291 29.771 29.471 33.856 25.073 29.713 31.263 35.533 32.961 35.003 26.608 26.486 23.968 24.241 24.138 23.863 23.938 23.376 23.301 23.461 25.116 24.028 24.018 23.998 24.003 23.983 23.961 23.931 23.866 23.823 23.796 23.786 23.821 23.778 23.821 23.891 24.426 24.703 25.066 25.198 25.093 25.018 25.048 25.018 30.548 28.291 26.123 26.456 26.651 26.593 26.358 26.238 26.113 25.981 25.813 25.828 26.021 27.128 27.266 27.681 28.551 29.228 30.246 31.626 32.553 34.733 34.138 34.578 35.496 35.801 37.433 38.523 39.471 39.806 40.501 41.393 42.213 43.013 43.633 43.768 43.818 43.88 43.958 44.405 45.63 45.105 45.88 46.608 45.688 45.823 46.228 46.918 48.37 49.233 50.795 48.538 48.573 48.61 49.52 48.63 48.595 49.925 55.253 54.873 54.375 53.038 53.168 54.89 54.61 54.758 54.998 53.785 52.743 50.605 50.178 49.565 49.54 49.618 49.775 49.823 49.778 49.71 49.55 49.913 50.683 49.903 50.195 51.105 52.303 63.618 66.043 67.94 68.72 68.935 69.293 70.305 70.275 70.483 71.328 71.743 72.108 71.9 72.208 72.573 73.398 73.833 73.648 74.21 76.628 74.868 75.258 75.51 75.81 76.258 76.588 77.188 78.815 77.738 78.198 78.655 79.33 79.65 79.963 80.135 80.39 80.78 81.183 81.723 82.345 82.458 82.695 83.043
89.477 89.372 89.257 89.162 89.074 88.974 88.864 88.812 88.687 88.582 88.472 88.377 88.252 88.114 87.974 87.877 87.692 87.542 87.389 87.199 87.044 86.909 87.547 88.552 88.694 88.174 86.927 86.649 86.577 86.617 86.574 86.504 86.394 86.269 86.137 85.999 85.754 85.504 85.224 84.964 84.609 84.207 83.779 83.447 83.389 84.184 84.527 83.384 82.934 82.482 82.142 81.814 81.427 81.127 80.749 80.497 80.234 79.952 79.639 79.407 79.172 78.917 78.679 78.429 78.194 77.977 77.922 78.097 76.752 76.209 75.962 75.724 75.537 75.309 75.095 74.899 74.73 74.538 74.34 74.102 74.031 73.865 73.639 73.461 73.295 73.054 72.881 72.682 72.411 72.227 72.057 71.966 71.374 74.144 75.955 76.413 74.567 69.334 69.035 68.914 68.771 70.015 71.619 72.537 73.757 73.245 70.909 66.881 66.77 66.589 66.685 69.038 72.564 72.189 70.339 68.979 67.103 64.5 64.381 64.209 63.945 63.668 63.388 63.073 62.81 62.521 62.032 61.798 61.66 61.56 61.419 62.869 61.026 61.359 60.169 59.181 58.711 58.519 58.501 61.786 62.646 62.406 60.251 56.949 56.516 56.364 55.966 55.626 55.191 54.741 54.254 54.069 53.716 53.489 53.416 53.389 53.404 53.459 53.504 54.174 53.491 53.389 53.219 53.269 53.481 53.501 53.276 52.621 52.821 52.734 53.269 54.619 53.491 53.229 54.364 54.186 53.929 53.696 54.091 55.701 54.509 55.844 54.574 57.324 64.366 66.509 61.999 62.196 65.861 63.736 65.951 59.046 58.004 63.146 56.176 52.794 56.456 51.581 56.301 61.796 57.756 57.744 60.226 58.009 48.824 51.704 54.164 50.054 46.779 53.524 43.241 48.919 49.646 47.966 48.009 40.981 39.581 33.589 33.391 32.626 30.719 30.686 29.429 24.596 24.406 29.326 30.706 28.801 24.293 24.206 24.146 24.061 24.038 24.006 23.981 23.891 23.811 23.848 23.818 23.796 23.818 23.793 23.796 23.743 23.713 23.618 23.526 23.521 24.553 24.371 23.536 23.653 30.771 29.841 33.451 29.883 34.383 31.773 27.436 34.791 28.168 28.521 28.073 29.581 25.723 23.931 23.931 23.741 23.823 23.278 23.261 23.281 23.893 23.933 23.943 23.968 23.921 23.928 23.901 23.876 23.886 23.843 23.811 23.763 23.773 23.766 23.763 23.868 24.376 24.648 25.068 25.031 25.048 25.011 25.016 25.026 31.176 31.443 26.978 26.553 26.551 26.491 26.216 26.093 25.968 26.268 27.386 26.136 27.043 27.291 28.903 29.588 30.536 31.288 32.811 32.816 33.078 33.741 34.371 35.011 37.428 38.693 39.321 40.128 40.613 41.496 41.841 42.74 42.728 43.408 43.77 43.825 43.883 43.935 43.985 44.085 44.415 45.748 47.895 46.97 47.903 47.423 47.948 48.24 48.898 49.095 48.685 48.393 48.458 48.61 48.538 48.548 48.548 53.935 54.258 54.663 54.055 53.328 53.38 54.68 55.245 55.638 56.353 55.928 58.703 53.483 50.78 50.02 50.265 50.83 50.713 50.13 50.055 49.963 49.91 50.825 51.098 50.185 50.475 51.133 52.67 62.588 63.518 65.535 67.198 69.04 69.915 70.873 71.243 72.158 72.66 72.995 73.77 72.738 73.213 73.618 74 74.513 74.965 75.19 75.495 75.873 76.338 76.573 76.783 77.395 77.548 77.848 78.07 79.765 79.098 79.49 79.995 80.405 80.72 84.78 81.365 81.583 82.065 82.468 82.92 83.258 83.633 83.935
89.229 89.104 89.007 88.897 88.824 88.694 88.604 88.494 88.397 88.319 88.207 88.072 87.964 87.847 87.722 87.567 87.424 87.274 87.134 86.984 86.782 86.594 86.437 86.409 87.039 88.107 88.274 86.929 86.109 85.932 85.922 85.929 85.779 85.602 85.504 85.399 85.252 85.059 84.842 84.599 84.299 83.952 83.482 83.117 83.002 83.212 83.379 82.769 82.339 81.942 81.572 81.194 80.817 80.467 80.162 79.859 79.564 79.329 79.099 78.847 78.629 78.387 78.182 77.974 77.844 78.119 77.932 76.344 76.187 76.004 75.757 75.554 75.362 75.137 74.913 74.714 74.54 74.353 74.174 73.949 73.907 73.674 73.524 73.392 73.23 73.001 72.816 72.598 72.324 72.121 71.997 71.842 71.492 71.741 75.163 76.774 75.41 71.47 68.93 68.793 68.626 68.514 71.073 71.504 71.378 67.446 67.141 66.975 66.994 68.04 66.63 67.1 71.826 72.727 70.883 69.387 68.08 64.34 64.01 63.827 63.626 63.411 63.195 62.913 62.671 62.481 62.706 61.67 61.534 61.391 61.194 62.154 62.799 59.894 59.359 59.066 58.846 58.699 60.889 62.354 62.371 60.701 59.604 56.994 56.539 56.184 55.919 55.484 55.114 54.654 54.431 54.136 53.904 53.681 53.859 54.134 53.861 53.874 53.869 53.836 53.714 53.554 53.651 53.729 55.289 53.219 52.966 52.831 52.696 53.649 54.896 54.496 54.411 54.491 54.286 54.006 54.044 53.654 54.109 54.974 57.459 57.711 56.604 58.519 59.184 62.141 59.014 59.866 63.986 61.319 61.911 63.956 67.211 65.326 66.111 62.441 60.184 65.426 66.321 63.314 56.511 56.181 53.709 55.844 56.886 51.686 47.409 51.104 54.394 52.181 51.689 49.344 45.189 47.579 39.939 38.526 35.034 34.184 33.034 31.991 31.451 30.499 29.094 24.741 24.354 29.321 31.846 29.028 24.283 24.166 24.078 24.038 23.956 23.978 23.948 23.846 23.783 23.818 23.833 23.878 23.898 23.856 23.728 23.696 23.638 23.546 23.513 23.506 24.601 24.431 23.486 23.583 27.473 27.991 30.448 31.001 24.311 23.966 28.263 33.986 29.013 25.166 31.028 30.058 28.681 23.946 23.928 23.748 23.246 23.243 23.261 23.306 23.948 23.928 23.903 23.901 23.873 23.881 23.856 23.866 23.833 23.821 23.791 23.786 23.751 23.711 23.788 23.876 24.336 24.513 24.956 24.986 24.991 24.976 28.053 28.111 32.581 33.113 27.636 26.513 26.458 26.213 26.093 25.973 25.826 25.686 27.483 26.728 26.928 29.496 31.418 32.823 32.338 32.688 33.106 33.366 34.186 37.028 36.933 38.423 38.586 37.426 37.563 38.056 38.518 39.221 39.623 40.19 41.328 42.613 44.178 43.865 43.905 43.938 43.968 44.058 44.4 44.778 45.223 46.83 46.835 47.213 48.61 49.113 49.64 48.753 48.168 48.638 48.39 50.31 48.43 48.488 49.905 57.165 53.73 53.693 53.603 53.503 53.535 53.648 54.555 56.48 56.92 56.705 57.395 55.078 55.085 51.55 51.738 52.175 50.785 50.553 50.38 50.295 50.825 51.02 50.64 50.623 51.223 52.125 53.22 63.05 63.758 65.865 67.078 67.913 69.645 70.13 71.323 72.37 72.615 72.083 73.068 73.548 74.933 74.628 75.243 75.58 77.018 76.118 76.22 76.535 78.098 77.24 78.395 77.925 79.05 78.7 79.01 79.62 79.77 80.233 80.735 81.075 81.485 81.82 82.135 82.388 82.68 82.993 84.458 83.968 84.275 84.618
88.964 88.839 88.747 88.624 88.509 88.432 88.322 88.214 88.112 88.012 87.897 87.794 87.677 87.554 87.442 87.294 87.159 87.022 86.877 86.712 86.539 86.354 86.194 86.019 85.872 85.957 87.112 87.502 87.117 85.762 85.254 85.127 85.107 85.009 84.892 84.727 84.642 84.577 84.429 84.167 83.892 83.609 83.232 82.832 82.592 82.719 83.187 82.194 81.687 81.364 80.969 80.684 80.264 79.914 79.567 79.334 79.004 78.799 78.644 78.447 78.202 77.942 77.662 77.584 77.579 77.457 76.379 76.174 75.962 75.764 75.559 75.367 75.149 74.937 74.759 74.576 74.385 74.187 73.956 73.865 73.766 73.528 73.391 73.274 73.139 72.947 72.74 72.471 72.249 72.033 71.902 71.796 71.591 70.692 73.983 76.036 76.246 74.296 68.878 68.687 68.517 68.209 67.835 67.76 67.521 67.385 67.462 69.031 66.74 65.991 65.721 65.638 71.275 73.052 71.394 69.775 68.535 64.381 64.001 64.099 63.702 63.444 63.211 62.93 62.706 62.502 62.515 61.649 61.421 61.179 60.934 60.779 60.246 59.756 59.534 59.251 59.126 58.831 58.809 61.351 60.439 58.621 57.766 58.004 56.594 56.134 55.854 55.484 55.054 54.829 54.531 54.321 54.054 54.159 54.216 54.134 54.236 54.796 54.176 54.044 53.919 53.999 54.069 55.134 53.481 53.214 53.156 53.011 53.951 55.189 54.756 54.689 54.426 54.751 54.531 55.756 55.346 57.161 56.364 57.184 56.354 57.264 56.319 55.151 62.821 62.521 56.876 55.589 55.221 56.951 57.219 59.629 58.989 59.586 61.189 68.171 67.826 63.866 63.824 63.186 57.271 55.279 58.941 58.726 56.121 54.821 54.489 56.339 50.054 44.926 47.541 44.481 45.016 40.821 42.991 38.939 35.936 33.049 32.991 33.141 30.596 31.019 27.454 25.706 24.401 29.289 30.936 29.096 24.196 24.141 24.058 23.973 23.903 23.923 23.903 23.848 23.776 23.811 23.821 23.991 24.018 23.941 23.793 24.801 24.671 23.551 23.463 27.086 24.268 24.476 23.493 23.548 23.646 23.723 28.701 25.031 24.038 23.968 31.201 29.973 29.711 29.316 25.021 26.511 25.386 23.953 23.846 23.258 23.246 23.243 23.476 23.938 23.873 23.868 23.861 23.888 23.873 23.838 23.821 23.806 23.768 23.738 23.753 23.776 23.698 23.656 23.733 23.851 24.316 24.518 24.896 24.986 25.936 26.956 27.783 26.738 31.658 30.346 28.388 29.471 26.323 26.086 25.958 25.823 25.686 27.008 30.106 26.908 27.773 33.176 32.331 33.113 35.008 35.613 35.156 33.713 35.746 35.603 36.338 36.508 36.581 37.213 37.646 38.028 38.458 39.716 39.641 40.15 40.948 42.1 43.045 43.715 43.938 43.948 43.968 44.05 44.395 45.203 45.208 45.64 46.05 46.418 46.803 47.2 47.588 47.858 48.03 48.12 48.193 48.358 48.373 48.398 54.178 55.915 53.705 53.888 53.698 53.613 53.61 53.663 57.558 54.608 57.053 57.918 58.21 57.618 57.985 55.778 53.365 52.395 51.793 51.215 51.265 51.118 51.095 51.048 51.133 51.46 52.098 63.498 63.048 62.358 63.155 66.618 67.243 67.838 68.688 69.643 70.753 70.818 71.318 72.353 72.585 73.335 74.105 74.343 75.813 75.438 75.833 76.14 76.565 77.375 77.53 78.073 78.59 78.533 79.063 79.645 79.753 81.66 80.765 80.998 81.31 81.938 82.155 82.553 86.82 83.203 83.295 83.695 84.685 84.73 84.985 85.368
88.717 88.574 88.487 88.357 88.257 88.149 88.029 87.922 87.819 87.722 87.592 87.484 87.372 87.259 87.154 87.019 86.889 86.754 86.604 86.442 86.279 86.127 85.947 85.757 85.567 85.397 85.289 86.244 87.054 86.812 85.904 84.774 84.377 84.279 84.229 84.122 84.032 83.974 83.914 83.754 83.477 83.222 82.864 82.492 82.184 82.164 82.534 82.017 81.194 80.799 80.522 80.067 79.699 79.412 79.107 78.844 78.654 78.414 78.194 77.987 77.807 77.592 77.397 76.949 76.654 76.414 76.207 75.952 75.719 75.517 75.334 75.154 74.957 74.757 74.602 74.395 74.209 74.049 73.841 73.795 73.607 73.45 73.305 73.169 72.975 72.784 72.512 72.227 72.094 71.925 71.733 71.63 71.556 71.086 72.08 75.142 76.725 75.213 70.9 68.586 68.398 68.03 67.879 67.796 67.923 69.302 69.29 67.164 66.3 65.816 65.549 65.421 70.548 72.642 71.897 70.174 68.884 67.612 64.675 63.809 63.713 63.505 63.253 63.545 64.404 62.044 61.894 62.921 61.386 61.161 60.844 60.551 60.269 59.999 59.911 59.984 61.744 59.619 58.896 58.859 58.791 58.636 58.826 57.796 56.574 56.121 55.764 55.459 55.184 54.949 54.764 54.504 54.539 54.549 54.556 54.589 54.541 54.514 54.366 54.236 54.299 54.391 57.846 53.851 53.571 53.456 53.381 54.034 55.174 55.064 54.856 54.701 54.646 55.019 54.561 57.211 57.644 60.461 62.336 58.074 56.571 55.679 54.846 54.294 59.804 58.056 54.594 55.571 57.154 63.701 58.519 58.146 59.181 62.306 67.809 65.536 64.666 69.351 67.524 61.866 63.274 53.296 46.996 58.836 53.154 54.174 53.329 48.579 51.309 50.806 47.106 43.034 41.806 41.751 41.979 40.471 36.049 34.101 31.874 31.589 31.804 30.119 28.256 27.521 24.401 29.321 30.969 29.136 24.458 24.073 24.003 23.938 23.876 23.891 23.858 23.848 23.806 23.773 23.766 23.858 23.931 24.013 23.841 24.123 23.953 26.556 25.916 29.093 29.466 24.953 23.546 23.536 23.591 23.668 23.746 23.818 23.926 23.926 23.953 23.981 24.498 23.951 25.373 23.906 23.921 23.903 23.281 23.238 23.248 23.246 23.913 23.893 23.841 23.841 23.851 23.898 23.916 23.858 23.818 23.776 23.743 23.728 23.706 23.708 23.638 23.656 23.696 23.903 24.233 24.656 24.858 25.741 25.223 27.933 29.771 30.488 31.521 28.718 26.806 26.338 26.073 25.956 25.833 25.681 26.226 28.096 28.336 27.056 28.393 31.838 33.488 33.513 36.628 37.053 36.171 33.726 35.023 35.591 35.743 36.548 37.583 37.111 37.846 38.028 38.398 40.991 41.408 39.918 41.993 40.935 42.955 42.655 46.675 47.298 47.335 44.743 44.638 45.935 45.59 47.248 47.158 47.005 47.325 47.613 47.568 47.858 48.058 48.098 48.15 48.203 48.28 48.293 57.948 54.66 53.663 53.693 53.658 53.665 53.69 58.4 58.663 57.898 56.495 57.325 58.203 59.223 59.33 59.08 58.945 53.455 53.015 52.785 52.675 52.123 51.988 52.07 52.243 52.803 56.12 54.33 58.78 60.583 65.598 66.7 68.725 67.985 68.673 69.41 70.105 70.568 71.18 71.925 72.273 75.65 73.905 73.693 74.105 75.013 75.583 76.395 78.805 77.225 77.703 78.118 78.588 78.838 79.298 82.26 79.788 80.443 81.083 81.588 81.97 82.468 85.133 83.243 83.515 83.868 84.193 84.56 89.113 85.473 85.768 86.27
88.454 88.332 88.202 88.097 87.999 87.877 87.747 87.647 87.517 87.417 87.284 87.184 87.087 86.992 86.852 86.722 86.607 86.494 86.344 86.169 86.027 85.862 85.717 85.524 85.334 85.124 84.914 84.759 84.937 85.724 86.272 85.909 84.829 83.952 83.612 83.367 83.299 83.299 83.259 83.117 82.934 82.702 82.349 82.019 81.772 81.577 82.122 81.427 80.614 80.392 80.109 79.669 79.224 78.914 78.657 78.442 78.282 78.074 77.874 77.654 77.477 77.279 77.002 76.714 76.449 76.167 75.977 75.767 75.504 75.302 75.109 74.962 74.747 74.594 74.435 74.236 74.047 73.883 73.77 73.703 73.481 73.323 73.156 73.007 72.769 74.011 72.227 72.014 71.842 71.72 71.581 71.462 71.361 71.124 72.188 74.269 76.042 76.063 73.717 68.474 68.223 68.094 68.05 69.088 68.054 68.118 67.929 66.605 65.847 66.304 65.502 65.342 68.474 72.032 72.484 70.92 70.206 68.775 67.394 63.904 63.646 65.341 65.479 70.571 71.091 63.496 61.899 61.749 61.434 61.194 60.954 60.696 60.531 60.571 60.806 62.146 62.581 61.606 58.931 58.911 58.896 58.884 58.774 59.569 56.684 56.211 55.836 55.536 55.316 54.969 55.001 54.951 54.936 54.929 54.921 54.961 54.994 54.709 54.539 54.639 54.711 57.801 54.181 53.901 53.719 53.764 54.769 55.619 55.406 55.141 55.004 54.899 55.551 55.249 55.054 59.624 62.889 58.686 63.154 58.386 54.966 55.164 55.721 55.269 54.511 54.704 55.049 57.454 58.026 65.489 60.164 55.929 56.684 60.219 61.716 65.479 58.631 70.254 65.956 67.044 59.609 56.229 50.936 55.856 57.274 57.396 45.059 52.911 54.026 53.349 48.436 40.209 42.574 41.024 40.651 38.004 36.004 32.731 33.426 31.299 30.764 30.674 27.566 25.554 24.384 29.319 31.006 29.213 24.228 24.143 23.951 23.971 23.888 23.851 23.831 23.798 23.808 23.848 23.783 23.798 23.966 23.956 23.823 25.573 25.588 26.531 27.436 29.461 29.131 25.941 23.931 23.476 23.526 23.646 23.716 23.743 23.846 23.881 23.921 23.901 23.946 23.908 23.883 23.878 23.901 23.891 23.193 23.226 23.241 23.636 23.856 23.823 23.801 23.826 23.856 23.936 23.943 23.881 23.843 23.783 23.733 23.711 23.703 23.666 23.638 23.698 23.683 23.871 24.028 24.833 24.918 24.886 25.316 28.796 30.351 31.128 27.463 26.338 26.308 26.196 25.941 25.823 25.686 25.553 25.556 29.248 29.023 28.011 29.068 32.743 33.191 33.458 36.608 36.896 36.143 33.673 34.608 35.223 35.598 36.001 37.026 37.006 37.041 37.831 38.336 40.601 41.413 39.683 43.89 42.483 41.123 41.91 46.32 48.03 47.718 44.308 44.538 44.778 46.318 45.533 48.293 46.498 48.325 47.063 49.225 47.77 48.345 48.148 48.168 48.165 48.15 48.148 57.525 53.75 53.63 53.655 53.64 53.72 53.77 57.785 58.643 58.993 58.255 57.03 57.253 58.098 59.025 59.678 60.623 65.615 54.745 54.933 54.72 53.853 53.638 53.47 53.52 53.825 54.345 55.148 56.23 58.345 61.59 63.958 67.423 67.99 68.723 69.633 70.14 70.478 71.048 71.553 71.865 72.98 73.63 74.023 74.32 74.868 75.59 76.203 76.85 77.383 77.973 78.4 78.73 78.96 79.67 79.25 79.563 80.418 81.085 81.583 82.165 82.693 83.065 83.418 83.615 84.13 84.783 86.513 85.655 86.358 86.423 86.525
88.214 88.079 87.957 87.849 87.712 87.597 87.484 87.367 87.254 87.127 87.004 86.902 86.789 86.652 86.534 86.434 86.314 86.184 86.042 85.902 85.757 85.594 85.412 85.269 85.082 84.897 84.704 84.464 84.282 84.129 84.402 85.217 85.772 85.707 84.219 83.317 82.697 82.464 82.379 82.342 82.334 82.107 81.794 81.487 81.287 81.084 81.134 81.819 80.227 79.864 79.677 79.227 78.854 78.564 78.347 78.172 78.022 77.794 77.554 77.377 77.204 77.037 76.804 76.507 76.259 75.992 75.762 75.572 75.352 75.099 74.909 74.734 74.594 74.419 74.275 74.084 73.908 73.74 73.715 73.578 73.387 73.202 72.967 72.727 72.466 72.204 71.944 71.816 71.66 71.508 71.4 71.303 71.182 71.037 72.103 73.382 75.13 75.919 68.72 68.351 68.252 68.227 68.236 68.424 68.005 67.922 68.043 68.15 65.67 65.658 65.962 65.259 65.16 72.571 74.514 72.476 70.696 69.676 67.904 66.651 71.089 70.726 71.214 71.726 71.876 70.931 61.934 61.759 61.499 61.334 61.119 60.934 61.161 62.041 62.549 62.506 62.169 58.879 60.081 58.899 58.884 58.916 58.864 58.806 58.774 56.146 55.874 55.579 55.529 55.436 55.261 55.326 55.294 55.281 55.306 55.296 55.046 54.961 55.034 55.084 58.029 54.449 54.264 54.041 54.059 55.239 55.744 55.636 55.421 55.269 55.216 56.154 55.489 55.401 59.709 60.501 61.036 58.839 57.139 61.156 55.536 55.049 54.991 55.311 54.844 54.826 54.986 55.896 61.424 63.291 59.809 55.364 56.034 62.031 68.866 59.394 68.311 60.934 64.994 64.694 61.879 58.466 50.229 52.636 59.339 55.784 52.094 48.361 49.041 49.606 51.374 46.714 39.966 40.011 42.014 34.921 34.036 33.571 31.624 31.501 30.121 29.406 27.136 25.236 24.444 29.284 31.049 29.283 24.141 23.986 23.916 23.963 23.923 23.873 23.841 23.818 23.818 23.861 23.893 23.938 23.881 23.878 23.841 25.376 27.903 26.046 33.731 29.856 28.296 28.548 25.458 23.361 23.441 23.606 23.691 23.733 23.793 23.821 23.853 23.853 23.886 23.898 23.831 23.813 23.856 23.836 23.196 23.216 23.393 23.863 23.806 23.778 23.763 23.846 23.906 23.918 23.913 23.901 23.906 23.861 23.763 23.696 23.668 23.628 23.638 23.658 23.721 23.861 23.863 24.818 24.913 24.833 25.836 28.428 29.273 29.696 30.761 26.288 26.221 25.961 25.843 25.701 25.558 25.446 27.521 32.323 34.268 30.061 31.538 32.823 33.261 33.418 33.568 33.488 33.968 33.551 34.253 34.981 38.888 38.506 36.708 36.923 37.053 37.496 37.998 40.013 39.858 39.428 45.693 45.508 45.133 45.255 46.615 48.05 47.738 44.5 44.005 44.258 45.308 46.713 46.278 45.958 48.105 46.78 47.15 49.293 48.085 50.68 50.705 50.115 48.023 47.988 53.44 53.785 53.555 53.575 53.828 53.75 53.715 54 57.53 58.28 55.953 56.848 59.86 63.08 58.193 59.518 59.475 60.405 61.128 61.423 57.108 58.488 58.41 56.768 54.448 55.643 54.91 55.878 57.285 58.17 60.353 61.81 67.465 68.065 69.595 69.403 69.905 70.08 70.518 71.18 71.815 72.63 73.293 75.405 74.138 74.72 75.335 75.905 76.75 77.27 77.325 78.323 78.73 79.768 79.348 79.548 79.955 80.643 81.063 82.805 82.268 82.53 83.188 83.43 83.56 84.118 86.235 85.455 85.773 86.59 86.908 86.908
87.934 87.819 87.697 87.564 87.429 87.304 87.184 87.052 86.937 86.822 86.712 86.594 86.494 86.359 86.257 86.147 86.027 85.889 85.759 85.629 85.487 85.327 85.172 84.997 84.844 84.649 84.467 84.272 84.052 83.797 83.579 83.469 83.967 84.452 84.772 84.664 83.917 83.019 82.214 81.777 81.539 81.424 81.267 80.999 80.742 80.469 80.212 80.934 80.664 79.569 79.272 78.942 78.589 78.357 78.157 77.982 77.754 77.562 77.337 77.112 76.952 76.794 76.609 76.387 76.127 75.889 75.587 75.327 75.129 74.939 74.742 74.562 74.412 74.257 74.074 73.955 73.794 73.596 73.658 73.474 73.32 73.077 72.765 72.503 72.241 72.017 71.751 71.645 71.492 71.336 71.224 71.186 71.016 70.894 71.228 72.496 68.924 68.612 68.482 68.372 68.378 68.392 68.345 68.579 67.993 67.974 68.351 68.109 68.081 67.768 67.781 67.419 65.151 71.954 73.976 74.016 71.171 72.361 71.219 71.784 71.911 71.836 71.839 71.284 70.736 70.226 61.836 61.584 61.509 61.494 61.974 60.901 62.386 62.926 62.374 60.534 59.124 59.039 58.936 58.931 58.901 58.901 58.886 58.846 58.899 59.686 55.984 55.839 56.259 55.696 55.611 55.654 55.634 55.699 55.674 55.401 55.371 55.441 55.484 56.039 54.859 54.676 54.394 54.499 56.261 56.129 55.961 55.719 55.561 55.499 56.621 55.909 55.881 55.799 59.969 59.061 62.009 61.936 56.971 58.186 56.281 55.641 56.629 56.989 55.651 54.834 55.329 54.599 59.976 60.924 60.189 60.796 56.979 58.451 64.731 66.766 66.151 66.386 60.849 64.006 53.771 52.729 51.854 54.731 58.234 62.064 53.089 51.744 52.859 52.294 49.281 49.761 39.634 40.864 42.014 39.434 35.181 33.189 31.899 30.664 30.264 29.159 28.699 25.059 26.879 29.276 31.091 29.278 24.218 24.008 23.886 23.946 23.866 23.851 23.841 23.826 23.813 24.151 24.101 23.968 23.918 23.918 23.853 23.868 28.981 28.411 30.668 28.588 28.796 30.983 26.636 23.386 23.396 23.551 23.646 23.693 23.778 23.781 23.806 23.848 23.896 23.891 23.808 23.821 23.883 23.211 23.211 23.461 23.798 23.816 23.801 23.751 23.723 23.828 23.913 23.928 23.881 23.861 23.921 23.903 23.856 23.763 23.696 23.693 23.573 23.666 23.693 23.731 24.008 24.836 24.888 24.848 25.611 26.331 27.993 27.078 26.383 26.191 26.108 25.841 25.716 25.576 25.423 31.253 30.916 36.018 38.056 30.928 32.571 32.646 33.148 33.278 33.321 33.383 33.431 33.496 33.576 34.738 41.278 41.298 36.096 36.538 37.023 37.268 37.613 39.556 38.866 39.148 46.825 47.053 47.078 47.09 46.583 48.005 46.828 45.283 43.185 44.54 44.193 44.745 45.12 45.673 46.345 46.488 46.788 47.353 48.025 50.733 50.738 50.753 47.893 47.833 53.225 53.4 52.82 52.02 52.423 52.853 53.745 53.835 54.853 55.31 56.015 57.505 63.158 66.87 59.583 58.575 59.013 59.625 60.03 61.07 59.418 60.608 60.35 59.185 60.165 55.743 56.045 57.08 58.795 59.25 60.233 61.498 65.545 67.53 68.648 69.228 69.673 69.87 70.433 71.47 72.23 72.57 73.018 73.258 73.455 74.323 75.323 76.108 76.645 76.955 76.863 77.81 78.51 79.305 79.568 79.885 80.11 80.918 80.883 80.988 81.67 82.685 83.083 83.41 83.76 84.178 84.79 85.245 85.695 93.675 86.28 86.87
87.702 87.559 87.442 87.309 87.159 87.039 86.919 86.807 86.672 86.549 86.414 86.307 86.192 86.079 85.982 85.849 85.709 85.592 85.462 85.349 85.204 85.032 84.904 84.754 84.589 84.427 84.237 84.039 83.834 83.594 83.347 83.094 82.859 82.689 82.967 83.437 83.729 83.692 83.454 82.829 81.624 81.107 80.809 80.529 80.307 80.127 79.759 79.772 80.112 79.572 79.232 78.817 78.489 78.272 78.032 77.987 77.682 77.497 77.177 76.984 76.734 76.604 76.427 76.232 76.009 75.729 75.419 75.114 74.912 74.784 74.589 74.389 74.232 74.059 73.884 73.763 73.649 73.587 73.549 73.387 73.188 72.911 72.623 72.349 72.062 71.773 71.55 71.396 71.222 71.071 70.991 70.984 70.43 69.98 70.063 68.888 68.736 68.646 68.724 70.703 71.662 71.784 68.322 69.994 68.011 68.181 67.999 69.741 72.589 72.671 69.084 64.901 65.749 70.489 73.394 73.816 71.736 71.869 72.461 73.016 72.491 71.374 70.651 69.484 62.491 62.216 61.874 61.711 61.579 61.616 63.506 62.196 62.624 61.969 59.181 58.774 60.571 58.981 58.926 58.921 58.959 58.916 58.919 58.849 58.739 58.709 56.539 56.121 56.724 55.814 55.934 55.941 56.056 56.001 55.766 55.746 55.774 56.564 55.989 55.266 55.001 54.899 54.961 56.619 56.534 56.259 56.031 55.794 55.819 57.304 62.699 65.996 59.319 64.099 60.611 60.289 63.176 59.121 58.676 55.986 55.796 56.481 58.144 58.036 56.929 55.111 55.214 54.791 55.614 56.434 55.766 54.821 59.414 59.201 62.249 60.506 55.174 55.214 55.489 64.776 59.526 59.064 48.819 59.971 56.681 63.751 57.491 49.469 49.591 54.451 53.591 38.689 38.536 38.681 44.919 35.356 35.219 34.791 32.231 31.099 30.586 29.229 27.519 24.991 24.494 27.556 27.181 27.133 24.163 24.006 23.858 24.181 23.908 23.808 23.846 23.853 23.828 23.893 23.903 23.921 23.918 23.871 23.853 23.891 27.726 31.378 28.036 33.116 28.343 28.746 24.816 23.723 23.343 23.483 23.571 23.666 23.721 23.798 23.798 23.836 23.866 23.868 23.783 23.796 23.876 23.213 23.203 23.651 23.621 23.628 23.771 23.751 23.688 23.823 23.906 23.936 23.901 23.903 23.931 23.918 23.886 23.833 23.788 23.691 23.608 23.638 23.626 23.611 24.386 24.826 24.828 25.856 29.376 32.186 26.923 25.926 26.183 26.116 25.871 25.738 25.601 25.433 25.316 25.996 34.051 33.486 38.116 32.108 31.371 32.103 33.151 33.078 33.126 33.206 33.311 33.398 33.483 34.513 42.008 42.303 42.366 42.446 42.163 38.331 37.456 39.668 38.563 39.24 46.835 48.07 48.058 47.288 46.583 46.798 46.77 42.618 44.41 43.57 46.973 44.25 45.123 46.57 46.01 46.25 46.45 47.025 47.885 50.773 50.788 50.773 47.845 47.678 52.008 51.855 51.923 52.283 52.173 52.775 53.79 54.448 54.315 55.15 55.835 56.218 60.985 60.955 59.963 58.515 58.84 59.685 59.885 60.093 60.818 60.943 61.015 62.075 62.618 67.26 58.678 59.643 60.508 61.013 60.923 61.798 63.225 66.158 68.323 68.81 69.693 69.93 70.415 71.54 72.355 72.868 72.85 73.793 72.843 74.24 75.193 75.97 76.903 76.8 76.983 77.62 78.095 78.875 79.8 79.81 80.045 80.875 80.79 81.528 80.82 82.283 83.853 83.72 83.803 84.308 84.95 85.53 85.773 86.043 85.988 87.213
87.459 87.322 87.184 87.044 86.904 86.762 86.667 86.499 86.377 86.272 86.162 86.027 85.907 85.782 85.652 85.552 85.439 85.327 85.182 85.069 84.932 84.799 84.644 84.502 84.352 84.157 84.007 83.819 83.612 83.382 83.152 82.912 82.669 82.397 82.149 81.937 81.827 82.299 82.729 83.062 82.614 82.222 81.452 80.344 79.949 79.697 79.404 79.234 79.529 79.302 79.044 79.022 78.577 78.214 77.874 77.829 77.599 77.217 77.014 76.817 76.612 76.399 76.214 76.044 75.882 75.594 75.262 74.989 74.744 74.567 74.444 74.232 74.039 73.869 73.699 73.603 73.512 73.467 73.399 73.221 73.023 72.743 72.435 72.074 71.787 71.534 71.349 71.101 71.033 70.937 70.787 70.61 70.428 70.511 68.947 71.188 71.394 70.696 72.817 72.51 72.67 72.071 69.971 67.459 67.811 67.179 69.186 71.679 73.516 73.106 71.389 70.211 70.196 70.054 72.761 76.074 72.579 73.046 72.646 72.051 71.489 69.599 63.309 62.804 63.174 62.269 61.991 61.831 61.724 61.671 61.709 61.824 60.234 59.454 59.071 58.809 58.789 59.306 58.969 58.931 58.936 58.919 58.924 58.859 58.789 59.351 58.741 56.286 56.166 56.689 56.154 56.231 56.259 56.121 56.184 56.194 56.556 56.219 55.729 55.396 55.251 55.389 57.094 56.999 56.639 56.354 56.096 56.666 57.511 67.999 62.816 63.244 65.534 68.041 65.284 56.669 58.619 59.579 58.209 56.061 55.976 55.959 56.581 56.636 57.054 62.269 57.889 58.134 54.696 56.249 57.301 58.914 56.439 58.919 57.244 56.566 57.276 60.554 59.681 60.451 66.674 67.091 52.126 56.214 52.154 60.309 59.254 54.746 52.161 53.126 49.546 41.566 38.969 41.181 43.204 37.774 34.079 34.084 32.186 31.386 30.021 29.309 26.656 26.191 27.789 26.141 25.904 24.718 24.501 24.903 23.843 24.771 24.311 23.776 23.848 23.878 23.808 23.888 23.913 23.943 23.901 23.778 23.821 23.781 23.723 26.023 28.173 31.001 29.803 25.881 24.526 24.133 23.308 23.411 23.586 23.633 23.706 23.753 23.783 23.811 23.828 23.813 23.803 23.786 23.858 23.206 23.188 23.551 23.673 23.671 23.731 23.758 23.676 23.781 23.916 23.928 23.913 23.926 23.926 23.908 23.893 23.866 23.796 23.758 23.581 23.606 23.643 23.548 24.671 24.808 25.106 25.471 29.568 29.221 28.323 27.728 26.121 26.046 25.751 25.611 25.461 25.311 25.301 30.848 27.971 34.566 33.876 35.311 31.346 31.283 32.381 32.881 32.946 33.026 33.141 33.246 33.366 34.291 41.978 43.751 43.851 43.678 42.258 38.396 36.936 39.573 38.366 38.888 46.748 46.75 46.715 46.695 43.923 41.04 42.778 42.163 44.74 46.063 50.225 50.523 46.183 46.515 44.453 45.83 46.13 46.723 47.338 47.475 47.823 48.475 48.11 47.49 52.668 52.158 51.838 51.933 52.3 52.328 53.458 54.268 54.988 54.72 55.098 56.253 56.835 57.21 57.48 58.783 58.503 59.12 62.563 72.6 70.555 60.923 61.24 61.913 62.52 63.515 63.968 63.443 62.07 62.178 61.85 62.2 63.363 67.04 67.978 68.543 69.03 69.675 70.38 71.238 72.14 72.615 72.655 72.55 72.513 73.645 74.333 75.588 77.1 77.105 77.083 77.535 78.013 78.725 79.168 79.638 80.248 81.05 81.123 80.573 80.623 81.378 83.38 83.695 83.963 84.705 85.355 88.768 86.913 85.35 85.713 86.47
87.202 87.074 86.919 86.792 86.662 86.534 86.397 86.262 86.114 85.997 85.879 85.749 85.629 85.527 85.392 85.277 85.144 85.037 84.914 84.797 84.674 84.512 84.387 84.237 84.084 83.929 83.762 83.549 83.347 83.182 82.952 82.714 82.467 82.214 81.982 81.709 81.467 81.247 81.047 81.209 81.239 81.712 82.149 81.789 80.347 79.534 79.174 78.877 78.547 78.272 78.194 78.132 77.987 78.329 78.394 77.712 77.194 76.982 76.814 76.662 76.457 76.259 76.017 75.844 75.634 75.399 75.127 74.852 74.607 74.392 74.249 74.087 73.914 73.729 73.557 73.423 73.358 73.37 73.211 73.071 72.851 72.562 72.225 71.913 71.579 71.351 71.157 70.978 70.913 70.753 70.66 70.645 75.363 74.01 76.776 82.251 82.866 77.111 76.954 71.966 71.721 70.619 67.426 67.306 67.171 66.644 65.734 71.259 72.966 73.539 71.744 70.529 70.459 70.666 72.084 74.216 72.976 72.071 71.459 67.199 63.681 64.924 63.504 63.081 62.789 62.421 62.056 61.884 61.831 61.766 61.749 61.811 61.879 62.934 62.531 64.754 59.371 60.331 59.006 59.371 58.939 58.919 58.906 58.891 58.821 58.791 60.709 57.156 56.306 56.184 56.149 56.401 56.446 56.544 56.531 59.459 56.761 56.089 55.864 55.694 55.834 57.389 57.201 56.924 56.656 56.419 56.821 57.314 67.904 64.901 65.131 66.539 62.914 68.766 70.081 60.386 62.774 61.836 59.329 56.389 56.359 61.846 58.651 65.599 61.266 62.659 59.514 63.331 63.501 55.924 56.526 56.261 61.099 58.931 62.831 59.444 57.451 56.154 59.154 67.439 59.916 53.976 51.221 53.906 53.956 53.171 55.779 65.101 52.856 50.484 44.724 45.399 40.664 39.104 36.649 35.984 34.271 33.696 33.121 31.316 29.491 28.616 26.609 27.269 27.744 25.519 25.214 25.126 24.833 24.866 23.901 23.778 22.661 23.748 23.821 23.888 23.843 23.848 23.821 23.876 23.831 23.751 23.708 23.686 23.696 23.626 23.551 23.471 23.398 23.638 24.466 24.373 23.318 23.343 23.566 23.666 23.708 23.743 23.733 23.756 23.783 23.783 23.756 23.783 23.846 23.211 23.201 23.258 23.553 23.671 23.703 23.801 23.681 23.771 23.878 23.881 23.883 23.931 23.971 23.926 23.878 23.846 23.838 23.786 23.616 23.568 23.596 23.658 24.726 24.796 24.748 28.656 27.971 28.748 30.788 30.991 26.036 25.838 25.656 25.518 25.358 25.203 25.371 26.358 29.506 32.176 37.561 34.043 32.513 30.898 31.433 32.568 32.771 32.813 32.923 33.033 33.896 34.061 41.911 43.048 42.978 42.908 42.298 36.326 36.966 39.498 38.181 38.23 38.378 38.453 39.515 45.213 40.373 40.858 42.945 42.535 42.343 48.008 50.998 51.65 50.865 50.108 50.31 44.368 45.818 47.343 46.585 47.073 47.408 47.803 48.488 47.313 53.2 51.73 51.5 51.315 51.308 52.293 53.16 54.07 54.275 54.395 54.853 55.705 56.345 56.88 57.26 57.703 57.965 64.65 67.715 70.835 72.765 63.198 60.983 62.143 62.735 63.068 63.268 64.09 64.505 64.205 65.328 66.143 66.56 67.278 67.933 68.105 68.4 69.325 70.163 71.14 71.935 71.958 73.328 72.123 72.353 73.028 74.075 75.075 75.985 76.64 76.82 77.45 78.25 78.973 79.64 80.22 80.935 81.228 81.558 81.255 80.84 81.535 82.933 83.58 86.285 86.26 85.965 84.87 84.718 84.913 85.545 86.585
86.982 86.847 86.692 86.547 86.417 86.294 86.147 85.987 85.862 85.737 85.597 85.492 85.367 85.239 85.109 84.994 84.867 84.767 84.637 84.494 84.374 84.262 84.119 83.974 83.822 83.659 83.504 83.309 83.132 82.909 82.707 82.494 82.274 82.052 81.777 81.524 81.264 81.037 80.814 80.572 80.312 80.009 80.257 80.429 80.719 80.289 79.137 78.684 78.379 78.122 77.814 77.404 77.077 77.062 76.999 77.052 76.959 76.859 76.629 76.464 76.249 76.052 75.864 75.639 75.442 75.177 74.932 74.647 74.439 74.284 74.167 73.992 73.762 73.619 73.447 73.331 73.273 73.271 73.044 72.889 72.666 72.364 72.069 71.788 71.447 71.195 71.039 70.871 70.844 70.694 70.796 69.534 83.984 80.684 82.776 85.899 83.924 79.751 80.129 72.296 70.549 67.341 67.204 67.206 67.199 67.084 66.889 69.664 72.556 74.034 72.116 71.224 71.469 71.696 71.991 73.589 73.689 72.919 67.856 64.054 63.951 63.824 63.591 63.311 62.969 62.569 64.291 61.929 61.899 61.859 61.861 61.876 62.934 64.829 65.246 65.259 59.699 59.396 59.734 59.396 59.071 58.936 58.936 58.884 58.866 58.826 58.889 57.761 56.474 56.384 57.144 56.516 56.761 56.871 59.011 56.816 56.419 56.176 56.056 57.041 57.804 57.934 57.294 57.056 56.901 57.456 57.496 63.531 60.029 61.984 66.456 63.906 69.679 70.826 66.739 68.521 66.561 66.436 62.584 56.676 56.586 66.354 68.021 61.546 63.641 56.639 65.716 64.741 68.764 57.239 58.419 55.899 60.176 58.034 64.876 63.969 60.324 64.461 65.081 66.399 58.691 48.289 50.906 50.171 52.824 51.189 62.351 47.214 59.511 49.406 44.556 44.051 37.904 36.404 37.904 37.691 38.501 34.949 31.589 32.259 31.266 28.829 26.514 26.221 25.884 25.521 25.224 24.938 24.811 25.931 23.921 24.136 22.596 23.903 23.816 23.861 23.823 23.796 23.743 23.783 23.753 23.688 23.653 23.606 23.583 23.568 23.506 23.468 23.353 23.153 24.361 24.528 23.306 23.376 23.538 23.603 23.653 23.711 23.733 23.728 23.758 23.753 23.766 23.776 23.838 23.583 23.191 23.193 23.206 23.351 23.478 23.823 23.703 23.783 23.848 23.856 23.876 23.901 23.926 23.873 23.843 23.826 23.858 23.788 23.663 23.493 23.583 23.823 24.748 24.746 24.723 25.201 27.943 31.471 31.768 29.106 25.966 25.698 25.556 25.403 25.233 25.161 28.943 29.598 28.336 29.603 33.753 31.503 30.763 30.958 31.201 31.591 31.953 32.568 32.646 32.781 33.503 33.876 41.076 40.943 39.541 41.498 39.448 36.303 37.961 38.968 37.726 37.865 38.33 38.318 38.465 38.335 40.273 42.778 40.893 41.688 42.223 50.288 51.083 51.925 52 51.198 50.763 45.885 45.03 45.943 46.35 46.693 50.34 48.01 48.765 47.088 48.525 52.94 51.123 51.09 51.14 52.133 52.435 53.378 54.943 55.588 57.155 55.035 55.85 55.56 59.028 60.373 59.953 58.325 59.648 72.575 75.335 71.073 62.365 61.798 62.085 62.303 62.895 63.4 64.04 64.835 65.568 65.613 66.458 67.858 67.523 67.883 68.285 69.023 69.828 70.698 71.303 71.555 71.873 72.3 72.568 73.358 74.235 78.428 75.438 76.088 76.488 77.223 79.765 78.498 79.608 80.285 80.92 81.44 81.643 81.33 81.29 81.895 82.388 82.808 83.908 84.89 88.01 84.41 84.31 90.863 85.718 86.733
86.742 86.604 86.454 86.294 86.197 86.022 85.882 85.764 85.644 85.492 85.349 85.254 85.114 85.009 84.874 84.734 84.599 84.502 84.364 84.267 84.119 83.977 83.839 83.712 83.564 83.414 83.244 83.044 82.904 82.704 82.487 82.267 82.069 81.837 81.602 81.342 81.107 80.867 80.672 80.474 80.229 79.894 79.647 79.417 79.319 79.134 78.842 78.554 78.677 78.369 77.772 77.279 76.887 76.712 76.687 76.607 76.494 76.432 76.354 76.189 75.964 75.792 75.644 75.462 75.217 74.977 74.702 74.444 74.219 74.099 74.002 73.887 73.739 73.607 73.429 73.225 73.197 73.134 72.914 72.71 72.483 72.216 71.921 71.615 71.338 71.098 70.942 70.793 70.814 70.972 73.386 80.071 79.884 83.069 85.099 84.866 85.109 82.904 83.176 67.849 67.369 67.271 67.186 67.196 67.209 67.109 67.004 65.899 72.189 73.984 72.529 72.316 72.566 72.994 73.474 73.991 74.549 75.109 68.126 65.936 64.209 64.091 63.819 63.484 66.476 65.954 65.414 64.714 61.924 62.126 62.269 64.864 65.326 65.791 65.691 65.769 64.814 59.461 59.349 59.244 59.109 59.054 58.999 58.924 58.886 58.916 58.849 60.914 57.196 56.594 57.819 56.776 57.031 60.166 57.614 56.869 56.629 56.459 57.784 58.021 57.851 57.559 57.391 57.241 58.274 57.831 57.736 61.394 68.204 61.171 64.744 66.456 74.779 68.489 69.156 68.704 63.519 65.364 61.886 61.959 61.136 65.194 63.721 68.869 67.231 63.279 61.469 61.216 64.314 60.646 59.099 62.109 60.536 67.454 65.729 65.151 53.996 62.534 68.446 61.116 66.421 57.499 57.551 63.256 60.006 55.269 56.809 58.021 52.394 42.811 44.611 50.996 44.006 36.434 39.224 36.184 37.706 35.584 37.851 30.546 29.794 28.714 26.599 26.161 25.849 25.539 25.236 24.978 24.811 25.956 23.941 24.553 22.668 24.896 23.786 23.776 23.743 23.731 23.726 23.751 23.753 23.668 23.611 23.588 23.556 23.511 23.478 23.428 23.303 23.131 24.083 24.508 23.328 23.343 23.536 23.591 23.663 23.683 23.691 23.698 23.718 23.781 23.731 23.753 23.833 23.838 23.258 23.198 23.193 23.198 23.196 23.288 23.638 23.798 23.868 23.831 23.878 23.873 23.873 23.816 23.768 23.776 23.798 23.746 23.676 23.466 23.496 24.103 24.783 24.698 24.701 24.831 27.436 26.761 27.321 28.198 25.898 25.588 25.453 25.296 25.108 25.116 26.946 32.956 28.831 29.813 29.908 32.298 34.371 30.731 31.053 31.441 31.733 32.036 32.356 32.531 33.446 33.903 33.896 33.958 35.726 35.903 35.828 35.906 36.188 38.166 37.333 37.475 38.298 38.29 38.42 38.27 39.905 41.275 40.61 44.013 44.505 42.27 50.068 50.788 51.665 51.128 48.8 44.22 45.183 45.48 46.24 47.225 50.538 49.318 48.408 46.9 46.81 49.635 50.92 50.898 50.89 50.918 51.878 52.758 54.623 54.958 57.305 57.523 55.43 61.36 60.915 61.458 59.878 56.233 67.143 73.475 70.543 63.35 65.28 60.823 61.718 62.108 62.565 63.083 63.5 64.233 64.788 65.583 66.938 66.588 67.92 67.265 68.893 69.895 69.348 69.973 71.045 71.178 73.518 72.425 73 73.803 74.215 74.848 75.465 75.96 76.535 76.775 77.468 78.2 79.078 80.263 80.535 80.953 81.36 81.36 81.563 82.278 84.563 82.938 83.525 84.585 84.655 84.368 84.378 85.658 85.61 86.978
86.542 86.387 86.232 86.082 85.944 85.814 85.672 85.542 85.399 85.249 85.119 84.984 84.872 84.732 84.584 84.502 84.362 84.249 84.127 83.977 83.852 83.724 83.604 83.452 83.307 83.159 83.007 82.852 82.672 82.444 82.277 82.072 81.847 81.617 81.389 81.152 80.914 80.722 80.529 80.329 80.062 79.792 79.542 79.387 79.232 79.262 78.864 78.632 78.352 78.792 78.642 78.249 77.874 77.217 76.489 76.429 76.189 76.067 76.012 75.884 75.699 75.574 75.444 75.299 75.087 74.799 74.499 74.224 74.049 73.872 73.812 73.734 73.644 73.532 73.342 73.122 73.113 72.966 72.719 72.496 72.281 72.047 71.772 71.506 71.253 71.012 70.809 70.859 70.695 80.458 80.514 84.229 85.194 85.621 83.824 85.571 82.726 85.024 75.796 67.546 67.351 67.264 67.224 67.246 67.156 67.089 66.996 65.164 72.829 73.569 73.576 74.854 74.611 75.076 75.211 74.711 74.149 74.181 68.366 67.344 64.506 64.544 65.906 65.709 66.769 66.236 65.709 64.304 61.934 61.914 61.894 65.019 65.704 65.211 64.861 65.729 65.299 61.769 59.426 59.261 59.219 60.691 61.929 58.944 58.909 58.976 59.109 58.936 57.449 56.891 56.864 57.029 58.416 57.604 57.194 57.026 56.899 58.446 58.609 58.069 57.864 57.771 57.641 58.754 58.091 57.969 57.986 58.069 60.466 66.156 64.409 68.754 72.426 72.986 68.109 66.421 61.089 65.626 64.061 60.306 61.986 65.584 66.281 66.334 64.009 69.124 57.666 61.929 67.076 60.316 60.076 65.004 65.766 72.479 68.521 64.134 66.399 58.391 65.366 64.841 67.011 63.211 65.121 62.731 60.306 59.471 57.616 56.394 47.139 48.624 49.641 52.934 44.541 48.199 40.686 38.079 39.224 37.721 35.014 33.864 31.246 28.789 26.669 26.096 25.786 25.511 25.216 24.958 24.831 25.718 23.911 24.498 23.068 24.921 23.686 23.676 23.751 23.741 23.713 23.703 23.638 23.601 23.551 23.513 23.498 23.451 23.438 23.413 23.261 23.128 23.981 24.448 23.288 23.343 23.553 23.578 23.671 23.681 23.678 23.683 23.698 23.701 23.738 23.733 23.786 23.813 23.806 23.748 23.193 23.171 23.128 23.151 23.273 23.833 23.843 23.851 23.871 23.873 23.806 23.751 23.731 23.716 23.726 23.661 23.673 23.466 23.348 24.271 24.753 24.646 24.683 26.498 28.653 27.356 30.468 26.871 25.733 25.486 25.353 25.176 25.006 25.123 31.321 27.976 29.173 29.581 29.766 29.971 30.756 30.578 30.883 31.201 31.536 32.191 32.061 32.448 33.721 33.688 33.836 33.913 35.723 35.721 35.731 35.351 36.053 36.913 36.926 37.183 38.503 38.27 38.235 39.08 41.665 39.69 40.323 42.91 41.875 42.088 47.358 48.2 50.595 50.325 44.165 44.175 44.868 47.028 46.093 45.873 46.713 47.725 48.298 47.203 46.583 49.455 50.435 50.783 50.735 50.758 51.523 52.143 54.163 54.573 54.578 56.693 54.678 61.368 62.418 61.698 60.6 59.873 61.41 64.005 61.533 71.845 60.488 60.675 60.968 61.885 62.125 62.818 63.32 63.6 64.06 64.788 65.31 66.14 66.853 67.563 68.508 68.105 68.85 69.405 69.95 70.653 71.268 72.28 72.735 73.278 73.855 74.89 75.148 75.5 75.885 76.67 77.32 78.035 78.71 79.74 79.648 79.928 80.693 81.273 81.79 82.32 82.155 82.435 83.07 83.823 84.4 84.643 84.695 85.25 85.768 86.565
86.284 86.159 86.024 85.884 85.709 85.587 85.439 85.307 85.159 85.019 84.892 84.757 84.629 84.497 84.377 84.259 84.134 84.017 83.882 83.757 83.617 83.484 83.342 83.207 83.087 82.919 82.749 82.587 82.414 82.274 82.044 81.859 81.642 81.404 81.177 80.929 80.704 80.522 80.367 80.672 79.939 79.702 79.469 79.334 81.572 81.232 78.814 82.739 82.099 77.719 77.909 78.137 77.682 78.724 78.787 77.352 77.392 75.732 75.572 75.469 75.394 75.299 75.192 75.079 74.892 74.594 74.339 74.072 73.867 73.679 73.572 73.504 73.462 73.379 73.247 73.064 73.017 72.831 72.558 72.313 72.071 71.833 71.559 71.325 71.152 70.891 71.06 71.835 79.207 82.995 87.386 87.179 87.001 86.699 87.166 84.344 82.826 80.099 71.119 67.531 67.361 67.339 67.276 67.266 67.196 67.151 67.001 65.334 74.649 75.084 75.199 76.034 74.491 73.604 73.529 72.606 72.081 71.741 68.074 64.731 64.686 64.706 64.774 67.699 67.069 66.534 65.976 65.464 61.939 61.951 61.899 63.741 64.724 62.746 63.239 65.284 65.736 64.766 59.446 60.096 61.954 62.409 62.861 63.171 58.994 58.936 59.016 59.594 60.851 57.546 57.099 58.304 57.491 57.461 57.486 57.424 58.746 58.921 58.516 58.166 58.029 58.171 58.881 58.826 58.354 58.276 58.364 58.396 63.786 62.324 65.071 64.474 69.436 70.164 65.461 64.819 67.336 65.059 64.366 61.611 62.899 64.746 65.429 69.066 65.829 66.391 60.521 67.656 61.809 58.066 63.486 61.429 67.804 71.884 64.129 65.914 63.071 65.806 62.776 63.344 67.311 60.056 67.199 56.709 64.744 62.889 53.209 49.876 54.386 53.099 50.329 46.849 51.346 47.646 41.511 39.509 46.129 41.456 46.481 34.524 36.719 36.611 35.381 27.189 25.751 25.461 25.199 24.933 24.881 25.698 23.858 24.386 22.653 24.546 23.646 23.671 23.673 23.678 23.618 23.573 23.548 23.493 23.506 23.456 23.421 23.423 23.396 23.291 23.153 23.088 23.816 24.391 23.318 23.408 23.548 23.571 23.626 23.641 23.676 23.693 23.711 23.711 23.686 23.743 23.738 23.781 23.771 23.766 23.706 23.128 23.111 23.141 23.808 23.831 23.836 23.858 23.871 23.846 23.781 23.723 23.696 23.653 23.626 23.598 23.613 23.481 23.453 24.356 24.646 24.596 24.673 24.846 29.008 29.376 29.408 27.091 25.553 25.403 25.253 25.068 24.943 25.223 32.266 34.538 37.826 31.498 29.576 29.771 30.268 30.461 30.743 31.011 31.318 31.701 31.746 32.398 32.993 33.956 33.748 33.873 34.053 34.378 34.428 35.238 37.073 36.413 36.466 36.67 36.963 37.088 39.945 38.78 38.933 39.878 40.158 40.24 40.708 42.313 42.215 42.57 44.418 44.665 43.583 44.398 44.255 45.013 45.578 46.348 47.658 46.065 46.333 47.568 46.31 46.403 50.025 50.515 50.628 50.643 50.71 51.565 52.953 54.993 54.475 54.58 58.633 60.433 60.563 61.728 62.85 61.358 60.273 55.92 58.35 59.228 59.843 60.188 60.843 65.39 62.03 62.368 62.798 63.238 64.035 64.39 64.765 65.518 66.09 66.945 67.62 68.345 68.253 69.583 69.593 70.13 70.458 71.178 72.038 72.515 73.123 73.92 74.485 76.925 75.203 75.655 76.41 77.973 78.415 78.778 79.368 79.603 80.333 81.25 81.913 82.368 82.623 82.865 83.35 83.508 84.88 85.24 85.48 85.385 85.843 86.865
86.079 85.947 85.792 85.657 85.497 85.382 85.244 85.084 84.944 84.807 84.682 84.547 84.392 84.254 84.132 84.024 83.904 83.789 83.652 83.537 83.374 83.267 83.109 82.992 82.827 82.689 82.537 82.384 82.207 82.029 81.849 81.657 81.444 81.212 80.964 80.737 80.492 80.369 80.217 80.009 79.739 79.552 79.504 79.689 83.102 79.287 86.859 85.524 89.422 77.527 77.387 77.324 77.252 82.574 79.067 77.194 77.084 76.262 75.512 75.267 75.247 75.017 74.964 74.904 74.729 74.477 74.197 73.934 73.734 73.484 73.379 73.297 73.234 73.179 73.024 72.912 72.922 72.74 72.437 72.13 71.835 71.614 71.338 71.179 71.028 71.46 77.353 77.94 80.21 85.105 86.634 86.079 86.039 85.426 85.294 83.569 82.271 73.234 67.621 67.529 67.421 67.331 67.256 67.244 67.189 67.081 66.999 66.016 73.136 74.311 73.089 72.611 72.064 71.739 70.046 67.079 64.871 64.796 64.731 64.759 64.761 64.744 64.851 68.014 66.816 66.809 66.266 65.726 65.211 61.961 61.934 62.329 61.974 62.534 62.464 65.039 65.741 65.216 62.294 62.441 62.894 63.341 63.804 64.276 59.101 59.044 58.966 58.889 58.856 60.751 58.009 57.889 57.821 57.844 57.916 58.976 58.986 58.849 58.561 58.341 58.414 59.056 59.511 59.099 58.709 58.654 58.676 58.701 61.006 61.679 66.484 66.484 72.161 75.609 69.399 65.284 61.829 62.124 60.184 61.519 58.751 59.659 61.834 62.279 64.926 62.654 61.706 57.176 61.319 67.301 63.414 62.276 65.251 65.986 61.924 63.176 59.854 61.626 60.819 60.199 65.101 63.524 54.224 63.569 66.909 59.251 65.174 54.436 52.241 51.696 51.139 51.846 49.229 50.439 44.781 43.714 51.744 53.386 50.906 46.271 43.324 36.126 38.711 34.221 25.796 25.491 25.229 24.991 24.808 25.711 23.828 24.451 22.848 24.728 23.641 23.646 23.616 23.583 23.536 23.461 23.446 23.421 23.436 23.441 23.403 23.356 23.273 23.171 23.116 23.103 24.113 24.181 23.338 23.433 23.543 23.578 23.626 23.646 23.688 23.668 23.673 23.671 23.676 23.716 23.723 23.728 23.756 23.718 23.711 23.173 23.113 23.688 23.803 23.823 23.841 23.816 23.798 23.786 23.753 23.708 23.666 23.606 23.573 23.571 23.538 23.418 23.598 24.636 24.568 24.601 24.671 26.651 26.333 26.786 27.873 26.453 25.448 25.298 25.131 24.948 24.908 25.536 29.778 27.558 31.943 32.313 29.436 29.513 30.696 30.311 30.571 30.781 31.041 31.301 31.413 32.111 32.721 33.603 33.558 33.803 33.883 33.973 34.711 35.836 35.571 35.863 36.156 36.478 36.675 36.603 37.61 40.275 38.548 39.348 40.125 40.153 40.208 40.488 42.468 42.213 42.27 42.553 45.13 43.648 43.758 45.555 45.713 44.815 45.243 45.575 46.423 46.728 46.17 46.085 50.305 49.908 50.563 50.053 49.95 51.083 52.253 53.253 55.25 54.655 55.523 59.695 58.695 60.91 60.93 62.043 60.285 56.368 58.013 58.738 60.103 59.98 60.298 60.668 67.52 62.083 63.26 62.868 63.418 64.735 64.518 65.203 65.445 66.108 66.75 68.143 70.315 69.018 69.618 70.843 69.868 70.063 70.72 71.613 72.03 73.003 73.728 74.138 74.89 75.223 76.035 76.89 77.265 78.16 78.208 79.218 80.313 81.015 81.588 83.11 82.695 87.94 84.885 83.533 84.398 85.513 85.605 85.848 86.508 87.168
