ncols 416
nrows 32
xllcorner    249074
yllcorner    137522
cellsize     2
NODATA_value -9999
86.108 86.51 87.02 87.415 87.793 88.15 88.463 88.79 89.098 89.38 89.653 89.92 90.175 90.408 90.658 90.928 91.186 91.433 91.721 91.991 92.203 92.478 92.673 92.936 93.171 93.376 93.626 93.846 94.008 94.231 94.416 94.623 94.818 94.996 95.216 95.433 95.611 95.816 96.043 96.066 96.231 96.313 96.491 96.573 96.811 97.333 96.793 96.838 97.041 97.911 97.696 97.461 96.868 99.398 99.451 98.621 98.188 97.913 97.986 98.031 98.071 98.121 98.123 98.138 98.151 98.126 98.111 98.083 98.051 97.991 97.956 97.878 97.781 97.716 97.656 97.558 97.466 97.366 97.283 97.181 97.098 97.018 96.933 96.913 96.808 96.741 96.681 96.633 97.066 96.241 95.551 95.603 97.503 97.186 95.478 95.466 95.358 95.288 95.196 95.146 95.096 95.038 94.953 94.898 94.823 94.758 94.683 94.598 94.443 94.303 94.126 93.951 93.748 93.546 93.326 93.088 92.828 92.578 92.346 92.073 91.801 91.523 91.291 91.003 90.788 90.506 90.266 89.998 89.696 89.448 89.151 88.908 88.616 88.341 88.088 87.843 87.543 87.328 87.083 86.841 86.581 86.326 86.028 85.773 85.493 85.196 84.846 84.463 84.073 83.683 83.291 82.938 82.531 82.131 81.781 81.431 81.108 80.786 80.563 80.373 80.211 80.088 79.936 79.801 79.653 79.488 79.281 79.113 78.778 78.458 78.146 77.853 77.561 77.268 76.973 76.663 76.413 76.133 75.823 75.541 75.261 74.998 74.661 74.361 74.106 73.788 73.498 73.206 72.951 72.656 72.381 72.071 71.871 71.491 71.198 70.883 70.586 70.238 69.911 69.596 69.271 68.986 68.636 68.333 67.968 67.651 67.353 67.018 66.711 66.421 66.088 65.793 65.416 65.143 64.863 64.596 64.323 64.078 63.846 63.608 63.381 63.151 62.928 62.706 62.478 62.276 62.028 61.803 61.568 61.341 61.076 60.803 60.528 61.013 61.598 61.866 61.226 61.303 59.866 59.616 59.383 59.203 59.038 58.876 58.721 58.601 58.441 58.253 58.123 58.306 58.678 57.918 58.441 58.511 58.111 57.866 58.723 56.326 56.363 56.266 56.111 55.913 55.751 55.656 55.551 55.368 55.246 55.161 54.981 54.856 54.733 54.661 54.551 54.516 54.503 54.438 54.376 54.383 54.326 54.271 54.243 54.216 54.176 54.143 54.173 54.126 54.086 54.086 53.993 53.906 53.836 53.808 53.766 53.728 53.743 53.786 53.786 53.846 53.901 53.943 53.988 54.041 54.081 54.141 54.218 54.258 54.263 54.311 54.326 54.341 54.368 54.376 54.391 54.403 54.446 54.458 54.493 54.506 54.533 54.588 54.611 54.618 54.663 54.701 54.716 54.718 54.746 54.746 54.763 54.791 54.818 54.803 54.816 54.826 54.883 54.951 54.983 55.036 55.048 54.973 54.998 55.051 55.136 55.106 54.968 55.036 55.208 55.126 55.221 55.253 55.346 55.306 55.346 55.358 55.356 55.373 55.301 55.251 55.268 55.343 55.513 55.741 56.043 56.376 56.706 57.048 57.328 57.526 57.756 58.098 58.378 58.358 59.258 59.011 58.723 58.716 59.833 59.726 58.663 58.763 58.998 59.146 59.241 59.288 59.361 59.396 59.433 59.511 59.562 59.621 59.688 59.765 59.903 59.986 60.08 60.141 60.26 60.223 60.198 60.16 60.405 60.378 60.491 60.433 60.433 60.336 63.393 62.783 60.971 60.746 61.036 61.618 61.613 61.958 64.633 67.191
85.588 86.06 86.498 86.935 87.325 87.685 88.035 88.368 88.688 88.975 89.26 89.54 89.805 90.071 90.311 90.561 90.823 91.093 91.338 91.611 91.838 92.036 92.336 92.606 92.811 93.028 93.251 93.493 93.678 93.918 94.083 94.276 94.463 94.666 94.873 95.071 95.261 95.481 95.643 95.743 95.881 96.063 96.171 96.283 96.558 97.366 96.646 96.703 97.078 97.673 97.506 96.413 94.916 95.671 97.391 99.071 99.096 98.698 97.686 97.638 97.711 97.738 97.778 97.796 97.771 97.768 97.761 97.756 97.663 97.623 97.561 97.486 97.433 97.411 97.308 97.178 97.076 97.018 96.931 96.831 96.743 96.681 96.633 96.548 96.503 96.448 96.433 96.618 95.808 95.261 95.391 97.101 97.533 95.816 95.181 95.128 95.016 94.918 94.868 94.828 94.736 94.673 94.596 94.503 94.426 94.338 94.246 94.138 94.011 93.871 93.686 93.486 93.268 93.113 92.866 92.638 92.376 92.121 91.866 91.598 91.313 91.071 90.811 90.586 90.308 90.063 89.796 89.511 89.218 88.931 88.653 88.383 88.061 87.788 87.518 87.246 86.961 86.661 86.431 86.161 85.898 85.626 85.353 85.108 84.801 84.483 84.148 83.803 83.413 83.046 82.641 82.261 81.916 81.538 81.186 80.863 80.626 80.356 80.126 79.956 79.801 79.648 79.478 79.331 79.168 78.953 78.673 78.453 78.173 77.836 77.511 77.213 76.896 76.581 76.261 76.001 75.683 75.373 75.066 74.803 74.481 74.196 73.933 73.596 73.278 73.003 72.748 72.423 72.136 71.881 71.663 71.338 71.056 70.776 70.481 70.151 69.856 69.536 69.203 68.893 68.556 68.261 67.958 67.648 67.321 67.001 66.703 66.426 66.076 65.793 65.471 65.106 64.756 64.463 64.141 63.876 63.636 63.361 63.118 62.866 62.628 62.438 62.181 61.933 61.731 61.516 61.286 61.073 60.813 60.586 60.348 60.098 59.793 59.601 59.293 60.536 60.931 60.813 59.216 59.033 58.816 58.606 58.481 58.226 58.231 58.048 58.433 58.071 58.293 58.113 58.068 57.911 56.773 56.478 56.221 56.098 56.003 56.108 55.588 55.433 55.326 55.206 55.098 54.941 54.871 54.708 54.571 54.483 54.338 54.178 54.088 53.988 53.903 53.868 53.833 53.758 53.748 53.718 53.628 53.613 53.561 53.573 53.563 53.546 53.511 53.503 53.513 53.533 53.546 53.533 53.513 53.481 53.473 53.481 53.448 53.426 53.411 53.418 53.406 53.418 53.521 53.603 53.641 53.706 53.776 53.776 53.803 53.868 53.888 53.898 53.933 53.971 53.993 54.003 54.033 54.083 54.081 54.133 54.168 54.176 54.236 54.261 54.301 54.356 54.346 54.378 54.376 54.393 54.446 54.486 54.533 54.521 54.553 54.631 54.661 54.711 54.791 54.788 54.811 54.816 54.841 54.913 54.998 54.878 54.503 54.883 55.026 54.966 55.003 55.081 55.101 55.173 55.146 55.111 55.081 55.083 55.081 54.998 54.876 54.883 54.988 55.206 55.616 55.928 56.251 56.631 56.888 57.126 57.511 57.838 58.031 58.056 58.286 58.903 58.501 58.548 58.978 60.883 58.361 58.263 58.571 58.696 58.796 58.858 58.916 58.983 59.008 59.063 59.109 59.164 59.204 59.205 59.368 59.536 59.652 59.669 59.624 59.711 59.594 59.671 61.445 60.195 60.251 59.233 59.091 59.286 61.696 63.843 59.821 60.496 60.296 60.368 60.496 62.831 66.881 61.878
85.18 85.628 86.058 86.465 86.848 87.23 87.593 87.923 88.27 88.573 88.853 89.165 89.425 89.691 89.938 90.196 90.448 90.713 90.943 91.188 91.426 91.666 91.918 92.203 92.413 92.616 92.863 93.138 93.371 93.516 93.726 93.936 94.123 94.326 94.523 94.708 94.921 95.121 95.273 95.458 95.581 95.756 95.863 96.023 97.078 96.791 96.331 96.456 97.256 97.301 97.051 95.723 97.278 97.236 94.848 96.768 98.686 99.251 97.953 97.736 97.338 97.411 97.433 97.443 97.458 97.456 97.398 97.378 97.318 97.258 97.211 97.146 97.073 97.023 96.921 96.818 96.753 96.671 96.558 96.478 96.433 96.381 96.298 96.228 96.156 96.246 96.956 95.341 94.946 95.183 96.788 95.221 94.878 94.896 94.873 94.771 94.663 94.593 94.548 94.488 94.451 94.333 94.233 94.131 94.038 93.938 93.806 93.701 93.546 93.403 93.238 93.058 92.808 92.636 92.401 92.163 91.918 91.668 91.438 91.158 90.896 90.638 90.386 90.131 89.878 89.623 89.371 89.081 88.773 88.473 88.181 87.876 87.571 87.276 86.961 86.663 86.373 86.111 85.803 85.508 85.233 84.986 84.718 84.468 84.131 83.828 83.478 83.136 82.773 82.373 82.018 81.658 81.288 80.946 80.656 80.361 80.123 79.941 79.716 79.556 79.383 79.201 79.028 78.843 78.601 78.381 78.076 77.801 77.496 77.168 76.868 76.533 76.226 75.906 75.548 75.216 74.946 74.626 74.326 74.033 73.728 73.478 73.116 72.808 72.516 72.228 71.931 71.631 71.358 71.091 70.806 70.546 70.283 70.003 69.718 69.416 69.108 68.773 68.466 68.161 67.841 67.553 67.298 66.978 66.686 66.378 66.066 65.743 65.408 65.086 64.761 64.403 64.068 63.781 63.478 63.163 62.868 62.661 62.393 62.138 61.913 61.691 61.448 61.211 60.976 60.773 60.536 60.276 60.026 59.798 59.566 59.321 59.088 58.948 58.723 58.943 60.118 61.363 58.378 58.323 58.283 58.916 59.021 58.033 57.611 57.501 57.293 57.906 57.588 57.281 56.251 55.833 55.811 55.628 55.366 55.266 55.158 55.078 54.938 54.801 54.653 54.511 54.433 54.211 54.138 54.013 53.808 53.736 53.518 53.476 53.378 53.366 53.333 53.303 53.328 53.333 53.358 53.356 53.308 53.311 53.241 53.138 53.178 53.046 53.051 52.976 52.928 52.901 52.873 52.866 52.818 52.771 52.676 52.576 52.558 52.521 52.478 52.496 52.541 52.616 52.761 52.988 53.371 53.411 53.476 53.536 53.556 53.591 53.591 53.593 53.621 53.658 53.666 53.658 53.678 53.746 53.763 53.811 53.828 53.851 53.906 53.936 53.986 54.026 54.086 54.108 54.081 54.088 54.171 54.223 54.286 54.301 54.308 54.391 54.471 54.541 54.568 54.606 54.578 54.616 54.708 54.881 54.901 54.638 54.063 54.771 54.778 54.773 54.768 54.916 54.936 54.978 54.996 54.968 54.948 54.878 54.878 54.778 54.691 54.673 54.676 54.908 55.281 55.586 55.898 56.228 56.518 56.778 57.151 57.488 57.636 57.748 57.783 58.931 58.328 58.361 58.418 59.211 58.756 57.856 58.141 58.261 58.348 58.398 58.476 58.538 58.566 58.603 58.635 58.725 58.719 58.57 58.678 58.811 59.071 59.001 58.973 60.084 58.999 59.031 61.48 59.508 58.661 58.713 58.443 58.851 59.183 58.918 59.308 59.876 59.543 59.648 59.936 60.286 60.431 61.276
84.828 85.235 85.63 86.033 86.42 86.805 87.168 87.523 87.863 88.173 88.475 88.76 89.05 89.303 89.548 89.803 90.041 90.293 90.538 90.761 90.998 91.243 91.498 91.736 91.968 92.181 92.433 92.656 92.871 93.093 93.331 93.543 93.756 93.943 94.151 94.358 94.546 94.743 94.968 95.131 95.261 95.411 95.581 96.041 96.986 95.976 95.951 96.291 97.198 97.426 95.761 94.658 95.568 97.263 97.308 97.261 97.551 97.468 97.851 98.541 98.113 97.298 97.051 97.126 97.113 97.113 97.081 97.033 97.006 96.963 96.856 96.781 96.711 96.656 96.548 96.471 96.371 96.331 96.243 96.196 96.151 96.036 95.973 95.891 95.818 97.126 94.921 94.701 94.991 96.591 95.538 94.643 94.651 94.576 94.478 94.363 94.318 94.288 94.241 94.166 94.078 93.986 93.858 93.763 93.646 93.506 93.381 93.261 93.111 92.933 92.776 92.596 92.378 92.158 91.953 91.716 91.471 91.261 90.993 90.718 90.473 90.228 89.971 89.731 89.491 89.196 88.936 88.641 88.343 88.038 87.731 87.438 87.103 86.778 86.453 86.138 85.841 85.513 85.213 84.936 84.643 84.388 84.098 83.798 83.533 83.241 82.896 82.538 82.181 81.793 81.453 81.113 80.746 80.438 80.123 79.843 79.656 79.518 79.346 79.136 78.936 78.731 78.461 78.266 78.028 77.736 77.453 77.146 76.858 76.533 76.216 75.858 75.508 75.183 74.886 74.523 74.208 73.851 73.553 73.256 72.998 72.651 72.366 72.033 71.713 71.438 71.151 70.888 70.586 70.293 70.056 69.778 69.488 69.273 68.931 68.618 68.333 67.993 67.721 67.431 67.118 66.841 66.556 66.266 65.993 65.696 65.391 65.053 64.706 64.378 64.043 63.703 63.371 63.058 62.771 62.528 62.163 61.938 61.653 61.421 61.161 60.926 60.736 60.461 60.223 60.011 59.776 59.516 59.298 59.078 58.838 58.603 58.403 58.171 58.133 57.703 58.891 58.766 58.126 58.318 57.758 57.563 57.553 57.873 57.773 57.138 56.906 55.706 55.501 55.416 55.286 55.091 54.953 54.841 54.723 54.651 54.523 54.378 54.336 54.168 53.983 53.908 53.688 53.546 53.506 53.406 53.288 53.231 53.171 53.018 52.841 52.698 52.598 52.551 52.526 52.518 52.501 52.458 52.468 52.438 52.436 52.423 52.406 52.343 52.351 52.346 52.323 52.296 52.273 52.258 52.201 52.161 52.056 51.871 51.801 51.733 51.753 51.811 51.863 51.936 52.051 52.206 52.483 52.858 53.058 53.086 53.116 53.191 53.243 53.273 53.298 53.316 53.396 53.428 53.456 53.473 53.526 53.548 53.581 53.661 53.721 53.756 53.771 53.768 53.828 53.811 53.876 53.901 53.986 54.008 54.053 54.093 54.131 54.201 54.211 54.261 54.278 54.318 54.366 54.408 54.511 54.688 54.608 54.126 54.633 54.581 54.493 54.431 54.513 54.628 54.683 54.753 54.776 54.768 54.713 54.616 54.513 54.483 54.503 54.436 54.513 54.708 55.046 55.321 55.591 55.898 56.163 56.451 56.771 57.093 57.323 57.481 57.478 58.133 58.326 58.141 58.133 58.708 59.241 57.501 57.668 57.801 57.896 57.973 58.026 58.061 58.118 58.148 58.222 60.445 58.642 58.104 57.832 58.089 58.171 58.263 60.08 60.593 61.456 58.051 58.048 57.916 58.105 58.188 57.971 59.238 58.343 58.358 58.293 58.813 58.841 59.028 59.323 59.746 59.971 60.008
84.425 84.843 85.258 85.655 86.03 86.408 86.758 87.13 87.463 87.775 88.08 88.365 88.633 88.881 89.136 89.391 89.633 89.873 90.098 90.331 90.563 90.808 91.036 91.266 91.496 91.711 91.931 92.168 92.403 92.603 92.846 93.096 93.333 93.531 93.728 93.943 94.171 94.353 94.561 94.756 94.883 95.053 95.293 96.993 96.428 95.558 95.586 95.938 97.128 96.378 94.776 94.571 94.491 94.491 94.843 97.618 97.743 97.636 97.166 97.208 97.721 98.258 97.613 96.756 96.751 96.763 96.728 96.723 96.703 96.583 96.541 96.476 96.348 96.316 96.206 96.138 96.058 95.988 95.926 95.868 95.778 95.728 95.641 95.658 96.816 94.541 94.473 94.913 96.293 94.803 94.326 94.371 94.313 94.213 94.083 94.066 93.986 93.931 93.893 93.803 93.703 93.598 93.461 93.346 93.236 93.096 92.971 92.808 92.646 92.491 92.311 92.141 91.943 91.746 91.506 91.281 91.023 90.803 90.568 90.316 90.058 89.833 89.566 89.343 89.083 88.776 88.516 88.241 87.921 87.623 87.311 86.973 86.651 86.316 85.991 85.658 85.338 85.036 84.708 84.396 84.078 83.798 83.523 83.248 82.941 82.626 82.298 81.953 81.603 81.268 80.866 80.573 80.208 79.931 79.658 79.401 79.216 79.066 78.933 78.723 78.451 78.176 77.961 77.696 77.423 77.171 76.873 76.516 76.211 75.893 75.556 75.193 74.796 74.491 74.141 73.796 73.493 73.138 72.793 72.481 72.198 71.878 71.578 71.308 70.998 70.681 70.398 70.093 69.823 69.553 69.271 68.988 68.706 68.463 68.158 67.831 67.516 67.258 66.951 66.678 66.386 66.103 65.821 65.543 65.273 64.986 64.656 64.321 63.953 63.611 63.286 62.981 62.641 62.331 62.018 61.751 61.461 61.203 60.938 60.686 60.451 60.191 59.983 59.716 59.506 59.288 59.068 58.856 58.631 58.421 58.203 57.918 57.646 57.476 57.346 57.083 57.743 58.766 57.466 57.171 56.641 56.861 56.663 56.968 56.421 55.331 55.268 55.018 54.803 54.693 54.526 54.371 54.271 54.166 54.068 54.021 53.798 53.651 53.486 53.371 53.283 53.208 53.153 53.201 53.001 52.676 52.503 52.373 52.303 52.141 52.026 51.956 51.933 51.863 51.843 51.818 51.798 51.818 51.818 51.848 51.843 51.838 51.831 51.781 51.733 51.726 51.713 51.773 51.768 51.761 51.691 51.588 51.483 51.276 51.173 51.163 51.166 51.243 51.348 51.458 51.648 51.853 51.996 52.341 52.678 52.781 52.798 52.838 52.858 52.913 52.953 53.001 53.051 53.098 53.138 53.181 53.208 53.248 53.291 53.356 53.406 53.423 53.501 53.541 53.613 53.651 53.656 53.741 53.831 53.886 53.861 53.923 53.933 53.996 54.051 54.146 54.138 54.153 54.176 54.251 54.338 54.578 54.488 53.896 54.631 54.501 54.211 54.266 54.281 54.321 54.366 54.476 54.483 54.498 54.463 54.438 54.386 54.298 54.268 54.351 54.481 54.613 54.823 55.121 55.341 55.598 55.841 56.123 56.448 56.753 57.023 57.358 57.326 57.476 58.416 57.938 57.966 58.166 58.601 57.171 57.121 57.358 57.441 57.496 57.563 57.633 57.683 57.803 57.817 57.784 60.706 57.378 57.192 57.479 59.535 58.649 61.788 63.75 58.834 57.642 57.519 57.343 57.33 57.568 57.483 58.108 57.716 57.791 57.768 58.103 58.158 58.433 58.663 58.938 59.186 59.318
84.058 84.483 84.893 85.273 85.653 86.005 86.375 86.735 87.083 87.385 87.678 87.953 88.21 88.491 88.731 88.988 89.218 89.483 89.691 89.938 90.148 90.373 90.631 90.813 91.056 91.288 91.486 91.686 91.921 92.153 92.386 92.606 92.846 93.053 93.283 93.506 93.716 93.916 94.126 94.293 94.423 94.713 95.093 96.571 95.606 95.608 95.198 95.148 95.963 95.178 94.676 95.003 94.616 94.541 94.458 98.066 96.711 97.663 97.253 97.616 96.708 97.541 97.788 97.791 96.768 96.391 96.381 96.358 96.336 96.278 96.211 96.103 96.023 95.936 95.896 95.803 95.736 95.686 95.591 95.536 95.486 95.421 95.433 96.523 94.243 94.228 94.846 95.721 95.018 94.073 94.111 94.068 93.958 93.828 93.788 93.728 93.688 93.626 93.541 93.453 93.351 93.208 93.061 92.941 92.793 92.666 92.536 92.406 92.223 92.038 91.861 91.686 91.488 91.273 91.048 90.826 90.613 90.348 90.113 89.843 89.631 89.391 89.136 88.901 88.653 88.351 88.078 87.798 87.503 87.186 86.883 86.548 86.241 85.918 85.551 85.233 84.898 84.558 84.221 83.906 83.578 83.303 82.976 82.713 82.388 82.063 81.743 81.413 81.066 80.701 80.393 80.073 79.766 79.471 79.216 78.956 78.796 78.648 78.443 78.246 77.956 77.638 77.358 77.101 76.841 76.571 76.266 75.928 75.581 75.236 74.876 74.538 74.111 73.781 73.423 73.108 72.771 72.411 72.121 71.771 71.478 71.198 70.858 70.573 70.231 69.951 69.673 69.356 69.028 68.768 68.523 68.218 67.916 67.708 67.346 67.051 66.758 66.471 66.223 65.913 65.626 65.348 65.088 64.793 64.526 64.233 63.921 63.561 63.233 62.876 62.551 62.228 61.891 61.578 61.293 61.033 60.731 60.443 60.206 59.948 59.731 59.493 59.268 59.046 58.803 58.611 58.413 58.213 57.986 57.738 57.481 57.241 57.036 56.948 56.626 56.608 56.536 58.066 56.196 57.856 56.778 55.733 55.391 55.311 54.796 54.551 54.416 54.251 54.096 54.008 53.863 53.698 53.633 53.496 53.361 53.281 53.233 53.206 53.136 52.993 52.713 52.516 52.378 52.238 52.081 51.893 51.748 51.646 51.583 51.503 51.408 51.403 51.376 51.256 51.216 51.203 51.313 51.313 51.291 51.281 51.273 51.321 51.256 51.226 51.203 51.203 51.238 51.246 51.238 51.218 51.141 50.996 50.893 50.728 50.651 50.653 50.713 50.788 50.886 51.026 51.201 51.373 51.626 51.816 52.136 52.443 52.516 52.528 52.591 52.643 52.638 52.691 52.788 52.813 52.861 52.913 52.963 53.006 53.028 53.128 53.161 53.158 53.291 53.296 53.346 53.423 53.456 53.478 53.576 53.583 53.638 53.733 53.731 53.826 53.883 53.953 53.983 54.108 54.118 54.191 54.188 54.158 54.026 54.223 54.461 54.213 54.068 54.093 54.118 54.161 54.206 54.241 54.323 54.328 54.286 54.303 54.206 54.158 54.211 54.266 54.423 54.506 54.713 54.966 55.116 55.298 55.498 55.756 56.106 56.443 56.776 56.971 57.138 57.208 58.081 57.723 57.826 57.761 58.113 56.891 56.716 56.951 57.028 57.056 57.131 57.173 57.278 57.493 57.459 57.941 57.112 57.313 57.307 57.439 58.231 58.882 58.502 59.984 58.155 58.781 57.048 56.863 57.076 57.138 57.208 57.351 57.431 58.188 58.043 57.678 57.813 57.793 58.176 58.303 58.591 58.713
83.65 84.103 84.515 84.905 85.268 85.63 85.98 86.35 86.685 86.99 87.278 87.54 87.825 88.101 88.348 88.578 88.818 89.091 89.318 89.556 89.763 89.976 90.158 90.386 90.638 90.843 91.056 91.281 91.503 91.716 91.946 92.158 92.391 92.611 92.846 93.078 93.293 93.493 93.731 93.931 94.008 94.331 94.996 96.018 95.908 95.163 95.756 94.863 94.731 94.528 94.433 94.526 94.598 94.488 98.341 98.431 97.336 96.281 97.376 97.811 97.718 97.323 97.518 97.648 98.298 97.651 96.156 96.003 95.998 95.926 95.871 95.773 95.708 95.621 95.531 95.468 95.438 95.336 95.293 95.276 95.236 95.706 95.691 93.983 94.038 94.636 95.458 94.286 94.083 93.843 93.801 93.706 93.576 93.518 93.461 93.426 93.373 93.283 93.171 93.068 92.948 92.813 92.658 92.528 92.383 92.231 92.081 91.938 91.738 91.571 91.418 91.208 91.011 90.781 90.581 90.376 90.153 89.948 89.691 89.418 89.178 88.921 88.678 88.413 88.158 87.888 87.578 87.346 87.016 86.743 86.431 86.108 85.761 85.443 85.108 84.788 84.441 84.136 83.761 83.433 83.113 82.811 82.503 82.173 81.896 81.538 81.193 80.898 80.571 80.246 79.926 79.626 79.303 79.021 78.778 78.576 78.421 78.191 77.946 77.693 77.373 77.061 76.836 76.521 76.241 75.961 75.651 75.328 74.973 74.608 74.236 73.878 73.461 73.091 72.776 72.406 72.071 71.768 71.401 71.093 70.796 70.453 70.153 69.856 69.551 69.223 68.913 68.573 68.308 68.023 67.716 67.478 67.176 66.891 66.613 66.286 66.026 65.718 65.451 65.166 64.903 64.583 64.311 64.026 63.741 63.453 63.143 62.831 62.476 62.138 61.846 61.501 61.176 60.881 60.566 60.273 60.013 59.718 59.493 59.253 59.033 58.808 58.588 58.383 58.198 57.973 57.756 57.523 57.323 57.066 56.901 56.593 56.441 56.218 56.196 57.088 57.401 56.871 56.053 55.198 55.278 54.843 54.438 54.193 54.031 53.866 53.743 53.551 53.378 53.241 53.178 53.116 53.058 53.031 52.976 52.763 52.578 52.433 52.241 52.146 51.986 51.796 51.638 51.533 51.408 51.226 51.106 51.053 50.893 50.791 50.761 50.748 50.688 50.681 50.661 50.686 50.711 50.718 50.711 50.661 50.631 50.683 50.726 50.748 50.813 50.831 50.791 50.728 50.708 50.701 50.498 50.396 50.236 50.146 50.231 50.271 50.338 50.443 50.566 50.678 50.801 50.958 51.168 51.433 51.708 51.881 52.118 52.251 52.316 52.371 52.398 52.441 52.541 52.616 52.648 52.713 52.776 52.821 52.896 52.948 52.963 53.028 53.061 53.088 53.173 53.206 53.233 53.296 53.358 53.371 53.421 53.561 53.598 53.696 53.731 53.788 53.888 53.983 54.028 54.111 54.066 53.693 53.486 54.138 54.186 53.991 53.996 53.946 53.908 53.956 54.048 54.053 54.113 54.043 53.958 54.098 54.036 54.028 54.163 54.238 54.343 54.496 54.586 54.816 54.981 55.118 55.231 55.441 55.843 56.158 56.518 56.631 56.901 56.918 57.433 57.588 57.688 57.628 58.228 56.601 56.401 56.616 56.651 56.691 56.713 56.816 56.943 56.983 57.028 58.046 57.095 57.154 56.732 56.475 57.2 57.756 57.967 57.162 56.624 56.644 56.699 56.747 57.099 57.006 57.701 57.471 57.461 57.633 57.983 57.671 57.536 57.541 57.843 58.081 58.196 58.301
83.228 83.673 84.095 84.483 84.843 85.208 85.598 85.92 86.243 86.52 86.823 87.125 87.428 87.688 87.951 88.186 88.456 88.651 88.891 89.118 89.368 89.578 89.761 89.973 90.193 90.421 90.648 90.846 91.068 91.293 91.513 91.741 91.976 92.211 92.448 92.706 92.923 93.153 93.341 93.533 93.701 93.793 94.146 94.503 95.456 96.156 95.371 94.721 94.538 94.423 94.378 94.696 94.481 96.746 98.063 98.198 98.371 98.393 97.266 98.033 97.561 97.678 97.696 97.551 97.466 97.106 97.886 97.138 95.713 95.588 95.541 95.451 95.348 95.263 95.211 95.173 95.083 95.048 95.013 95.103 97.178 95.416 93.796 93.858 94.606 95.391 93.786 93.588 93.571 93.521 93.396 93.273 93.238 93.166 93.141 93.093 93.021 92.923 92.803 92.673 92.546 92.393 92.243 92.096 91.943 91.791 91.666 91.496 91.298 91.106 90.926 90.713 90.508 90.313 90.073 89.861 89.663 89.401 89.163 88.918 88.668 88.446 88.151 87.881 87.638 87.331 87.068 86.771 86.498 86.181 85.891 85.576 85.278 84.946 84.601 84.308 83.998 83.636 83.341 82.993 82.666 82.373 82.061 81.736 81.393 81.076 80.758 80.466 80.118 79.783 79.501 79.203 78.901 78.623 78.393 78.171 77.951 77.683 77.386 77.098 76.813 76.508 76.243 75.963 75.686 75.358 75.011 74.691 74.336 73.968 73.601 73.201 72.851 72.451 72.111 71.751 71.406 71.093 70.758 70.401 70.071 69.738 69.423 69.156 68.838 68.496 68.143 67.833 67.548 67.271 66.946 66.701 66.398 66.093 65.826 65.556 65.253 64.931 64.683 64.373 64.118 63.808 63.521 63.248 62.943 62.658 62.376 62.031 61.723 61.358 61.051 60.738 60.438 60.121 59.831 59.576 59.336 59.058 58.831 58.603 58.391 58.228 57.963 57.733 57.543 57.313 57.101 56.941 56.723 56.513 56.316 56.278 56.206 56.288 55.623 56.778 56.521 55.156 54.518 54.231 54.011 53.876 53.746 53.501 53.331 53.193 53.081 52.981 52.916 52.846 52.698 52.498 52.353 52.228 52.133 51.963 51.783 51.626 51.511 51.426 51.321 51.151 50.951 50.856 50.673 50.531 50.443 50.336 50.261 50.268 50.208 50.166 50.128 50.103 50.098 50.126 50.141 50.143 50.161 50.188 50.251 50.311 50.323 50.348 50.343 50.311 50.218 50.191 50.133 50.056 49.963 49.941 49.888 49.918 49.888 49.941 49.978 50.136 50.263 50.326 50.458 50.646 50.823 50.978 51.141 51.386 51.648 51.831 51.961 52.051 52.138 52.226 52.283 52.386 52.468 52.518 52.551 52.631 52.673 52.748 52.788 52.843 52.873 52.953 53.011 52.991 53.076 53.123 53.148 53.246 53.271 53.373 53.481 53.541 53.563 53.671 53.756 53.806 53.833 53.821 53.616 53.408 53.618 53.906 53.813 53.741 53.736 53.728 53.748 53.748 53.743 53.828 53.858 53.688 53.706 53.861 53.931 54.026 54.133 54.221 54.318 54.416 54.541 54.693 54.858 54.978 55.016 55.241 55.618 55.918 56.226 56.476 56.731 56.711 56.796 57.726 57.533 57.513 58.143 57.011 56.098 56.223 56.286 56.308 56.376 56.511 56.531 56.603 56.723 56.545 56.251 56.885 56.272 56.244 56.33 58.088 59.111 56.512 56.929 56.417 56.582 56.874 57.633 57.878 57.913 57.638 57.193 57.481 58.248 57.603 57.268 57.461 57.506 57.606 57.961 57.913
82.795 83.21 83.64 84.048 84.41 84.76 85.13 85.458 85.803 86.073 86.373 86.68 86.973 87.248 87.513 87.768 88.001 88.278 88.533 88.698 88.961 89.158 89.358 89.583 89.811 90.061 90.236 90.453 90.673 90.901 91.128 91.348 91.606 91.851 92.091 92.328 92.566 92.786 92.948 93.091 93.221 93.368 93.428 93.616 93.991 95.093 95.781 95.758 95.226 94.468 94.321 94.268 94.288 97.651 97.781 97.928 98.086 98.216 98.386 98.306 97.066 96.878 96.361 97.176 95.958 94.538 95.648 96.098 96.198 96.426 95.241 95.096 95.036 94.978 94.926 94.853 94.816 94.848 94.908 96.988 95.831 93.551 93.671 94.611 95.211 93.483 93.421 93.323 93.241 93.143 93.028 92.976 92.916 92.871 92.816 92.741 92.666 92.573 92.471 92.311 92.163 91.993 91.836 91.678 91.538 91.366 91.193 91.003 90.833 90.636 90.436 90.226 90.028 89.816 89.578 89.313 89.101 88.858 88.618 88.391 88.148 87.906 87.626 87.313 87.053 86.768 86.486 86.231 85.926 85.618 85.353 85.013 84.701 84.406 84.093 83.766 83.461 83.141 82.843 82.531 82.206 81.886 81.598 81.261 80.921 80.623 80.338 80.026 79.718 79.416 79.081 78.783 78.511 78.246 78.016 77.696 77.461 77.116 76.808 76.508 76.246 75.928 75.646 75.343 75.063 74.751 74.396 74.051 73.716 73.308 72.948 72.543 72.173 71.781 71.471 71.111 70.758 70.458 70.086 69.746 69.403 69.121 68.738 68.461 68.106 67.773 67.446 67.128 66.823 66.501 66.196 65.916 65.643 65.328 65.023 64.756 64.466 64.181 63.888 63.636 63.326 63.021 62.738 62.458 62.148 61.873 61.573 61.228 60.953 60.578 60.271 59.966 59.676 59.393 59.131 58.848 58.626 58.421 58.201 57.971 57.711 57.521 57.338 57.108 56.941 56.771 56.513 56.328 56.063 55.958 56.453 56.841 56.581 56.503 55.973 54.433 54.058 53.876 53.758 53.601 53.313 53.201 53.183 53.041 52.928 52.788 52.506 52.328 52.176 52.046 51.898 51.723 51.596 51.498 51.408 51.256 51.096 50.978 50.856 50.763 50.606 50.448 50.308 50.156 50.053 49.981 49.898 49.816 49.756 49.716 49.633 49.598 49.583 49.616 49.683 49.698 49.806 49.781 49.846 49.871 49.836 49.856 49.888 49.903 49.871 49.796 49.641 49.663 49.716 49.751 49.713 49.631 49.678 49.641 49.708 49.758 49.841 49.966 50.028 50.128 50.291 50.433 50.548 50.618 50.766 50.941 51.068 51.351 51.613 51.786 51.903 51.938 52.008 52.106 52.246 52.356 52.373 52.448 52.511 52.556 52.636 52.698 52.728 52.801 52.831 52.871 52.921 52.956 53.033 53.136 53.151 53.231 53.286 53.386 53.436 53.561 53.633 53.646 53.626 53.498 53.363 53.138 53.561 53.553 53.583 53.543 53.553 53.526 53.538 53.498 53.561 53.626 53.658 53.683 53.781 53.861 53.956 54.083 54.183 54.268 54.363 54.441 54.523 54.638 54.778 54.886 54.846 55.038 55.438 55.731 56.041 56.326 56.603 56.581 56.641 57.973 57.391 57.403 57.678 57.703 55.793 55.871 56.001 56.071 56.198 56.221 56.248 56.281 56.211 56.19 57.667 56.68 56.325 56.042 57.112 57.57 57.512 57.221 56.952 56.751 56.572 56.512 56.855 57.592 57.616 56.938 56.898 57.046 56.956 57.013 58.618 58.346 57.281 57.401 57.218 57.323
82.343 82.785 83.218 83.61 83.99 84.34 84.69 85.025 85.333 85.635 85.925 86.24 86.535 86.831 87.093 87.368 87.608 87.893 88.111 88.378 88.583 88.761 88.983 89.243 89.471 89.713 89.886 90.081 90.283 90.533 90.771 91.043 91.288 91.543 91.756 91.993 92.161 92.336 92.508 92.678 92.783 92.918 93.036 93.161 93.308 93.861 94.823 95.611 95.828 95.601 94.556 94.193 94.198 94.196 96.651 97.673 97.798 97.946 98.101 98.233 98.416 98.298 96.291 98.006 94.033 94.118 94.998 94.206 94.386 96.331 96.013 95.696 94.741 94.671 94.676 94.613 94.588 94.896 96.798 94.688 93.376 93.451 94.346 95.363 93.261 93.166 93.076 92.981 92.883 92.751 92.696 92.638 92.586 92.548 92.493 92.403 92.303 92.176 92.068 91.916 91.751 91.588 91.408 91.296 91.116 90.926 90.743 90.566 90.346 90.158 89.953 89.733 89.521 89.308 89.088 88.846 88.621 88.361 88.126 87.888 87.618 87.341 87.076 86.781 86.478 86.196 85.906 85.608 85.321 85.021 84.691 84.396 84.101 83.793 83.493 83.231 82.908 82.621 82.333 82.036 81.723 81.416 81.113 80.778 80.473 80.186 79.893 79.606 79.316 78.986 78.678 78.383 78.111 77.841 77.511 77.166 76.888 76.546 76.273 75.941 75.666 75.381 75.048 74.738 74.458 74.131 73.743 73.418 73.058 72.668 72.253 71.876 71.518 71.131 70.803 70.486 70.108 69.753 69.423 69.063 68.761 68.386 68.063 67.758 67.443 67.071 66.716 66.401 66.091 65.781 65.476 65.196 64.866 64.561 64.261 63.993 63.683 63.421 63.128 62.886 62.533 62.236 61.936 61.646 61.333 61.058 60.793 60.453 60.148 59.833 59.536 59.231 58.933 58.693 58.448 58.191 57.968 57.736 57.523 57.328 57.096 56.931 56.703 56.468 56.313 56.128 57.806 56.188 56.181 56.226 56.331 55.983 54.381 54.093 53.891 53.681 53.531 53.328 53.181 53.101 52.981 52.891 52.613 52.396 52.216 52.033 51.811 51.651 51.483 51.386 51.226 51.071 50.923 50.858 50.671 50.588 50.481 50.343 50.236 50.116 50.021 49.843 49.743 49.583 49.503 49.351 49.306 49.223 49.191 49.211 49.206 49.236 49.296 49.351 49.413 49.428 49.481 49.481 49.481 49.496 49.486 49.441 49.418 49.391 49.441 49.528 49.451 49.473 49.493 49.526 49.553 49.461 49.491 49.561 49.601 49.696 49.818 49.871 49.943 50.033 50.131 50.188 50.268 50.333 50.433 50.548 50.661 50.786 51.011 51.203 51.408 51.648 51.791 51.903 51.983 52.103 52.193 52.276 52.373 52.428 52.506 52.526 52.596 52.641 52.686 52.751 52.786 52.803 52.856 53.016 53.038 53.111 53.196 53.213 53.341 53.481 53.518 53.478 53.311 53.236 53.206 53.221 53.383 53.358 53.401 53.388 53.396 53.358 53.378 53.411 53.448 53.456 53.571 53.653 53.771 53.873 53.961 54.101 54.221 54.276 54.401 54.533 54.581 54.598 54.718 54.806 54.728 54.866 55.248 55.656 55.938 56.126 56.351 56.443 56.563 58.188 57.283 57.311 57.393 56.218 55.526 55.618 55.813 55.898 55.961 55.991 56.023 55.981 55.966 55.852 56.03 57.849 56.277 56.436 55.974 59.221 57.029 56.231 56.259 56.374 56.345 56.476 56.771 57.01 57.236 57.296 57.153 57.841 57.626 57.416 57.501 57.591 59.168 57.953 57.448 57.501
81.88 82.328 82.758 83.16 83.538 83.915 84.278 84.605 84.905 85.203 85.488 85.778 86.08 86.396 86.676 86.911 87.193 87.468 87.686 87.931 88.183 88.381 88.598 88.871 89.098 89.338 89.543 89.748 89.948 90.196 90.463 90.706 90.963 91.173 91.403 91.578 91.763 91.896 92.083 92.203 92.366 92.506 92.661 92.783 92.908 93.038 94.368 95.143 95.303 95.386 95.453 95.466 94.376 94.128 94.153 94.186 97.191 97.696 97.811 97.953 98.118 98.266 98.416 95.048 94.013 93.966 93.943 96.066 93.906 93.838 94.736 95.541 95.181 94.861 94.401 94.388 95.511 95.056 93.891 93.191 93.253 94.471 95.081 94.421 92.891 92.778 92.718 92.616 92.501 92.413 92.361 92.318 92.263 92.213 92.123 92.031 91.913 91.801 91.661 91.483 91.336 91.181 91.011 90.836 90.628 90.463 90.281 90.051 89.886 89.668 89.488 89.268 89.053 88.858 88.646 88.376 88.173 87.921 87.633 87.361 87.086 86.796 86.508 86.186 85.908 85.618 85.316 85.038 84.731 84.408 84.103 83.788 83.493 83.198 82.911 82.611 82.346 82.038 81.741 81.486 81.203 80.878 80.583 80.268 80.031 79.713 79.451 79.156 78.891 78.571 78.248 77.988 77.641 77.328 76.966 76.626 76.266 75.963 75.681 75.373 75.048 74.753 74.453 74.118 73.788 73.473 73.133 72.776 72.396 71.993 71.613 71.248 70.888 70.533 70.148 69.826 69.466 69.126 68.758 68.438 68.101 67.748 67.411 67.053 66.756 66.391 66.038 65.721 65.383 65.098 64.728 64.421 64.118 63.831 63.493 63.243 62.966 62.651 62.328 62.041 61.791 61.451 61.181 60.876 60.601 60.273 60.018 59.668 59.378 59.076 58.783 58.511 58.226 57.993 57.738 57.523 57.261 57.096 56.868 56.756 56.526 56.293 56.246 56.248 56.038 55.586 57.958 55.618 54.871 55.238 54.476 53.931 53.658 53.523 53.333 53.106 52.951 52.871 52.788 52.493 52.336 52.151 51.966 51.778 51.543 51.333 51.173 50.993 50.856 50.683 50.521 50.416 50.303 50.148 50.093 49.958 49.883 49.763 49.653 49.556 49.408 49.303 49.156 49.078 48.966 48.903 48.901 48.921 48.956 48.983 48.956 49.013 49.061 49.116 49.173 49.156 49.141 49.116 49.081 49.061 49.088 49.136 49.188 49.203 49.333 49.426 49.378 49.391 49.361 49.396 49.416 49.381 49.431 49.508 49.601 49.696 49.788 49.771 49.821 49.803 49.941 49.506 49.888 49.811 50.363 50.526 50.631 50.653 50.813 50.903 50.998 51.111 51.236 51.458 51.646 51.878 51.981 52.131 52.238 52.336 52.346 52.378 52.463 52.556 52.601 52.686 52.721 52.711 52.798 52.881 52.891 52.981 53.133 53.146 53.246 53.326 53.331 53.068 53.076 53.081 52.986 53.163 53.188 53.188 53.236 53.306 53.273 53.228 53.258 53.313 53.388 53.508 53.653 53.741 53.808 53.868 54.071 54.208 54.293 54.396 54.493 54.588 54.628 54.648 54.698 54.778 54.648 54.711 55.071 55.478 55.793 56.013 56.161 56.336 56.358 57.973 57.193 57.248 57.261 55.926 55.348 55.593 56.161 55.743 55.823 55.836 55.788 55.786 55.693 55.899 55.839 57.22 57.433 57.384 57.582 56.365 56.124 56.406 56.581 56.87 56.784 56.953 57.308 57.764 57.731 57.573 57.618 57.843 57.751 57.656 57.701 57.848 57.853 57.976 57.846 57.961
81.438 81.848 82.263 82.665 83.085 83.478 83.838 84.18 84.51 84.823 85.118 85.37 85.713 85.991 86.241 86.498 86.746 87.003 87.251 87.553 87.746 88.003 88.206 88.446 88.691 88.958 89.226 89.393 89.663 89.896 90.116 90.341 90.586 90.836 91.053 91.166 91.343 91.466 91.616 91.798 91.946 92.128 92.283 92.411 92.561 92.676 92.806 93.431 94.401 94.541 94.698 94.818 95.296 95.101 94.248 94.083 94.113 94.186 97.311 97.696 97.838 97.976 98.143 94.023 93.986 93.913 93.878 93.833 93.771 93.726 93.636 93.568 93.713 95.026 94.586 94.886 94.446 93.086 92.956 93.021 94.063 94.686 92.823 92.633 92.538 92.483 92.381 92.231 92.151 92.063 92.053 92.001 91.923 91.863 91.758 91.671 91.528 91.398 91.231 91.081 90.926 90.758 90.568 90.393 90.173 89.993 89.803 89.583 89.383 89.216 88.978 88.763 88.558 88.338 88.121 87.881 87.638 87.431 87.146 86.858 86.591 86.271 85.966 85.638 85.336 85.051 84.753 84.443 84.131 83.798 83.511 83.201 82.881 82.581 82.291 82.018 81.748 81.456 81.168 80.886 80.638 80.346 80.046 79.793 79.506 79.246 78.983 78.766 78.416 78.141 77.806 77.446 77.101 76.773 76.348 76.011 75.681 75.381 75.098 74.716 74.431 74.108 73.786 73.458 73.146 72.803 72.486 72.108 71.733 71.331 70.958 70.596 70.223 69.873 69.451 69.166 68.811 68.481 68.086 67.741 67.431 67.076 66.743 66.351 66.046 65.721 65.318 65.028 64.668 64.341 64.006 63.671 63.353 63.076 62.766 62.488 62.198 61.886 61.581 61.251 60.961 60.688 60.391 60.096 59.808 59.516 59.251 58.941 58.641 58.373 58.083 57.846 57.568 57.358 57.111 56.848 56.643 56.443 56.263 56.036 56.203 56.418 58.601 57.418 57.766 56.523 55.581 54.328 53.938 53.743 53.606 53.356 53.086 52.988 52.853 52.771 52.513 52.183 52.051 51.886 51.721 51.531 51.346 51.143 50.943 50.726 50.518 50.366 50.203 50.076 49.926 49.806 49.658 49.573 49.476 49.421 49.308 49.208 49.071 48.953 48.848 48.763 48.733 48.696 48.648 48.616 48.608 48.618 48.681 48.713 48.831 48.866 48.878 48.931 48.943 48.881 48.756 48.783 48.791 48.801 48.901 48.981 49.108 49.238 49.308 49.426 49.341 49.321 49.308 49.368 49.298 49.316 49.391 49.493 49.546 49.463 49.493 50.411 50.188 50.363 50.383 50.413 50.651 49.878 50.196 50.638 51.013 51.531 51.431 50.946 50.853 51.061 50.981 51.141 51.256 51.421 51.581 51.883 52.046 52.178 52.251 52.301 52.363 52.473 52.558 52.566 52.576 52.661 52.738 52.806 52.771 52.898 52.996 53.056 53.161 53.148 52.976 52.941 52.928 52.941 52.831 52.988 52.956 52.998 53.071 53.123 53.076 53.106 53.086 53.213 53.441 53.643 53.801 53.873 53.981 54.098 54.148 54.178 54.358 54.568 54.671 54.681 54.683 54.611 54.681 54.788 54.713 54.668 54.853 55.341 56.238 55.823 56.006 56.233 56.238 57.618 57.171 57.173 57.193 56.043 55.238 55.311 55.258 55.328 55.463 55.518 55.491 55.398 55.346 57.298 59.267 58.162 56.015 56.029 56.187 56.365 56.473 56.627 56.86 57.009 57.155 57.129 57.33 57.392 57.526 57.528 57.531 57.591 57.708 57.978 57.886 58.083 57.976 58.646 58.116 58.386
80.945 81.33 81.723 82.165 82.573 82.975 83.38 83.753 84.13 84.503 84.743 85.058 85.27 85.593 85.873 86.121 86.358 86.656 86.888 87.158 87.411 87.608 87.846 88.071 88.321 88.598 88.818 89.048 89.271 89.501 89.753 90.008 90.188 90.388 90.556 90.736 90.883 91.058 91.228 91.413 91.583 91.733 91.888 92.036 92.136 92.313 92.481 92.621 92.781 92.938 93.798 94.511 94.991 94.946 95.536 94.853 94.118 94.051 94.051 94.128 97.153 97.716 94.266 93.953 93.916 93.856 93.818 93.763 93.631 93.553 93.396 93.298 93.181 93.148 93.908 93.141 92.638 92.748 92.796 94.018 94.316 92.521 92.423 92.343 92.281 92.113 91.976 91.906 91.811 91.741 91.713 91.651 91.558 91.486 91.391 91.266 91.138 90.986 90.841 90.666 90.501 90.318 90.123 89.941 89.743 89.543 89.351 89.128 88.921 88.738 88.506 88.288 88.036 87.826 87.621 87.376 87.156 86.916 86.616 86.341 86.066 85.758 85.411 85.106 84.798 84.466 84.173 83.881 83.541 83.211 82.916 82.548 82.261 81.983 81.676 81.373 81.106 80.841 80.573 80.308 80.031 79.788 79.518 79.266 79.013 78.783 78.503 78.246 77.951 77.573 77.216 76.903 76.491 76.141 75.783 75.431 75.083 74.741 74.413 74.108 73.751 73.408 73.123 72.798 72.478 72.143 71.811 71.423 71.053 70.653 70.303 69.943 69.556 69.186 68.873 68.488 68.156 67.793 67.446 67.093 66.718 66.373 66.058 65.728 65.343 65.013 64.653 64.303 63.963 63.616 63.263 62.943 62.598 62.336 62.018 61.716 61.428 61.093 60.811 60.473 60.178 59.926 59.641 59.321 59.061 58.768 58.493 58.241 57.948 57.661 57.408 57.178 56.891 56.706 56.438 56.201 56.101 55.861 55.893 56.308 56.863 55.433 56.603 56.116 56.336 54.366 53.786 53.601 53.393 53.166 53.033 52.903 52.761 52.453 52.238 52.061 51.796 51.611 51.423 51.281 51.126 50.993 50.731 50.548 50.336 50.161 49.948 49.778 49.638 49.488 49.346 49.236 49.126 49.046 48.963 48.821 48.688 48.623 48.566 48.538 48.483 48.381 48.316 48.278 48.291 48.321 48.363 48.431 48.488 48.568 48.676 48.723 48.716 48.786 48.783 48.751 48.646 48.603 48.626 48.661 48.821 49.016 49.168 49.323 49.418 49.436 49.348 49.298 49.218 49.161 49.241 49.421 49.306 49.223 50.403 51.546 51.476 50.996 50.771 50.913 50.738 50.533 51.076 51.193 51.048 51.348 51.341 50.936 50.873 51.038 51.126 51.328 51.623 51.028 51.143 51.211 51.301 51.453 51.601 51.883 51.981 52.101 52.113 52.361 52.493 52.478 52.508 52.531 52.608 52.636 52.588 52.713 52.863 52.918 52.956 52.858 52.746 52.753 52.813 52.836 52.871 52.883 52.801 52.896 52.918 52.906 52.918 52.981 53.108 53.323 53.618 53.863 53.923 54.006 54.046 54.108 54.271 54.376 54.473 54.478 54.531 54.646 54.728 54.701 54.706 54.733 54.731 54.591 54.728 55.098 55.423 55.708 55.871 56.146 56.156 57.421 57.213 57.138 57.103 56.021 55.186 55.151 55.151 55.178 55.246 55.198 55.208 55.278 55.331 55.419 56.599 55.891 55.726 57.861 56.389 56.478 56.669 56.75 56.798 56.853 56.952 57.066 57.163 57.195 57.273 57.321 57.388 57.521 57.631 57.728 57.798 57.896 57.933 58.116 57.971 58.083
80.425 80.825 81.258 81.635 82.068 82.525 82.923 83.345 83.753 84.118 84.395 84.68 84.963 85.161 85.468 85.746 86.013 86.276 86.521 86.776 87.013 87.261 87.501 87.741 87.993 88.223 88.486 88.701 88.931 89.113 89.376 89.541 89.706 89.883 90.061 90.256 90.441 90.666 90.836 91.018 91.171 91.326 91.481 91.648 91.801 91.943 92.086 92.236 92.388 92.461 92.576 92.971 93.968 94.548 95.103 95.023 95.473 94.686 93.998 93.953 93.953 94.001 93.966 93.931 93.863 93.798 93.751 93.693 93.598 93.478 93.281 93.083 92.986 92.748 92.518 92.448 92.478 92.583 93.963 94.638 92.248 92.206 92.106 92.043 91.911 91.751 91.623 91.518 91.493 91.426 91.351 91.283 91.211 91.123 90.966 90.868 90.706 90.556 90.403 90.243 90.091 89.896 89.688 89.498 89.303 89.098 88.906 88.673 88.468 88.266 88.016 87.788 87.568 87.331 87.128 86.876 86.603 86.351 86.088 85.783 85.503 85.191 84.866 84.553 84.256 83.916 83.591 83.303 82.946 82.596 82.303 81.968 81.651 81.353 81.038 80.766 80.498 80.226 79.993 79.733 79.456 79.223 78.971 78.718 78.511 78.248 77.998 77.728 77.321 76.948 76.573 76.238 75.858 75.496 75.141 74.846 74.443 74.063 73.746 73.438 73.086 72.743 72.476 72.116 71.783 71.453 71.091 70.703 70.358 69.976 69.618 69.231 68.851 68.503 68.158 67.823 67.471 67.126 66.766 66.423 66.081 65.733 65.368 65.053 64.686 64.358 63.981 63.591 63.228 62.923 62.563 62.213 61.881 61.556 61.283 60.983 60.633 60.308 60.036 59.758 59.423 59.156 58.866 58.623 58.353 58.073 57.838 57.556 57.266 56.998 56.741 56.556 56.306 56.148 55.808 55.568 55.451 55.578 56.173 56.263 55.211 55.761 54.281 53.816 53.616 53.433 53.163 53.006 52.961 52.813 52.593 52.323 52.091 51.886 51.621 51.388 51.198 51.041 50.878 50.706 50.588 50.346 50.171 49.996 49.833 49.601 49.413 49.241 49.086 48.976 48.876 48.706 48.578 48.481 48.373 48.308 48.293 48.238 48.218 48.136 48.041 47.973 47.981 47.993 48.026 48.068 48.156 48.276 48.396 48.483 48.573 48.653 48.651 48.633 48.596 48.558 48.491 48.506 48.531 48.593 48.791 49.023 49.241 49.368 49.431 49.351 49.261 49.173 49.086 48.673 50.178 50.606 50.421 49.213 50.838 51.426 50.313 50.386 50.428 50.461 50.423 50.443 50.373 50.416 50.663 50.628 50.503 50.123 50.166 50.116 50.133 50.198 50.128 50.313 50.466 51.221 52.023 51.653 52.406 51.606 51.626 51.741 51.793 51.948 52.253 52.348 52.356 52.346 52.333 52.398 52.421 52.506 52.681 52.766 52.626 52.543 52.601 52.676 52.761 52.573 52.808 52.776 52.756 52.711 52.756 52.783 52.851 52.938 53.231 53.506 53.753 53.876 53.971 54.023 54.056 54.141 54.243 54.318 54.421 54.523 54.606 54.643 54.666 54.636 54.608 54.646 54.616 54.381 54.441 54.811 55.206 55.561 55.776 56.096 56.091 56.803 57.223 57.121 57.023 57.496 55.378 55.063 55.063 55.091 55.108 56.103 55.198 56.651 56.326 55.573 57.319 55.715 56.046 56.297 56.436 56.615 56.726 56.782 56.857 56.863 57.016 57.161 57.229 57.301 57.366 57.403 57.463 57.601 57.731 57.816 57.888 57.918 57.958 57.993 58.078 58.198
79.99 80.373 80.775 81.17 81.593 82.033 82.505 82.973 83.34 83.778 84.045 84.313 84.608 84.833 85.083 85.346 85.628 85.911 86.166 86.416 86.686 86.941 87.176 87.406 87.643 87.871 88.163 88.356 88.561 88.741 88.898 89.101 89.271 89.458 89.631 89.818 90.051 90.258 90.411 90.596 90.748 90.918 91.121 91.298 91.433 91.563 91.711 91.858 91.988 92.106 92.218 92.321 92.666 93.798 93.986 94.438 94.928 94.971 95.296 94.376 93.871 93.886 93.908 93.851 93.766 93.701 93.626 93.568 93.496 93.398 93.233 93.011 92.823 92.611 92.348 92.196 92.376 93.698 92.948 92.036 91.908 91.846 91.806 91.638 91.511 91.378 91.258 91.178 91.123 91.051 90.976 90.908 90.791 90.668 90.583 90.416 90.246 90.111 89.966 89.826 89.641 89.476 89.281 89.083 88.863 88.658 88.431 88.211 87.996 87.746 87.506 87.291 87.048 86.803 86.576 86.308 86.051 85.803 85.536 85.248 84.948 84.646 84.331 83.986 83.728 83.353 83.031 82.698 82.393 82.031 81.676 81.356 81.031 80.716 80.443 80.168 79.873 79.633 79.371 79.131 78.893 78.661 78.438 78.186 77.938 77.693 77.393 77.071 76.671 76.311 75.936 75.548 75.203 74.838 74.466 74.098 73.788 73.396 73.048 72.728 72.398 72.061 71.738 71.453 71.096 70.733 70.398 70.078 69.613 69.248 68.926 68.571 68.138 67.793 67.416 67.073 66.733 66.403 66.128 65.721 65.386 65.038 64.701 64.358 64.001 63.648 63.248 62.881 62.483 62.161 61.848 61.486 61.153 60.826 60.536 60.163 59.896 59.606 59.306 58.978 58.731 58.486 58.188 57.946 57.681 57.433 57.151 56.893 56.566 56.391 56.146 55.893 55.721 55.381 55.258 55.486 55.146 54.508 54.931 54.323 53.793 53.566 53.456 53.193 53.036 52.993 52.848 52.633 52.401 52.173 51.976 51.711 51.516 51.258 51.081 50.826 50.663 50.513 50.336 50.156 49.998 49.813 49.631 49.468 49.303 49.106 48.923 48.743 48.588 48.476 48.321 48.151 48.098 48.051 48.003 47.981 47.926 47.858 47.801 47.773 47.736 47.706 47.736 47.756 47.756 47.813 47.971 48.183 48.346 48.436 48.478 48.503 48.493 48.418 48.351 48.351 48.363 48.426 48.481 48.546 48.698 48.898 49.166 49.331 49.373 49.231 49.118 49.016 48.631 48.571 48.636 49.513 50.263 50.388 50.048 50.303 50.381 50.441 50.483 50.516 50.548 50.536 50.563 50.553 50.433 50.391 50.476 50.521 50.573 50.618 50.583 50.556 50.696 50.528 50.376 51.568 51.773 51.818 50.488 54.318 53.341 52.416 51.783 52.298 51.291 51.478 51.308 52.173 53.261 52.328 52.238 52.298 52.403 52.331 52.291 52.396 52.503 52.601 52.666 52.516 52.698 52.683 52.666 52.653 52.716 52.781 52.871 53.041 53.311 53.473 53.681 53.821 53.873 53.953 54.021 54.078 54.133 54.178 54.278 54.403 54.451 54.516 54.486 54.513 54.528 54.598 54.528 54.038 54.051 54.578 55.033 55.341 55.698 56.031 56.043 56.253 57.136 57.118 57.056 55.768 54.988 54.926 55.816 58.268 58.361 58.088 55.968 55.391 55.546 55.628 55.771 55.973 56.21 56.374 56.517 56.668 56.798 56.859 56.925 56.993 57.114 57.202 57.268 57.313 57.368 57.448 57.513 57.661 57.783 57.878 57.908 57.946 58.011 58.043 58.101 58.128
79.58 80.005 80.33 80.773 81.185 81.663 82.1 82.578 83.01 83.393 83.715 83.99 84.26 84.501 84.706 84.978 85.278 85.563 85.836 86.118 86.386 86.623 86.838 87.073 87.328 87.546 87.806 88.008 88.123 88.311 88.501 88.703 88.866 89.068 89.268 89.456 89.686 89.866 90.006 90.153 90.383 90.586 90.758 90.921 91.066 91.201 91.328 91.476 91.568 91.716 91.873 91.918 92.076 92.346 93.281 93.658 93.951 94.238 94.453 95.646 95.453 95.491 93.836 93.786 94.208 94.016 93.496 93.378 93.346 93.321 93.151 92.983 93.206 92.166 91.946 92.028 93.656 92.626 91.771 91.713 91.631 91.593 91.436 91.238 91.116 90.993 90.918 90.858 90.753 90.661 90.588 90.468 90.378 90.236 90.118 89.993 89.813 89.643 89.518 89.356 89.188 89.036 88.843 88.638 88.446 88.196 87.986 87.728 87.488 87.263 87.018 86.781 86.513 86.251 86.026 85.773 85.488 85.238 84.953 84.676 84.408 84.091 83.748 83.431 83.123 82.791 82.451 82.111 81.758 81.401 81.068 80.741 80.471 80.171 79.831 79.558 79.298 79.036 78.806 78.566 78.346 78.101 77.888 77.666 77.353 77.053 76.748 76.401 76.038 75.656 75.278 74.906 74.521 74.148 73.803 73.413 73.098 72.766 72.396 72.063 71.718 71.391 71.051 70.761 70.386 70.023 69.703 69.331 68.971 68.601 68.168 67.833 67.431 67.096 66.736 66.326 66.031 65.691 65.338 65.026 64.703 64.348 64.003 63.606 63.308 62.928 62.536 62.156 61.833 61.426 61.123 60.786 60.461 60.126 59.788 59.473 59.148 58.873 58.586 58.313 58.101 57.823 57.551 57.311 57.056 56.786 56.481 56.241 56.041 55.848 55.421 55.358 55.188 56.066 55.381 54.248 54.218 53.746 53.553 53.381 53.213 53.023 52.941 52.813 52.668 52.393 52.238 52.008 51.796 51.578 51.381 51.143 50.951 50.741 50.471 50.231 50.081 49.968 49.788 49.603 49.443 49.301 49.158 48.996 48.796 48.591 48.468 48.286 48.091 47.961 47.906 47.876 47.821 47.743 47.618 47.573 47.551 47.498 47.528 47.498 47.461 47.461 47.486 47.561 47.646 47.783 47.953 48.126 48.221 48.206 48.186 48.263 48.281 48.273 48.263 48.251 48.318 48.373 48.386 48.436 48.571 48.763 48.908 49.048 49.416 48.718 48.623 48.603 48.553 48.608 48.636 49.321 49.676 49.883 50.168 50.313 50.373 50.446 50.458 50.473 50.526 50.551 50.576 50.573 50.483 50.443 50.463 50.538 50.616 50.638 50.661 50.713 50.818 50.928 50.956 51.036 51.418 52.088 51.953 50.523 50.773 53.083 52.421 52.218 51.201 51.368 51.651 52.366 52.346 51.906 52.026 52.078 52.108 52.116 52.211 52.333 52.428 52.498 52.518 52.518 52.621 52.523 52.483 52.516 52.708 52.781 52.928 53.003 53.176 53.371 53.553 53.671 53.788 53.831 53.873 53.883 53.968 54.001 54.108 54.193 54.258 54.268 54.288 54.363 54.388 54.416 54.133 53.873 53.941 54.011 54.218 54.266 54.531 55.798 55.988 56.268 57.071 57.113 57.048 56.086 56.076 55.033 54.983 55.083 56.156 55.951 55.938 55.518 55.608 55.793 55.99 56.21 56.375 56.541 56.64 56.768 56.882 56.966 57.029 57.113 57.184 57.242 57.284 57.34 57.429 57.518 57.568 57.668 57.836 57.913 57.973 58.026 58.071 58.091 58.153 58.206
79.215 79.618 80.028 80.383 80.893 81.335 81.775 82.208 82.65 83.07 83.36 83.638 83.868 84.186 84.388 84.688 84.966 85.278 85.546 85.801 86.068 86.328 86.578 86.831 87.031 87.231 87.413 87.628 87.746 87.926 88.141 88.316 88.513 88.718 88.943 89.148 89.331 89.473 89.656 89.856 90.048 90.236 90.401 90.568 90.708 90.866 90.991 91.128 91.208 91.333 91.438 91.538 91.631 91.831 92.338 92.588 93.331 93.178 93.158 93.563 94.371 94.638 94.623 93.813 93.883 93.726 92.966 92.976 93.183 93.783 93.058 93.166 91.876 91.608 91.846 91.828 91.671 91.556 91.498 91.446 91.381 91.223 91.061 90.921 90.763 90.638 90.548 90.456 90.391 90.301 90.166 90.053 89.936 89.826 89.666 89.523 89.353 89.203 89.041 88.876 88.713 88.533 88.356 88.153 87.956 87.731 87.488 87.236 86.988 86.731 86.478 86.186 85.991 85.686 85.453 85.191 84.946 84.678 84.381 84.078 83.806 83.501 83.171 82.843 82.526 82.173 81.816 81.473 81.151 80.826 80.503 80.156 79.833 79.543 79.261 79.021 78.731 78.463 78.208 77.993 77.771 77.546 77.353 77.078 76.731 76.446 76.116 75.736 75.396 75.013 74.653 74.248 73.856 73.466 73.098 72.751 72.421 72.056 71.693 71.356 71.026 70.676 70.338 70.036 69.686 69.351 68.968 68.643 68.266 67.853 67.498 67.096 66.738 66.388 65.991 65.638 65.293 65.011 64.626 64.301 63.973 63.608 63.318 62.891 62.568 62.183 61.823 61.446 61.078 60.711 60.368 60.043 59.701 59.378 59.058 58.746 58.471 58.193 57.928 57.663 57.421 57.166 56.928 56.626 56.363 56.191 55.886 55.596 55.311 55.431 55.136 55.661 56.331 55.363 53.721 53.523 53.296 53.116 52.936 52.898 52.811 52.561 52.366 52.183 52.028 51.748 51.573 51.371 51.196 51.056 50.831 50.581 50.343 50.103 49.941 49.751 49.576 49.446 49.248 49.113 48.951 48.821 48.688 48.516 48.301 48.118 47.956 47.853 47.798 47.726 47.683 47.578 47.438 47.346 47.293 47.273 47.276 47.283 47.278 47.288 47.326 47.378 47.438 47.528 47.613 47.728 47.833 47.918 48.016 47.946 47.868 47.876 47.933 47.996 48.006 48.098 48.148 48.248 48.251 48.353 48.421 48.311 48.601 48.453 49.501 51.216 48.403 48.613 48.691 48.701 49.298 49.501 49.653 49.846 50.046 50.106 50.186 50.286 50.346 50.416 50.463 50.513 50.526 50.548 50.536 50.508 50.531 50.556 50.621 50.683 50.706 50.773 50.858 50.901 50.978 50.998 51.053 51.158 51.391 51.146 51.293 51.038 51.008 51.113 51.273 51.323 51.353 52.783 53.516 51.461 53.351 51.913 51.983 52.063 52.146 52.253 52.361 52.371 52.468 52.436 52.406 52.338 52.328 52.371 52.533 52.601 52.781 52.743 52.798 52.896 53.053 53.083 53.331 53.393 53.453 53.508 53.638 53.816 54.078 54.101 53.986 53.978 54.076 54.476 55.583 56.436 56.133 54.441 53.901 54.043 54.111 54.191 54.231 55.613 55.941 56.333 57.208 57.103 57.051 57.173 56.293 55.418 55.171 55.113 55.238 55.471 55.528 55.566 55.758 55.946 56.141 56.329 56.515 56.671 56.756 56.841 56.956 57.069 57.116 57.175 57.199 57.254 57.337 57.402 57.488 57.578 57.648 57.726 57.883 57.996 58.038 58.111 58.161 58.221 58.223 58.308
78.895 79.353 79.773 80.173 80.575 81.115 81.505 81.938 82.33 82.693 82.983 83.295 83.555 83.863 84.111 84.411 84.696 84.963 85.233 85.558 85.811 86.056 86.278 86.468 86.676 86.851 87.046 87.251 87.438 87.628 87.823 88.016 88.236 88.396 88.613 88.796 89.018 89.181 89.373 89.556 89.748 89.923 90.086 90.248 90.411 90.556 90.696 90.793 90.896 91.001 91.121 91.238 91.338 91.388 91.463 91.538 91.641 91.741 92.693 92.693 92.648 92.911 93.508 93.913 93.501 92.986 92.383 92.631 92.918 92.806 93.688 91.478 91.303 91.578 92.056 91.473 91.381 91.288 91.271 91.178 90.991 90.823 90.663 90.488 90.396 90.298 90.183 90.103 89.998 89.858 89.743 89.616 89.488 89.346 89.186 89.036 88.888 88.706 88.571 88.381 88.238 88.048 87.866 87.666 87.431 87.203 86.976 86.741 86.453 86.186 85.928 85.623 85.361 85.116 84.876 84.603 84.351 84.101 83.801 83.511 83.198 82.921 82.571 82.236 81.928 81.568 81.221 80.888 80.538 80.213 79.891 79.563 79.263 78.966 78.668 78.391 78.126 77.916 77.686 77.476 77.228 76.998 76.771 76.468 76.113 75.776 75.498 75.131 74.778 74.403 74.026 73.596 73.191 72.803 72.428 72.071 71.706 71.341 70.991 70.651 70.316 69.996 69.638 69.313 68.956 68.661 68.296 67.933 67.553 67.171 66.753 66.393 66.016 65.671 65.296 64.951 64.573 64.243 63.913 63.568 63.266 62.901 62.556 62.151 61.821 61.461 61.073 60.708 60.361 59.956 59.616 59.316 58.953 58.661 58.316 58.056 57.768 57.511 57.276 57.006 56.766 56.503 56.273 56.051 55.878 55.471 55.206 55.601 56.108 55.123 53.881 53.723 53.518 53.296 53.111 52.911 52.861 52.748 52.513 52.293 52.108 51.948 51.778 51.533 51.383 51.136 51.011 50.786 50.611 50.436 50.213 50.016 49.796 49.598 49.393 49.218 49.016 48.926 48.766 48.616 48.476 48.333 48.196 47.998 47.868 47.786 47.713 47.636 47.578 47.431 47.338 47.208 47.101 47.091 47.048 47.061 47.088 47.126 47.183 47.198 47.298 47.313 47.393 47.448 47.533 47.653 47.716 47.748 47.726 47.673 47.703 47.826 47.848 47.901 47.963 48.028 48.121 48.161 48.266 48.153 48.016 48.061 48.211 48.771 48.976 48.618 48.803 48.921 49.028 49.136 49.268 49.426 49.586 49.671 49.788 49.873 49.928 50.051 50.133 50.186 50.273 50.348 50.416 50.478 50.536 50.558 50.578 50.623 50.671 50.691 50.723 50.801 50.843 50.888 50.948 51.043 51.096 51.141 51.213 51.241 51.211 51.271 51.346 51.278 51.241 51.326 51.488 51.788 51.698 52.208 52.438 51.761 51.866 51.948 52.038 52.103 52.198 52.153 52.271 52.243 52.063 52.251 52.383 52.396 52.383 52.373 52.466 52.633 52.751 52.826 52.866 52.891 52.891 53.016 53.046 53.066 53.118 53.083 54.106 54.286 53.381 53.291 53.371 53.868 53.853 58.501 58.228 54.146 53.901 55.073 54.623 54.636 55.296 55.816 55.991 56.128 64.468 57.106 57.071 57.721 56.191 55.661 55.488 55.448 55.433 55.523 55.653 55.846 55.931 56.121 56.31 56.464 56.657 56.88 56.931 56.926 56.999 57.101 57.175 57.205 57.261 57.34 57.458 57.504 57.57 57.656 57.713 57.813 57.943 58.091 58.153 58.213 58.256 58.298 58.333 58.381
78.573 79.033 79.478 79.915 80.37 80.818 81.248 81.643 82.018 82.365 82.68 82.97 83.27 83.576 83.836 84.111 84.396 84.721 84.988 85.271 85.536 85.738 85.918 86.088 86.336 86.511 86.708 86.908 87.113 87.336 87.543 87.698 87.896 88.081 88.288 88.538 88.751 88.886 89.076 89.268 89.456 89.628 89.801 89.968 90.123 90.273 90.406 90.531 90.628 90.768 90.833 90.953 91.058 91.111 91.133 91.146 91.168 91.213 91.246 91.386 91.688 91.603 91.876 92.186 92.208 91.863 92.056 92.551 92.583 93.156 91.143 90.878 91.493 92.643 92.053 91.066 91.053 90.993 90.881 90.728 90.561 90.401 90.218 90.096 89.976 89.896 89.818 89.686 89.548 89.428 89.313 89.173 89.011 88.878 88.723 88.556 88.378 88.211 88.066 87.876 87.693 87.518 87.318 87.126 86.883 86.651 86.416 86.146 85.886 85.616 85.336 85.056 84.788 84.518 84.241 83.946 83.711 83.458 83.181 82.888 82.588 82.311 82.008 81.651 81.318 80.986 80.631 80.301 79.953 79.621 79.283 79.013 78.688 78.398 78.123 77.861 77.658 77.411 77.178 76.941 76.711 76.413 76.131 75.821 75.508 75.148 74.838 74.501 74.118 73.728 73.343 72.916 72.513 72.093 71.726 71.371 71.003 70.648 70.321 69.973 69.616 69.293 68.966 68.601 68.283 67.966 67.581 67.221 66.878 66.466 66.058 65.701 65.318 64.983 64.573 64.246 63.856 63.503 63.216 62.836 62.488 62.136 61.771 61.443 61.061 60.676 60.363 59.928 59.596 59.236 58.916 58.551 58.228 57.953 57.656 57.376 57.118 56.816 56.618 56.371 56.068 56.016 55.633 55.161 54.773 54.848 55.066 54.978 54.901 53.573 53.283 53.113 52.876 52.838 52.733 52.458 52.226 52.053 51.866 51.691 51.476 51.278 51.076 50.941 50.693 50.518 50.371 50.173 49.988 49.826 49.611 49.446 49.238 49.033 48.868 48.706 48.546 48.391 48.248 48.091 47.953 47.798 47.721 47.706 47.636 47.541 47.436 47.371 47.258 47.111 46.978 46.921 46.896 46.866 46.953 47.023 47.018 47.018 47.096 47.113 47.211 47.248 47.321 47.333 47.458 47.511 47.533 47.556 47.566 47.633 47.761 47.893 47.916 47.933 48.011 48.116 48.061 47.993 47.836 47.963 48.138 48.366 48.501 48.598 48.728 48.831 48.903 49.006 49.088 49.238 49.313 49.436 49.541 49.626 49.648 49.723 49.811 49.906 49.976 50.093 50.146 50.196 50.283 50.376 50.461 50.511 50.598 50.626 50.661 50.726 50.736 50.816 50.881 50.928 50.996 51.066 51.088 51.163 51.228 51.301 51.368 51.398 51.476 51.528 51.633 51.736 51.813 51.896 51.983 52.816 53.516 53.411 51.788 51.851 51.903 51.988 51.871 51.956 52.008 52.161 52.516 52.641 52.641 52.703 52.688 52.781 52.853 52.898 53.041 53.006 53.056 53.098 53.178 53.163 53.228 53.276 53.348 53.496 53.526 53.628 53.673 53.683 53.806 53.871 54.006 56.998 55.303 54.106 53.958 54.306 54.846 55.051 55.428 55.806 56.021 56.088 57.633 57.163 57.071 57.368 56.588 55.856 55.696 55.616 55.646 55.746 55.891 56.023 56.168 56.326 56.477 56.645 56.803 56.992 57.024 57.025 57.102 57.168 57.243 57.296 57.364 57.469 57.564 57.638 57.7 57.758 57.826 57.926 58.041 58.178 58.243 58.301 58.353 58.393 58.443 58.523
78.28 78.743 79.213 79.69 80.14 80.55 80.96 81.348 81.708 82.05 82.385 82.7 82.978 83.246 83.523 83.853 84.168 84.466 84.738 84.981 85.183 85.368 85.566 85.788 86.011 86.191 86.391 86.618 86.818 87.026 87.223 87.411 87.598 87.816 88.033 88.206 88.403 88.586 88.793 88.966 89.166 89.368 89.541 89.706 89.853 89.986 90.083 90.238 90.346 90.463 90.576 90.653 90.708 90.761 90.801 90.806 90.866 90.921 90.956 90.913 90.896 91.221 91.418 91.111 91.358 91.626 92.173 92.218 92.786 90.776 90.581 91.263 92.981 91.948 90.628 90.601 90.631 90.598 90.481 90.286 90.088 89.946 89.833 89.728 89.586 89.491 89.378 89.268 89.143 88.976 88.808 88.686 88.508 88.363 88.206 88.046 87.878 87.691 87.548 87.326 87.138 86.951 86.768 86.566 86.351 86.083 85.823 85.563 85.301 85.008 84.746 84.493 84.176 83.911 83.618 83.328 83.046 82.773 82.516 82.248 81.963 81.671 81.373 81.028 80.676 80.366 80.011 79.708 79.386 79.051 78.773 78.431 78.133 77.883 77.581 77.341 77.148 76.931 76.658 76.411 76.163 75.841 75.541 75.246 74.893 74.566 74.226 73.826 73.413 73.016 72.633 72.228 71.828 71.413 71.048 70.693 70.308 69.911 69.583 69.268 68.888 68.611 68.241 67.953 67.556 67.276 66.921 66.493 66.146 65.781 65.363 64.966 64.608 64.263 63.848 63.528 63.141 62.808 62.423 62.066 61.786 61.426 61.011 60.651 60.351 59.956 59.553 59.208 58.886 58.521 58.183 57.853 57.578 57.261 56.961 56.656 56.413 56.126 55.966 55.811 55.291 55.233 55.158 54.983 54.806 54.696 54.228 53.356 53.083 52.853 52.736 52.691 52.471 52.253 52.046 51.833 51.616 51.418 51.196 50.986 50.808 50.638 50.443 50.233 50.023 49.906 49.701 49.516 49.368 49.201 49.008 48.856 48.726 48.536 48.356 48.183 47.981 47.811 47.653 47.571 47.556 47.493 47.386 47.378 47.358 47.308 47.196 47.061 46.841 46.783 46.761 46.773 46.781 46.808 46.848 46.918 46.938 47.041 47.063 47.126 47.171 47.218 47.233 47.366 47.368 47.448 47.513 47.548 47.618 47.691 47.823 47.838 47.861 47.846 47.788 47.813 47.893 47.853 47.963 48.271 48.511 48.601 48.651 48.716 48.833 48.951 49.018 49.096 49.183 49.253 49.378 49.448 49.571 49.686 49.753 49.858 49.891 49.933 50.026 50.108 50.151 50.233 50.293 50.283 50.418 50.498 50.576 50.628 50.731 50.778 50.768 50.823 50.871 50.948 51.048 51.106 51.138 51.196 51.273 51.326 51.388 51.436 51.511 51.571 51.631 51.731 51.808 51.953 52.056 52.456 53.041 53.696 52.016 51.908 51.988 52.121 52.326 52.521 52.573 52.661 52.696 52.693 52.711 52.746 52.813 52.901 52.993 53.123 53.211 53.221 53.248 53.311 53.378 53.436 53.451 53.521 53.546 53.608 53.701 53.796 53.873 53.918 54.026 54.108 54.213 54.318 54.343 54.193 54.233 54.736 54.976 55.148 55.481 55.846 56.098 56.073 57.401 57.263 57.128 57.058 56.881 56.038 55.756 55.756 55.841 55.991 56.083 56.208 56.383 56.518 56.639 56.78 56.895 57.015 57.107 57.123 57.175 57.251 57.354 57.432 57.48 57.565 57.667 57.759 57.836 57.926 57.971 58.021 58.141 58.261 58.371 58.411 58.466 58.501 58.558 58.633
77.948 78.453 78.925 79.385 79.828 80.233 80.638 81.023 81.413 81.763 82.075 82.393 82.663 82.966 83.306 83.603 83.926 84.198 84.401 84.626 84.836 85.028 85.246 85.463 85.673 85.881 86.111 86.313 86.536 86.726 86.921 87.138 87.346 87.533 87.733 87.956 88.141 88.328 88.516 88.703 88.888 89.088 89.263 89.423 89.573 89.698 89.801 89.933 90.053 90.181 90.258 90.366 90.438 90.446 90.526 90.498 90.561 90.588 90.613 90.643 90.661 90.618 90.691 90.846 91.186 91.826 92.631 92.321 90.426 90.248 91.091 92.228 91.396 90.301 90.528 90.218 90.231 90.188 90.026 89.861 89.681 89.551 89.436 89.341 89.213 89.076 88.951 88.803 88.663 88.503 88.368 88.191 88.008 87.863 87.661 87.511 87.323 87.156 86.978 86.763 86.556 86.373 86.166 85.968 85.698 85.498 85.203 84.943 84.691 84.421 84.136 83.861 83.553 83.226 82.971 82.693 82.393 82.118 81.881 81.598 81.313 81.028 80.733 80.403 80.051 79.778 79.501 79.113 78.813 78.491 78.226 77.906 77.608 77.333 77.073 76.828 76.591 76.386 76.136 75.853 75.556 75.273 74.953 74.683 74.343 73.956 73.556 73.173 72.776 72.368 71.951 71.573 71.158 70.776 70.373 69.956 69.623 69.248 68.873 68.511 68.188 67.853 67.536 67.248 66.861 66.526 66.171 65.811 65.433 65.046 64.663 64.248 63.866 63.493 63.146 62.741 62.351 62.066 61.678 61.316 60.956 60.668 60.231 59.871 59.513 59.198 58.818 58.496 58.203 57.828 57.493 57.163 56.826 56.533 56.246 56.023 55.791 55.611 55.306 55.963 55.971 55.256 55.711 54.663 53.936 53.156 52.866 52.726 52.676 52.461 52.203 52.043 51.851 51.643 51.426 51.206 50.963 50.786 50.563 50.363 50.143 49.928 49.773 49.501 49.323 49.203 49.033 48.908 48.766 48.638 48.481 48.281 48.106 47.968 47.751 47.628 47.453 47.396 47.268 47.203 47.146 47.098 47.136 47.201 47.108 47.021 46.873 46.688 46.656 46.663 46.613 46.643 46.686 46.758 46.831 46.868 46.948 47.063 47.086 47.116 47.216 47.243 47.271 47.296 47.368 47.446 47.466 47.501 47.611 47.631 47.546 47.556 47.608 47.646 47.653 47.611 48.206 48.308 48.463 48.561 48.636 48.726 48.803 48.881 49.001 49.081 49.168 49.243 49.306 49.406 49.503 49.591 49.701 49.811 49.898 49.966 49.998 50.063 50.108 50.243 50.283 50.368 50.428 50.441 50.498 50.558 50.658 50.741 50.826 50.856 50.928 50.978 51.013 51.041 51.116 51.201 51.251 51.276 51.321 51.376 51.446 51.473 51.556 51.618 51.678 51.748 51.821 51.938 51.981 52.451 53.003 53.386 52.398 52.348 52.361 52.456 52.526 52.628 52.751 52.756 52.791 52.838 52.913 52.961 53.031 53.048 53.103 53.186 53.263 53.293 53.321 53.393 53.451 53.511 53.568 53.603 53.606 53.686 53.796 53.838 53.911 54.016 54.106 54.201 54.351 54.516 54.703 54.656 54.606 54.976 55.056 55.208 55.516 55.868 56.153 56.156 57.086 57.676 57.173 57.083 57.166 56.668 55.771 55.896 56.026 56.178 56.293 56.433 56.591 56.673 56.771 56.877 56.968 57.067 57.212 57.242 57.264 57.373 57.448 57.541 57.633 57.737 57.821 57.917 57.974 58.046 58.083 58.151 58.228 58.381 58.488 58.528 58.588 58.631 58.708 58.811
77.643 78.123 78.558 79.033 79.485 79.908 80.33 80.698 81.055 81.41 81.77 82.093 82.408 82.726 83.043 83.318 83.623 83.838 84.066 84.286 84.488 84.718 84.956 85.151 85.376 85.608 85.816 86.018 86.223 86.413 86.646 86.838 87.066 87.286 87.511 87.698 87.893 88.086 88.261 88.441 88.651 88.828 89.001 89.146 89.293 89.406 89.551 89.706 89.803 89.931 90.013 90.121 90.198 90.186 90.201 90.226 90.278 90.311 90.343 90.366 90.426 90.541 90.718 90.686 91.051 91.211 91.703 90.021 89.976 90.951 92.113 91.551 90.118 90.058 89.998 89.971 89.951 89.866 89.673 89.453 89.311 89.193 89.061 88.941 88.821 88.686 88.526 88.346 88.183 88.003 87.863 87.683 87.523 87.313 87.153 86.963 86.781 86.593 86.378 86.211 85.976 85.761 85.553 85.301 85.068 84.846 84.573 84.291 84.051 83.766 83.473 83.188 82.901 82.593 82.308 82.021 81.758 81.488 81.258 80.941 80.663 80.396 80.088 79.796 79.481 79.171 78.868 78.548 78.261 77.986 77.691 77.391 77.116 76.843 76.583 76.266 76.061 75.816 75.558 75.266 74.971 74.693 74.408 74.108 73.746 73.368 72.933 72.553 72.126 71.728 71.291 70.876 70.481 70.083 69.686 69.273 68.898 68.553 68.178 67.856 67.478 67.141 66.788 66.496 66.173 65.841 65.453 65.108 64.693 64.351 63.941 63.508 63.118 62.781 62.378 62.036 61.651 61.273 60.933 60.591 60.221 59.821 59.456 59.108 58.763 58.438 58.086 57.738 57.441 57.111 56.733 56.438 56.111 55.876 55.678 55.453 55.056 55.638 55.548 55.078 53.668 53.686 53.156 52.898 52.751 52.638 52.466 52.218 52.048 51.838 51.653 51.436 51.246 50.978 50.791 50.528 50.316 50.103 49.891 49.691 49.443 49.216 49.013 48.818 48.736 48.546 48.396 48.328 48.141 47.968 47.838 47.703 47.496 47.311 47.223 47.143 46.996 46.938 46.871 46.881 46.823 46.761 46.826 46.913 46.916 46.826 46.653 46.541 46.556 46.583 46.598 46.631 46.696 46.776 46.823 46.878 46.993 47.051 47.063 47.123 47.213 47.231 47.246 47.278 47.321 47.283 47.296 47.313 47.356 47.451 47.476 47.468 47.423 47.793 48.218 48.323 48.458 48.526 48.631 48.741 48.806 48.926 49.006 49.113 49.206 49.258 49.381 49.488 49.563 49.676 49.833 49.943 50.033 50.171 50.191 50.208 50.261 50.343 50.386 50.456 50.521 50.603 50.683 50.723 50.791 50.871 50.951 51.011 51.081 51.171 51.221 51.298 51.396 51.498 51.508 51.508 51.533 51.553 51.598 51.601 51.631 51.656 51.731 51.751 51.773 51.821 51.943 51.983 51.928 53.843 52.996 53.723 52.588 52.626 52.648 52.641 52.713 52.806 52.871 52.938 53.058 53.118 53.183 53.283 53.346 53.351 53.381 53.406 53.458 53.513 53.553 53.626 53.688 53.703 53.726 53.736 53.733 53.793 53.838 53.956 54.038 54.148 54.263 54.418 54.613 54.801 54.986 55.063 55.128 55.238 55.356 55.426 55.578 55.881 56.238 56.248 57.301 57.586 57.208 57.168 57.563 56.413 55.893 56.046 56.231 56.363 56.521 56.626 56.758 56.871 56.963 56.995 57.083 57.21 57.284 57.333 57.408 57.51 57.618 57.717 57.805 57.902 57.98 58.027 58.111 58.156 58.216 58.281 58.371 58.493 58.591 58.683 58.763 58.823 58.851 58.968
77.34 77.795 78.238 78.698 79.125 79.553 79.96 80.34 80.74 81.118 81.463 81.78 82.105 82.436 82.723 82.978 83.238 83.488 83.713 83.931 84.176 84.403 84.621 84.853 85.071 85.301 85.513 85.706 85.948 86.128 86.361 86.576 86.776 87.001 87.208 87.441 87.641 87.831 88.001 88.188 88.368 88.543 88.708 88.878 89.018 89.156 89.291 89.431 89.541 89.683 89.773 89.856 89.936 89.948 89.958 90.033 90.036 90.093 90.136 90.163 90.231 91.066 91.813 91.321 90.688 91.386 89.686 89.593 91.603 91.521 90.276 89.868 89.871 89.793 89.718 89.688 89.643 89.473 89.278 89.098 88.961 88.823 88.713 88.583 88.406 88.256 88.116 87.908 87.716 87.541 87.396 87.191 87.006 86.796 86.601 86.436 86.231 86.023 85.811 85.633 85.378 85.153 84.923 84.658 84.426 84.196 83.936 83.643 83.378 83.098 82.818 82.533 82.236 81.953 81.676 81.418 81.121 80.861 80.606 80.313 80.021 79.741 79.461 79.171 78.901 78.601 78.291 77.996 77.753 77.433 77.176 76.936 76.621 76.323 76.056 75.778 75.481 75.223 74.958 74.673 74.408 74.131 73.838 73.491 73.146 72.741 72.308 71.891 71.468 71.043 70.636 70.213 69.808 69.386 68.986 68.611 68.221 67.838 67.448 67.123 66.743 66.453 66.126 65.786 65.453 65.081 64.758 64.388 63.998 63.588 63.258 62.836 62.406 62.043 61.673 61.271 60.926 60.521 60.183 59.793 59.411 59.053 58.703 58.331 57.981 57.641 57.341 57.031 56.663 56.298 55.978 55.756 55.518 55.311 54.873 54.763 55.388 56.678 55.348 53.241 53.018 52.761 52.696 52.498 52.296 52.046 51.858 51.648 51.478 51.236 51.036 50.816 50.596 50.356 50.113 49.883 49.693 49.446 49.196 48.993 48.731 48.543 48.366 48.226 48.021 47.896 47.791 47.643 47.536 47.358 47.188 47.081 46.983 46.838 46.793 46.763 46.721 46.626 46.576 46.553 46.556 46.608 46.628 46.693 46.706 46.466 46.441 46.486 46.473 46.536 46.568 46.713 46.686 46.803 46.823 46.821 46.923 46.891 46.961 46.983 46.976 47.086 47.056 47.011 47.028 47.096 47.163 47.323 47.501 47.218 47.328 47.878 48.046 48.236 48.371 48.511 48.638 48.736 48.838 48.966 49.066 49.178 49.241 49.418 49.546 49.691 49.881 49.898 50.003 50.193 50.363 50.523 50.551 50.613 50.681 50.743 50.771 50.826 50.913 50.953 50.991 51.066 51.126 51.226 51.358 51.421 51.488 51.591 51.723 51.853 51.986 52.156 52.298 52.363 52.428 52.388 52.433 52.396 52.396 52.343 52.346 52.311 52.296 52.336 52.363 52.386 52.326 52.403 52.256 53.191 54.696 53.563 53.048 53.096 53.101 53.176 53.286 53.358 53.433 53.551 53.616 53.738 53.806 53.868 53.916 53.923 53.936 53.958 54.001 54.081 54.098 54.091 54.143 54.208 54.178 54.151 54.183 54.216 54.246 54.361 54.396 54.496 54.616 54.731 54.893 55.098 55.261 55.381 55.448 55.548 55.641 55.738 55.828 55.958 56.353 56.348 57.136 57.726 57.288 57.248 57.398 57.486 56.113 56.236 56.423 56.573 56.718 56.811 56.968 57.053 57.136 57.195 57.272 57.337 57.42 57.496 57.587 57.689 57.785 57.897 57.979 58.039 58.076 58.131 58.239 58.281 58.361 58.443 58.508 58.638 58.746 58.841 58.908 58.941 59.063 59.171
76.995 77.415 77.86 78.305 78.71 79.148 79.578 79.998 80.385 80.778 81.143 81.478 81.79 82.098 82.383 82.663 82.901 83.141 83.371 83.613 83.858 84.081 84.291 84.533 84.751 84.976 85.156 85.383 85.618 85.866 86.103 86.296 86.503 86.731 86.986 87.186 87.393 87.568 87.748 87.926 88.068 88.281 88.458 88.621 88.778 88.916 89.011 89.153 89.283 89.378 89.531 89.626 89.651 89.661 89.726 89.791 89.816 89.901 89.968 89.981 90.181 91.761 91.801 90.756 90.786 89.321 89.333 90.853 91.486 91.063 90.531 89.666 89.623 89.506 89.428 89.393 89.313 89.138 88.996 88.776 88.618 88.488 88.351 88.201 88.031 87.841 87.653 87.483 87.288 87.118 86.903 86.716 86.533 86.291 86.101 85.913 85.686 85.473 85.223 85.016 84.783 84.558 84.311 84.041 83.821 83.538 83.283 82.991 82.703 82.456 82.171 81.863 81.613 81.318 81.038 80.773 80.506 80.226 79.988 79.713 79.456 79.141 78.856 78.613 78.318 78.033 77.753 77.441 77.231 76.936 76.668 76.386 76.073 75.773 75.523 75.186 74.918 74.623 74.396 74.096 73.778 73.501 73.171 72.851 72.453 72.041 71.626 71.193 70.813 70.381 69.993 69.538 69.141 68.738 68.311 67.906 67.493 67.131 66.778 66.451 66.081 65.743 65.406 65.088 64.763 64.393 64.043 63.678 63.291 62.903 62.511 62.076 61.683 61.313 60.963 60.528 60.168 59.758 59.428 59.018 58.653 58.298 57.946 57.568 57.281 56.936 56.598 56.248 55.898 55.636 55.431 55.086 54.828 54.923 54.091 56.831 55.438 53.196 52.853 52.601 52.563 52.331 52.066 51.858 51.683 51.466 51.316 51.078 50.936 50.663 50.416 50.213 49.958 49.691 49.478 49.223 48.986 48.761 48.563 48.351 48.161 47.891 47.693 47.526 47.351 47.201 47.101 46.968 46.858 46.788 46.711 46.663 46.603 46.568 46.563 46.538 46.523 46.471 46.426 46.431 46.463 46.433 46.451 46.468 46.446 46.321 46.433 46.448 46.433 46.471 46.603 46.566 46.728 46.608 46.648 46.633 46.676 46.588 46.703 46.726 46.753 46.913 46.906 46.903 47.108 47.776 48.026 47.848 47.806 47.911 48.028 48.121 48.228 48.366 48.521 48.648 48.816 48.961 49.068 49.221 49.481 49.583 49.751 49.868 50.026 50.198 50.381 50.436 50.636 50.843 50.931 51.106 51.206 51.308 51.478 51.591 51.686 51.706 51.781 51.798 51.873 51.956 52.083 52.166 52.251 52.356 52.466 52.583 52.731 52.823 52.921 53.043 53.156 53.208 53.248 53.281 53.283 53.243 53.218 53.213 53.191 53.198 53.181 53.196 53.263 53.291 53.216 53.156 53.331 54.051 54.541 54.126 53.696 53.808 53.848 53.881 53.911 54.028 54.106 54.188 54.241 54.248 54.308 54.338 54.381 54.436 54.461 54.516 54.548 54.531 54.606 54.543 54.558 54.541 54.561 54.566 54.571 54.623 54.641 54.698 54.743 54.813 54.931 55.076 55.246 55.421 55.558 55.691 55.806 55.906 56.048 56.141 56.213 56.278 56.453 56.528 56.673 57.661 57.336 57.341 57.336 57.786 56.556 56.433 56.656 56.776 56.886 57.026 57.151 57.246 57.336 57.416 57.479 57.536 57.618 57.737 57.835 57.883 57.938 58.02 58.117 58.165 58.216 58.296 58.366 58.462 58.548 58.646 58.723 58.831 58.941 59.008 59.053 59.131 59.243 59.366
76.665 77.035 77.493 77.928 78.348 78.788 79.235 79.653 80.065 80.435 80.8 81.133 81.463 81.756 82.043 82.311 82.563 82.806 83.036 83.283 83.508 83.743 83.968 84.176 84.373 84.633 84.863 85.091 85.341 85.611 85.816 86.031 86.248 86.471 86.723 86.928 87.138 87.316 87.471 87.636 87.818 87.998 88.176 88.348 88.476 88.636 88.773 88.878 88.988 89.123 89.226 89.333 89.416 89.421 89.493 89.551 89.601 89.668 89.716 89.791 89.896 90.496 90.413 90.363 89.096 89.093 91.238 91.461 89.748 89.398 89.421 89.413 89.323 89.216 89.303 89.061 88.943 88.816 88.678 88.511 88.341 88.183 88.018 87.853 87.648 87.468 87.291 87.081 86.873 86.671 86.448 86.256 86.016 85.808 85.623 85.376 85.171 84.931 84.701 84.443 84.223 83.941 83.711 83.413 83.193 82.878 82.601 82.338 82.078 81.803 81.526 81.266 80.976 80.698 80.441 80.158 79.931 79.638 79.368 79.076 78.823 78.551 78.261 78.003 77.748 77.476 77.211 76.936 76.696 76.408 76.133 75.836 75.543 75.193 74.963 74.658 74.391 74.098 73.806 73.526 73.201 72.881 72.486 72.118 71.748 71.343 70.956 70.513 70.118 69.711 69.303 68.871 68.451 68.043 67.606 67.233 66.868 66.446 66.066 65.731 65.391 65.066 64.718 64.363 64.056 63.698 63.333 62.978 62.598 62.148 61.761 61.421 60.991 60.578 60.203 59.828 59.436 59.041 58.663 58.263 57.881 57.523 57.188 56.833 56.523 56.181 55.836 55.538 55.308 55.011 54.653 54.808 55.993 55.151 56.003 54.391 52.978 52.516 52.303 52.113 51.913 51.753 51.546 51.338 51.111 50.943 50.763 50.538 50.328 50.101 49.816 49.571 49.306 49.021 48.838 48.606 48.453 48.191 47.963 47.716 47.421 47.161 46.993 46.868 46.728 46.631 46.558 46.571 46.506 46.451 46.456 46.456 46.421 46.388 46.411 46.413 46.411 46.386 46.358 46.351 46.336 46.358 46.323 46.328 46.288 46.328 46.418 46.356 46.403 46.503 46.523 46.391 46.341 46.321 46.378 46.513 46.643 46.706 46.868 46.868 47.006 47.283 47.353 47.531 47.401 47.611 47.778 47.841 47.943 48.008 48.136 48.251 48.391 48.583 48.711 48.801 48.948 49.231 49.456 49.758 49.881 50.118 50.268 50.353 50.516 50.746 50.978 51.248 51.401 51.561 51.866 52.041 52.188 52.341 52.488 52.576 52.678 52.718 52.736 52.788 52.808 52.903 52.938 53.073 53.148 53.256 53.326 53.436 53.563 53.678 53.798 53.861 53.946 53.983 54.038 54.066 54.088 54.043 54.053 54.036 54.013 54.028 54.058 54.103 54.086 54.121 54.161 54.308 54.251 54.851 55.093 54.328 54.446 54.546 54.593 54.613 54.611 54.748 54.778 54.833 54.808 54.863 54.896 54.898 54.943 55.021 55.083 55.083 55.098 55.113 55.081 55.046 55.048 55.073 55.081 55.068 55.046 55.023 55.048 55.103 55.163 55.236 55.376 55.523 55.668 55.853 56.021 56.093 56.203 56.328 56.458 56.541 56.561 56.633 56.688 56.706 56.818 58.256 57.546 57.436 57.428 58.031 57.116 56.726 56.938 57.041 57.143 57.238 57.378 57.433 57.516 57.575 57.673 57.734 57.804 57.888 57.965 58.049 58.108 58.146 58.266 58.36 58.442 58.537 58.637 58.706 58.793 58.878 58.951 59.031 59.096 59.183 59.251 59.303 59.426 59.563
76.325 76.723 77.16 77.58 78.035 78.49 78.933 79.36 79.728 80.093 80.45 80.785 81.1 81.411 81.706 81.943 82.216 82.443 82.688 82.926 83.158 83.406 83.608 83.826 84.061 84.301 84.578 84.856 85.076 85.303 85.543 85.776 86.023 86.238 86.466 86.661 86.863 87.033 87.198 87.348 87.543 87.713 87.876 88.061 88.193 88.323 88.456 88.586 88.703 88.801 88.943 89.083 89.146 89.198 89.251 89.311 89.358 89.408 89.518 89.641 89.713 89.873 89.668 88.866 88.931 90.888 91.243 89.278 89.196 89.228 89.193 89.131 89.028 88.921 88.838 88.721 88.621 88.513 88.398 88.208 88.018 87.848 87.658 87.483 87.283 87.083 86.898 86.693 86.458 86.273 86.046 85.803 85.566 85.341 85.096 84.836 84.638 84.401 84.131 83.868 83.633 83.371 83.083 82.801 82.556 82.271 81.988 81.721 81.441 81.173 80.906 80.641 80.351 80.076 79.811 79.501 79.283 79.053 78.748 78.501 78.228 77.951 77.691 77.438 77.168 76.913 76.681 76.401 76.106 75.836 75.586 75.241 74.953 74.636 74.376 74.108 73.858 73.566 73.196 72.893 72.548 72.196 71.823 71.438 71.038 70.643 70.236 69.851 69.413 69.021 68.588 68.193 67.761 67.348 66.941 66.566 66.166 65.766 65.423 65.068 64.693 64.383 64.043 63.706 63.358 62.996 62.663 62.313 61.911 61.481 61.078 60.678 60.316 59.913 59.476 59.096 58.706 58.316 57.921 57.503 57.148 56.773 56.441 56.151 55.843 55.456 55.103 54.928 54.598 54.303 53.428 54.756 53.091 53.638 52.913 52.831 52.251 52.023 51.776 51.581 51.433 51.221 51.028 50.811 50.628 50.388 50.173 49.968 49.686 49.483 49.188 48.881 48.623 48.488 48.306 48.088 47.856 47.561 47.268 47.046 46.803 46.713 46.618 46.476 46.363 46.343 46.258 46.268 46.231 46.221 46.188 46.211 46.263 46.301 46.316 46.266 46.258 46.268 46.258 46.318 46.313 46.276 46.281 46.086 46.263 46.263 46.156 46.151 46.328 46.236 46.248 46.291 46.543 46.638 46.646 46.876 46.908 47.036 47.251 47.328 47.473 47.621 47.698 47.778 47.696 47.751 47.891 48.001 48.103 48.213 48.301 48.506 48.608 48.773 48.936 49.113 49.351 49.728 49.973 50.228 50.361 50.586 50.853 51.141 51.406 51.713 52.046 52.223 52.411 52.601 52.868 52.961 53.166 53.301 53.363 53.431 53.496 53.533 53.576 53.628 53.658 53.718 53.816 53.896 53.993 54.061 54.171 54.296 54.396 54.506 54.556 54.608 54.693 54.738 54.786 54.813 54.813 54.836 54.821 54.823 54.848 54.853 54.906 54.958 55.011 55.081 55.191 55.051 55.051 56.238 56.268 55.213 55.236 55.298 55.413 55.391 55.383 55.481 55.496 55.503 55.521 55.528 55.563 55.596 55.626 55.691 55.728 55.713 55.743 55.698 55.703 55.671 55.671 55.686 55.626 55.613 55.588 55.546 55.563 55.583 55.668 55.756 55.843 55.998 56.171 56.311 56.463 56.538 56.681 56.773 56.853 56.871 56.911 56.968 56.976 56.968 56.993 57.451 57.706 57.543 57.563 58.121 58.581 57.053 57.246 57.343 57.386 57.443 57.508 57.561 57.673 57.732 57.813 57.899 57.989 58.067 58.155 58.244 58.325 58.442 58.561 58.639 58.72 58.812 58.895 58.971 59.031 59.116 59.188 59.253 59.313 59.373 59.441 59.538 59.623 59.801
76.045 76.41 76.813 77.24 77.7 78.15 78.623 78.973 79.368 79.745 80.095 80.45 80.755 81.066 81.348 81.606 81.848 82.093 82.328 82.568 82.806 83.033 83.283 83.491 83.721 83.991 84.278 84.553 84.813 85.041 85.288 85.531 85.753 85.958 86.186 86.358 86.553 86.731 86.921 87.096 87.261 87.413 87.586 87.741 87.866 88.013 88.146 88.283 88.396 88.528 88.648 88.776 88.881 88.963 89.001 89.063 89.113 89.216 89.346 89.458 89.588 89.351 88.611 88.708 90.511 91.183 89.866 88.976 88.973 88.966 88.916 88.813 88.741 88.596 88.493 88.416 88.288 88.198 88.051 87.881 87.696 87.488 87.336 87.133 86.903 86.708 86.501 86.286 86.063 85.821 85.603 85.353 85.118 84.846 84.613 84.383 84.143 83.846 83.596 83.333 83.036 82.768 82.463 82.201 81.921 81.638 81.353 81.096 80.803 80.553 80.283 80.016 79.733 79.476 79.213 78.926 78.656 78.418 78.176 77.896 77.623 77.413 77.126 76.873 76.601 76.358 76.091 75.831 75.511 75.271 74.938 74.666 74.343 74.066 73.826 73.561 73.226 72.948 72.588 72.236 71.906 71.523 71.121 70.721 70.368 69.971 69.538 69.146 68.728 68.318 67.913 67.493 67.096 66.673 66.311 65.901 65.538 65.113 64.738 64.426 64.058 63.713 63.353 63.051 62.686 62.313 61.941 61.616 61.211 60.793 60.376 59.973 59.583 59.146 58.756 58.353 57.961 57.581 57.191 56.783 56.421 56.108 55.781 55.468 55.113 54.858 54.563 54.263 54.341 52.946 52.603 53.383 53.178 52.938 52.328 51.986 51.766 51.506 51.336 51.078 50.933 50.711 50.516 50.268 50.041 49.811 49.596 49.343 49.076 48.823 48.588 48.321 48.108 47.953 47.723 47.461 47.178 46.948 46.811 46.663 46.473 46.348 46.278 46.168 46.098 46.076 46.091 46.011 45.961 45.943 45.943 46.018 46.083 46.046 45.968 45.996 45.981 46.058 46.113 46.191 46.168 46.091 45.861 45.951 45.933 45.888 46.071 45.958 46.706 46.238 46.378 46.626 46.758 46.768 46.936 47.026 47.076 47.133 47.303 47.481 47.741 47.818 47.901 47.966 47.971 48.026 48.036 48.141 48.253 48.373 48.516 48.661 48.828 49.123 49.341 49.571 49.856 50.183 50.446 50.883 51.193 51.473 51.766 52.076 52.331 52.623 52.881 53.096 53.338 53.601 53.773 53.868 54.011 54.138 54.233 54.351 54.413 54.436 54.478 54.551 54.586 54.663 54.738 54.833 54.883 54.983 55.103 55.156 55.243 55.293 55.321 55.386 55.433 55.478 55.523 55.556 55.593 55.596 55.641 55.691 55.711 55.733 55.871 55.898 55.901 55.828 55.928 55.931 55.911 56.981 56.311 56.033 56.028 56.093 56.241 56.191 56.221 56.243 56.231 56.241 56.246 56.228 56.291 56.323 56.348 56.371 56.383 56.393 56.388 56.366 56.341 56.323 56.311 56.261 56.221 56.183 56.178 56.113 56.113 56.143 56.193 56.268 56.373 56.503 56.666 56.776 56.888 56.973 57.131 57.213 57.238 57.248 57.291 57.278 57.221 57.221 57.248 57.691 58.251 57.713 57.726 58.003 58.231 57.373 57.406 57.508 57.543 57.581 57.646 57.756 57.866 57.962 58.041 58.168 58.232 58.36 58.467 58.585 58.688 58.758 58.843 58.922 59.004 59.091 59.164 59.25 59.323 59.381 59.438 59.473 59.526 59.506 59.533 59.656 59.818 60.073
75.703 76.073 76.455 76.888 77.378 77.81 78.218 78.63 78.995 79.383 79.743 80.088 80.41 80.716 80.966 81.223 81.483 81.741 81.958 82.193 82.428 82.643 82.903 83.146 83.391 83.661 83.956 84.263 84.516 84.786 85.021 85.251 85.458 85.648 85.856 86.041 86.263 86.448 86.653 86.821 86.961 87.128 87.291 87.443 87.606 87.718 87.838 87.966 88.081 88.218 88.343 88.478 88.598 88.673 88.756 88.838 88.938 89.043 89.173 89.306 88.716 88.313 88.448 90.281 90.421 88.686 88.696 88.766 88.738 88.686 88.611 88.521 88.423 88.286 88.231 88.126 88.013 87.861 87.731 87.533 87.348 87.171 86.946 86.751 86.588 86.358 86.106 85.898 85.678 85.456 85.181 84.898 84.663 84.418 84.153 83.873 83.611 83.348 83.073 82.756 82.468 82.208 81.906 81.603 81.333 81.051 80.753 80.463 80.188 79.938 79.696 79.413 79.166 78.858 78.608 78.331 78.036 77.806 77.576 77.306 77.078 76.828 76.553 76.328 76.033 75.763 75.478 75.221 74.876 74.586 74.283 74.031 73.776 73.516 73.238 72.941 72.611 72.263 71.953 71.563 71.201 70.813 70.466 70.076 69.648 69.236 68.836 68.411 68.038 67.613 67.233 66.821 66.403 66.026 65.598 65.231 64.808 64.458 64.123 63.808 63.428 63.056 62.718 62.356 62.016 61.641 61.278 60.911 60.528 60.121 59.706 59.253 58.898 58.496 58.061 57.671 57.286 56.843 56.458 56.113 55.813 55.448 55.143 54.793 54.456 54.226 53.933 54.801 54.511 52.278 52.111 52.273 52.596 53.046 53.216 51.618 51.311 51.083 50.841 50.583 50.398 50.236 49.961 49.721 49.536 49.283 49.011 48.748 48.501 48.248 48.038 47.818 47.626 47.321 47.108 46.931 46.803 46.638 46.503 46.283 46.178 46.028 45.953 45.911 45.806 45.733 45.686 45.621 45.586 45.586 45.481 45.558 45.681 45.736 45.791 45.786 45.721 45.693 45.711 45.726 45.761 45.818 45.871 45.858 45.741 45.893 46.466 46.678 46.536 46.611 46.643 46.826 46.923 47.013 47.036 47.198 47.328 47.358 47.511 47.668 47.841 47.961 47.973 48.048 48.076 48.133 48.223 48.353 48.453 48.541 48.673 48.973 49.346 49.643 49.781 50.086 50.313 50.813 51.286 51.683 52.021 52.343 52.693 52.926 53.203 53.536 53.748 53.966 54.241 54.488 54.621 54.728 54.888 55.046 55.156 55.278 55.323 55.378 55.398 55.426 55.523 55.558 55.596 55.666 55.713 55.768 55.856 55.933 55.971 56.021 56.088 56.133 56.186 56.236 56.393 56.373 56.396 56.471 56.533 56.553 56.583 56.581 56.636 56.668 56.706 56.828 56.893 56.888 57.221 58.406 58.601 56.853 56.798 56.848 56.986 56.951 56.958 57.001 56.976 56.961 56.953 56.958 56.998 57.038 57.041 57.056 57.083 57.058 57.088 57.068 57.008 56.966 56.973 56.926 56.846 56.803 56.763 56.736 56.738 56.748 56.763 56.863 56.961 57.061 57.158 57.251 57.351 57.433 57.533 57.551 57.573 57.578 57.588 57.568 57.523 57.456 57.516 58.678 58.621 57.901 57.913 57.788 57.626 57.541 57.503 57.623 57.743 57.846 57.978 58.108 58.218 58.296 58.398 58.493 58.587 58.67 58.832 58.949 59.011 59.089 59.175 59.228 59.306 59.392 59.479 59.529 59.593 59.653 59.736 59.766 59.756 59.723 59.788 59.843 59.978 60.276
75.35 75.738 76.138 76.588 77.008 77.458 77.878 78.303 78.683 79.035 79.378 79.71 80.03 80.323 80.583 80.853 81.113 81.326 81.588 81.823 82.033 82.281 82.558 82.788 83.063 83.373 83.683 83.971 84.236 84.488 84.716 84.938 85.161 85.351 85.561 85.776 85.973 86.163 86.348 86.526 86.691 86.826 86.986 87.126 87.268 87.411 87.561 87.681 87.798 87.938 88.061 88.193 88.338 88.428 88.513 88.606 88.721 88.821 89.258 88.166 87.998 88.341 90.016 90.066 88.533 88.486 88.491 88.496 88.453 88.388 88.308 88.181 88.096 87.971 87.916 87.816 87.673 87.546 87.386 87.211 87.048 86.851 86.623 86.406 86.208 85.996 85.776 85.538 85.288 85.016 84.791 84.503 84.231 83.966 83.668 83.398 83.083 82.843 82.551 82.258 81.933 81.616 81.326 81.046 80.761 80.441 80.141 79.891 79.613 79.331 79.066 78.828 78.578 78.296 78.001 77.768 77.503 77.263 76.993 76.753 76.503 76.251 75.983 75.733 75.416 75.161 74.856 74.548 74.221 73.943 73.661 73.413 73.181 72.876 72.603 72.293 71.946 71.641 71.251 70.926 70.531 70.148 69.778 69.363 69.028 68.571 68.168 67.738 67.348 66.956 66.553 66.138 65.753 65.368 64.956 64.586 64.211 63.828 63.476 63.128 62.773 62.418 62.076 61.721 61.381 61.013 60.618 60.276 59.843 59.446 59.026 58.643 58.216 57.781 57.373 56.978 56.541 56.161 55.853 55.448 55.153 54.806 54.463 54.216 53.958 53.783 55.186 54.903 55.086 51.958 51.871 51.671 51.708 52.521 52.053 51.878 50.881 50.653 50.418 50.131 49.873 49.638 49.423 49.241 48.978 48.766 48.503 48.218 48.001 47.763 47.536 47.213 47.011 46.856 46.688 46.571 46.456 46.383 46.201 46.148 45.883 45.633 45.571 45.598 45.531 45.553 45.408 45.413 45.313 45.346 45.363 45.413 45.421 45.483 45.406 45.313 45.533 45.566 45.498 45.506 45.538 45.591 45.658 45.951 46.108 46.253 46.293 46.343 46.413 46.516 46.658 46.838 46.911 46.958 47.098 47.268 47.441 47.556 47.681 47.823 47.921 47.996 48.036 48.118 48.213 48.276 48.406 48.513 48.621 48.771 49.028 49.428 49.701 50.006 50.226 50.636 51.098 51.661 52.103 52.526 52.871 53.261 53.523 53.776 54.066 54.378 54.591 54.851 55.093 55.303 55.481 55.603 55.776 55.948 56.066 56.198 56.241 56.251 56.296 56.328 56.383 56.426 56.418 56.463 56.508 56.538 56.586 56.608 56.651 56.681 56.726 56.756 56.821 56.861 56.888 56.936 56.973 57.033 57.093 57.156 57.191 57.216 57.286 57.371 57.431 57.506 57.541 57.531 57.833 59.498 59.253 59.096 57.518 57.563 57.656 57.616 57.561 57.573 57.571 57.586 57.578 57.553 57.583 57.581 57.611 57.606 57.611 57.591 57.583 57.633 57.576 57.531 57.541 57.496 57.476 57.456 57.426 57.411 57.386 57.376 57.411 57.466 57.508 57.553 57.636 57.678 57.706 57.776 57.796 57.873 57.901 57.886 57.816 57.751 57.788 57.756 57.786 58.926 58.193 58.143 58.108 57.961 57.811 57.736 57.746 57.901 58.138 58.298 58.423 58.523 58.588 58.656 58.763 58.872 58.963 59.038 59.133 59.321 59.39 59.453 59.495 59.578 59.636 59.732 59.791 59.866 59.916 60.333 60.413 60.901 61.708 61.391 63.098 63.276 60.713 60.598
74.998 75.388 75.823 76.22 76.615 77.09 77.5 77.91 78.29 78.653 79.01 79.35 79.655 79.941 80.231 80.463 80.723 80.953 81.186 81.421 81.678 81.943 82.166 82.488 82.768 83.101 83.383 83.661 83.903 84.163 84.388 84.606 84.831 85.063 85.276 85.491 85.686 85.873 86.066 86.236 86.401 86.538 86.683 86.828 86.968 87.091 87.236 87.356 87.493 87.633 87.771 87.893 88.066 88.223 88.323 88.413 88.513 88.748 87.666 87.566 88.106 89.731 88.626 88.751 88.188 88.216 88.246 88.223 88.163 88.068 87.941 87.871 87.723 87.656 87.591 87.473 87.368 87.208 87.068 86.913 86.711 86.526 86.321 86.111 85.858 85.633 85.398 85.181 84.888 84.636 84.343 84.086 83.788 83.483 83.198 82.933 82.648 82.318 82.046 81.716 81.406 81.103 80.786 80.483 80.181 79.881 79.608 79.318 79.048 78.756 78.508 78.251 78.016 77.741 77.433 77.208 76.928 76.688 76.421 76.193 75.938 75.678 75.398 75.111 74.813 74.518 74.191 73.913 73.613 73.333 73.048 72.791 72.578 72.261 71.953 71.626 71.266 70.946 70.616 70.256 69.873 69.471 69.108 68.696 68.291 67.868 67.436 67.063 66.646 66.263 65.868 65.466 65.086 64.688 64.298 63.983 63.566 63.213 62.846 62.498 62.136 61.783 61.446 61.106 60.733 60.353 59.966 59.601 59.221 58.816 58.396 57.936 57.526 57.146 56.678 56.288 55.871 55.493 55.151 54.861 54.551 54.171 53.983 53.778 53.738 54.318 55.313 54.236 54.193 51.653 51.388 51.166 51.093 51.791 51.886 51.871 50.473 50.141 49.873 49.633 49.426 49.151 48.856 48.676 48.453 48.193 47.951 47.761 47.493 47.228 46.941 46.806 46.688 46.526 46.366 46.301 46.231 46.006 45.898 45.746 45.598 45.381 45.343 45.448 45.351 45.333 45.286 45.278 45.273 45.288 45.216 45.296 45.346 45.366 45.336 45.403 45.503 45.591 45.653 45.791 45.873 45.921 46.001 46.058 46.148 46.266 46.353 46.416 46.498 46.658 46.821 46.993 47.111 47.218 47.248 47.243 47.391 47.621 47.793 47.898 47.996 48.051 48.166 48.243 48.411 48.528 48.583 48.703 48.986 49.321 49.553 49.913 50.141 50.556 50.916 51.503 51.873 52.438 52.908 53.391 53.663 54.011 54.356 54.603 54.931 55.226 55.413 55.716 56.016 56.183 56.271 56.363 56.511 56.618 56.741 56.818 56.898 56.943 56.991 56.998 57.033 57.098 57.146 57.203 57.223 57.276 57.316 57.386 57.428 57.481 57.498 57.528 57.553 57.598 57.653 57.728 57.746 57.836 57.856 57.933 57.993 58.038 58.118 58.141 58.181 58.243 58.308 58.353 59.163 60.006 60.561 60.166 58.543 58.311 58.378 58.353 58.313 58.343 58.338 58.328 58.293 58.311 58.333 58.253 58.208 58.251 58.278 58.303 58.341 58.336 58.281 58.273 58.226 58.178 58.168 58.121 58.056 57.988 57.953 57.911 57.928 57.998 58.041 58.073 58.083 58.118 58.208 58.308 58.378 58.408 58.391 58.323 58.271 58.211 58.093 58.056 58.551 59.798 58.391 58.378 58.323 58.871 58.313 58.091 58.241 58.421 58.618 58.736 58.813 58.891 59.003 59.036 59.136 59.256 59.352 59.465 59.418 59.548 59.582 59.768 59.902 60.548 60.906 61.097 62.336 61.787 62.096 62.243 62.393 62.063 62.606 62.976 63.283 63.813 62.623 60.951
74.66 75.02 75.425 75.85 76.26 76.698 77.125 77.543 77.908 78.25 78.625 78.958 79.258 79.526 79.833 80.083 80.313 80.548 80.808 81.078 81.343 81.613 81.868 82.181 82.471 82.771 83.058 83.333 83.603 83.841 84.078 84.308 84.541 84.746 84.988 85.176 85.388 85.558 85.748 85.913 86.136 86.226 86.393 86.531 86.676 86.801 86.923 87.073 87.216 87.331 87.456 87.578 87.736 87.876 88.006 88.136 88.273 87.208 87.328 88.531 89.418 87.911 87.753 87.823 87.873 87.883 87.916 87.883 87.798 87.731 87.626 87.501 87.388 87.366 87.271 87.141 87.003 86.838 86.693 86.531 86.398 86.201 85.981 85.761 85.536 85.291 85.053 84.778 84.518 84.243 83.933 83.651 83.348 83.053 82.761 82.448 82.116 81.816 81.518 81.201 80.881 80.578 80.278 79.971 79.641 79.358 79.061 78.773 78.496 78.236 77.973 77.681 77.453 77.168 76.891 76.626 76.373 76.118 75.863 75.618 75.363 75.071 74.796 74.491 74.143 73.836 73.546 73.276 73.016 72.756 72.506 72.191 71.898 71.648 71.271 70.963 70.596 70.261 69.926 69.513 69.181 68.808 68.438 68.023 67.628 67.226 66.763 66.376 65.996 65.603 65.198 64.821 64.416 64.041 63.661 63.333 62.971 62.596 62.238 61.888 61.548 61.216 60.826 60.518 60.128 59.783 59.423 58.978 58.621 58.191 57.771 57.386 56.908 56.451 56.033 55.673 55.226 54.878 54.576 54.298 53.978 53.723 53.456 53.488 53.733 53.881 51.763 51.678 51.511 51.191 50.951 50.753 50.551 50.553 51.293 51.308 51.203 49.671 49.363 49.118 48.853 48.646 48.386 48.158 47.943 47.673 47.403 47.123 46.913 46.783 46.698 46.521 46.371 46.306 46.148 45.998 45.888 45.733 45.656 45.471 45.301 45.261 45.148 45.146 45.238 45.053 45.071 45.158 45.183 45.163 45.001 45.061 45.126 45.221 45.126 45.456 45.593 45.606 45.676 45.758 45.841 45.918 45.996 46.088 46.133 46.226 46.341 46.456 46.568 46.696 46.868 47.031 47.121 47.256 47.381 47.491 47.563 47.626 47.783 47.946 48.086 48.171 48.331 48.436 48.586 48.761 48.988 49.221 49.478 49.846 50.086 50.466 50.951 51.506 51.796 52.336 52.721 53.261 53.696 54.211 54.503 54.906 55.211 55.461 55.843 56.056 56.216 56.428 56.673 56.898 57.086 57.243 57.356 57.463 57.526 57.581 57.681 57.676 57.731 57.801 57.803 57.816 57.848 57.883 57.923 57.976 58.011 58.043 58.088 58.141 58.163 58.213 58.266 58.333 58.426 58.456 58.476 58.526 58.606 58.658 58.721 58.781 58.833 58.863 58.901 58.981 58.991 59.028 59.508 59.861 60.668 60.671 59.321 59.053 59.023 59.063 59.026 59.083 59.053 59.003 58.943 58.921 58.896 58.938 58.933 58.936 58.951 58.986 58.968 58.978 58.936 58.916 58.891 58.901 58.848 58.808 58.743 58.706 58.636 58.621 58.638 58.608 58.633 58.576 58.623 58.671 58.751 58.796 58.836 58.818 58.806 58.771 58.746 58.498 58.393 59.236 59.878 58.793 58.668 58.618 59.346 59.543 58.796 58.771 58.933 59.023 59.053 59.151 59.241 59.331 59.456 59.556 59.629 59.721 59.893 60.047 60.23 59.791 60.994 62.085 62.287 61.896 62.01 62.089 62.163 61.767 61.662 61.646 61.601 61.608 61.583 61.528 61.771 63.353 63.208 61.583
74.285 74.675 75.09 75.455 75.92 76.35 76.77 77.143 77.58 77.915 78.225 78.565 78.853 79.146 79.418 79.668 79.913 80.158 80.421 80.691 80.983 81.263 81.558 81.866 82.183 82.463 82.728 82.998 83.261 83.521 83.763 84.016 84.226 84.451 84.656 84.848 85.196 85.231 85.426 85.598 85.791 85.911 86.076 86.243 86.378 86.501 86.638 86.776 86.918 87.036 87.146 87.298 87.421 87.561 87.778 87.256 86.746 86.866 88.178 89.051 87.438 87.511 87.533 87.573 87.608 87.601 87.568 87.518 87.488 87.378 87.256 87.133 87.021 87.001 86.911 86.806 86.651 86.506 86.351 86.183 86.011 85.781 85.606 85.358 85.113 84.886 84.623 84.346 84.106 83.811 83.526 83.213 82.911 82.593 82.291 81.956 81.648 81.328 80.998 80.681 80.383 80.051 79.748 79.453 79.126 78.828 78.531 78.271 77.988 77.718 77.448 77.148 76.876 76.633 76.371 76.116 75.868 75.583 75.291 75.026 74.743 74.471 74.153 73.808 73.481 73.178 72.953 72.688 72.463 72.148 71.893 71.551 71.258 70.946 70.608 70.266 69.931 69.571 69.248 68.913 68.523 68.146 67.761 67.388 66.963 66.558 66.123 65.743 65.341 65.018 64.571 64.183 63.793 63.436 63.088 62.736 62.373 61.986 61.656 61.306 60.936 60.593 60.238 59.883 59.551 59.193 58.796 58.398 58.028 57.613 57.168 56.751 56.298 55.841 55.421 55.013 54.621 54.326 54.046 53.888 53.443 53.238 53.303 53.541 51.853 51.701 51.436 51.291 50.968 50.713 50.538 50.308 50.066 49.918 49.908 50.966 51.793 50.156 48.866 48.621 48.381 48.123 47.843 47.656 47.326 47.078 46.878 46.836 46.656 46.533 46.413 46.293 46.183 46.033 45.853 45.686 45.516 45.438 45.316 45.036 44.828 44.938 44.916 44.921 44.776 44.811 44.856 44.828 44.891 45.031 45.156 45.173 45.261 45.346 45.441 45.463 45.546 45.571 45.643 45.748 45.823 45.931 45.986 46.048 46.133 46.213 46.386 46.523 46.663 46.781 46.918 47.051 47.188 47.306 47.463 47.616 47.721 47.813 47.936 47.973 48.161 48.341 48.456 48.693 48.986 49.168 49.408 49.668 50.026 50.301 50.776 51.351 51.791 52.321 52.716 53.141 53.548 54.113 54.523 55.033 55.331 55.741 56.038 56.203 56.473 56.808 57.041 57.273 57.486 57.661 57.846 57.958 58.063 58.158 58.221 58.301 58.313 58.353 58.383 58.408 58.446 58.483 58.523 58.568 58.618 58.656 58.716 58.768 58.783 58.813 58.851 58.938 59.016 59.071 59.151 59.178 59.171 59.226 59.293 59.368 59.453 59.538 59.596 59.623 59.676 59.683 59.721 59.803 60.241 59.966 60.383 60.653 59.708 59.738 59.728 59.718 59.633 59.651 59.683 59.611 59.611 59.576 59.568 59.538 59.558 59.591 59.576 59.613 59.611 59.583 59.566 59.581 59.548 59.568 59.483 59.421 59.373 59.298 59.268 59.223 59.198 59.181 59.131 59.186 59.241 59.243 59.251 59.233 59.243 59.268 59.263 59.258 58.998 58.831 60.513 60.056 59.521 58.963 58.883 59.923 60.628 60.051 59.506 59.488 59.521 59.571 59.573 59.581 59.653 59.721 59.838 60.736 61.329 61.716 61.621 62.058 61.921 60.309 60.53 61.565 61.374 61.203 61.122 61.097 61.119 61.199 61.287 61.401 61.523 61.668 61.751 61.726 61.791 63.091 64.386 62.583
