ncols 418
nrows 31
xllcorner    249078
yllcorner    138096
cellsize     2
NODATA_value -9999
30.03 30.035 30.03 30.018 32.418 34.163 30.735 32.01 31.488 30.113 30.088 30.073 30.1 30.11 30.085 30.09 30.08 30.09 30.108 30.1 30.158 30.168 30.148 30.105 30.118 30.055 30.048 30.023 30.025 30.04 30.033 30.01 30.02 29.983 29.91 29.928 29.868 29.89 29.818 29.748 29.66 29.67 29.663 29.67 29.778 29.935 29.993 30.018 30.073 30.118 30.038 30.008 30.038 30.07 30.09 30.08 30.1 30.148 30.095 30.053 30.103 30.198 30.13 30.088 30.215 30.11 30.133 30.18 30.46 31.223 32.928 33.63 34.32 34.648 35.178 35.38 35.628 35.913 35.598 35.47 35.535 35.72 35.885 36.03 36.255 36.33 36.395 38.52 38.948 38.41 38.678 38.963 39.208 39.45 39.7 40 40.308 40.608 40.903 41.208 41.533 41.75 42.12 42.445 42.773 43.098 43.45 43.768 44.1 44.44 44.758 45.098 45.438 45.8 46.175 46.48 46.845 47.195 47.553 47.923 48.3 48.69 49.085 49.465 49.855 50.24 50.598 50.993 51.383 51.75 52.148 52.498 52.878 53.235 53.628 54.01 54.383 54.748 55.128 55.465 56.03 56.27 56.65 56.868 59.588 64.145 60.938 61.04 61.375 61.633 62.108 62.635 63.153 63.708 64.283 64.808 65.333 65.848 66.365 66.923 67.415 67.96 68.425 68.893 69.39 69.868 70.31 70.823 71.29 71.763 72.25 72.718 73.17 73.625 74.02 74.553 75.01 75.445 75.853 76.353 76.798 77.2 77.615 78.033 78.478 78.83 79.285 79.715 80.138 80.578 81.035 81.478 81.9 82.335 82.765 83.193 83.613 84.025 84.425 84.825 85.19 85.56 85.908 86.268 86.61 86.945 87.255 87.573 87.888 88.22 88.535 88.853 89.171 89.496 89.746 90.063 90.448 90.761 91.083 91.398 91.666 91.938 92.216 92.541 92.768 93.041 93.291 93.546 93.753 93.961 94.171 94.353 94.546 94.718 94.943 95.043 95.418 96.521 96.203 96.363 96.663 96.986 97.278 97.716 97.968 98.223 98.528 98.883 99.141 99.473 99.803 100.073 100.373 100.628 100.921 101.203 101.503 101.763 102.033 102.311 102.591 102.871 103.166 103.426 103.673 103.921 104.148 104.376 104.578 104.788 104.988 105.198 105.423 105.626 105.828 106.021 106.228 106.431 106.661 106.841 107.028 107.211 107.393 107.596 107.751 107.968 108.141 108.343 108.523 108.683 108.886 109.081 109.268 109.413 109.588 109.741 109.913 110.068 110.226 110.368 110.531 110.636 110.806 110.936 111.066 111.193 111.331 111.461 111.593 111.696 111.811 111.951 112.066 112.188 112.286 112.416 112.511 112.626 112.726 112.836 112.946 113.046 113.141 113.238 113.343 113.433 113.526 113.651 113.743 113.833 113.941 114.041 114.128 114.268 114.346 114.457 114.558 114.653 114.766 114.862 114.97 115.05 115.141 115.231 115.285 115.383 115.426 115.506 115.548 115.596 115.651 115.748 115.851 116.258 117.261 116.813 116.088 116.261 116.423 116.516 116.558 116.623 116.623 116.616 116.631 116.658 116.671 116.706 116.761 116.806 116.873 116.921 116.986 117.003 117.081 117.153 117.186 117.236 117.313 117.361 117.403 117.456 117.506 117.561 117.606 117.638 117.681 117.726 117.751 117.761 117.801 117.833 117.886 117.933 117.981 118.023 118.058 118.106 118.151 118.183 118.198 118.226 118.226 118.241 118.268 118.293 118.296 118.296 118.318 118.331 118.338 118.298 118.308 118.328 118.328 118.341 118.348 118.378
30.01 30.013 30.015 30.015 32.25 34.888 30.29 32.005 30.093 30.085 30.053 30.073 30.05 30.06 30.058 30.045 30.055 30.05 30.05 30.088 30.083 30.125 30.135 30.093 30.065 30.063 30.015 30.013 30.018 30.025 29.998 29.965 29.98 29.928 29.908 29.93 29.823 29.853 29.873 29.785 29.685 29.653 29.64 29.658 29.74 29.875 29.928 30 29.978 30.023 30 29.973 29.993 30.065 30.075 30.073 30.108 30.11 30.105 30.07 30.083 30.108 30.175 30.103 30.073 30.103 30.13 30.165 30.568 31.605 32.933 33.158 34.45 35.013 35.08 35.52 35.718 35.573 35.485 35.348 35.54 35.728 35.885 36.013 36.24 36.335 36.403 37.955 38.18 38.468 38.74 39.008 39.255 39.503 39.798 40.095 40.393 40.7 41.003 41.315 41.628 41.915 42.21 42.548 42.86 43.203 43.668 43.87 44.198 44.535 44.903 45.238 45.543 45.9 46.283 46.59 46.95 47.318 47.668 48.025 48.418 48.785 49.17 49.55 49.93 50.34 50.735 51.1 51.48 51.853 52.235 52.615 52.975 53.328 53.713 54.085 54.45 55.44 55.188 55.545 56.018 56.34 56.623 58.875 60.118 59.11 60.11 60.998 61.355 61.62 62.113 62.638 63.193 63.708 64.245 64.765 65.315 65.848 66.388 66.905 67.415 67.91 68.463 68.93 69.418 69.878 70.335 70.795 71.343 71.743 72.238 72.675 73.168 73.588 74.135 74.508 74.96 75.47 75.88 76.343 76.818 77.265 77.67 78.078 78.49 78.93 79.353 79.76 80.18 80.63 81.08 81.508 81.958 82.375 82.798 83.223 83.633 84.035 84.453 84.84 85.233 85.598 85.97 86.325 86.66 87.01 87.358 87.67 87.998 88.323 88.668 88.956 89.278 89.531 89.783 90.101 90.458 90.798 91.116 91.398 91.696 91.966 92.281 92.561 92.868 93.101 93.383 93.621 93.773 94.006 94.213 94.376 94.611 94.828 94.943 95.988 96.911 97.268 96.231 96.456 96.776 97.101 97.506 97.781 98.021 98.331 98.641 98.908 99.241 99.593 99.923 100.168 100.433 100.751 101.068 101.356 101.628 101.886 102.188 102.433 102.706 103.006 103.273 103.513 103.758 104.013 104.263 104.476 104.666 104.868 105.068 105.293 105.488 105.723 105.911 106.101 106.308 106.546 106.743 106.938 107.131 107.298 107.513 107.698 107.913 108.058 108.236 108.438 108.626 108.791 108.998 109.186 109.333 109.518 109.698 109.868 109.998 110.148 110.316 110.481 110.591 110.741 110.873 111.028 111.158 111.303 111.426 111.541 111.656 111.773 111.913 112.016 112.146 112.251 112.361 112.483 112.598 112.691 112.793 112.908 112.993 113.108 113.206 113.318 113.421 113.508 113.608 113.693 113.788 113.858 113.966 114.058 114.168 114.258 114.373 114.478 114.56 114.656 114.754 114.857 114.941 115.045 115.124 115.201 115.27 115.355 115.384 115.457 115.544 115.557 115.641 115.748 116.083 116.696 117.061 116.118 116.121 116.291 116.423 116.488 116.551 116.563 116.573 116.601 116.603 116.636 116.693 116.691 116.726 116.786 116.823 116.891 116.931 116.978 117.023 117.091 117.148 117.181 117.266 117.301 117.361 117.403 117.471 117.501 117.548 117.593 117.631 117.661 117.701 117.741 117.761 117.781 117.816 117.856 117.911 117.958 117.988 118.031 118.083 118.123 118.151 118.176 118.186 118.191 118.198 118.236 118.256 118.263 118.271 118.268 118.231 118.261 118.276 118.268 118.301 118.298 118.301 118.303
30.02 30.01 29.993 29.94 37.005 35.003 37.285 30.083 30.068 30.048 30.015 30.048 30.03 30.028 30.045 30.05 30.003 30.015 30.045 30.045 30.083 30.083 30.09 30.07 30.053 30.02 30.003 29.98 29.985 30 29.99 29.99 29.963 29.905 29.9 29.86 29.838 29.88 29.893 29.853 29.74 29.628 29.63 29.638 29.715 29.835 29.89 29.94 29.975 29.988 29.975 29.995 29.99 30.055 30.098 30.05 30.085 30.085 30.118 30.088 30.083 30.068 30.083 30.06 30.105 30.045 30.088 30.218 31.078 32.053 33.068 33.228 33.813 34.825 34.565 35.488 35.605 35.515 35.405 35.365 35.548 35.728 35.885 35.99 36.223 36.293 37.1 38.9 38.215 38.505 38.798 39.035 39.293 39.56 39.88 40.175 40.485 40.813 41.125 41.423 41.733 42.035 42.363 42.67 42.995 43.305 43.63 43.98 44.413 44.668 45 45.325 45.685 46.103 46.36 46.715 47.073 47.435 47.813 48.18 48.533 48.923 49.278 49.668 50.055 50.425 50.85 51.21 51.59 51.965 52.328 52.71 53.083 53.455 53.823 54.163 54.528 54.903 55.268 55.605 56.085 56.395 56.708 57.313 58.745 59.278 60.923 60.913 61.323 61.638 62.165 62.668 63.168 63.7 64.225 64.75 65.27 65.818 66.348 66.87 67.418 67.923 68.405 68.91 69.393 69.905 70.32 70.795 71.278 71.75 72.155 72.643 73.103 73.6 74.038 74.483 74.993 75.415 75.878 76.31 76.798 77.25 77.675 78.148 78.628 79.038 79.43 79.843 80.36 80.695 81.13 81.595 82.018 82.428 82.828 83.263 83.655 84.068 84.458 84.85 85.243 85.638 86.013 86.375 86.715 87.073 87.413 87.743 88.08 88.423 88.75 89.053 89.323 89.546 89.763 90.091 90.421 90.728 91.011 91.343 91.641 91.946 92.306 92.576 92.828 93.101 93.333 93.608 93.866 94.068 94.276 94.431 94.601 94.861 95.126 96.941 96.703 95.996 96.296 96.601 96.911 97.231 97.616 97.873 98.131 98.418 98.711 99.038 99.366 99.691 100.006 100.263 100.591 100.888 101.161 101.431 101.703 101.981 102.283 102.566 102.818 103.113 103.381 103.616 103.853 104.088 104.358 104.556 104.716 104.936 105.156 105.366 105.551 105.781 105.948 106.176 106.398 106.598 106.833 107.023 107.216 107.416 107.593 107.793 107.966 108.166 108.388 108.536 108.698 108.888 109.073 109.258 109.446 109.591 109.766 109.923 110.096 110.276 110.406 110.546 110.718 110.853 111.026 111.126 111.266 111.393 111.516 111.643 111.741 111.891 111.971 112.123 112.221 112.353 112.456 112.558 112.671 112.773 112.876 112.988 113.081 113.191 113.291 113.388 113.486 113.566 113.661 113.738 113.826 113.928 114.011 114.098 114.196 114.291 114.366 114.472 114.561 114.65 114.756 114.858 114.946 115.03 115.117 115.197 115.287 115.303 115.376 115.439 115.492 115.528 115.606 115.783 116.346 116.946 116.308 116.008 116.156 116.313 116.403 116.493 116.511 116.533 116.523 116.551 116.568 116.611 116.658 116.678 116.703 116.741 116.811 116.858 116.886 116.946 116.993 117.056 117.108 117.168 117.193 117.258 117.301 117.341 117.391 117.423 117.486 117.531 117.586 117.603 117.628 117.661 117.703 117.751 117.781 117.823 117.843 117.898 117.923 117.991 118.011 118.086 118.108 118.121 118.153 118.126 118.158 118.191 118.196 118.213 118.211 118.223 118.221 118.236 118.246 118.233 118.243 118.251 118.263 118.263
29.978 30.01 29.983 29.793 29.815 33.428 34.715 30.01 30.018 30.018 30.003 30.02 29.988 29.995 30 30.005 29.988 30.005 30.018 30.045 30.038 30.02 30.053 30.03 30.013 29.99 29.97 29.98 30.008 29.97 29.98 29.993 29.948 29.9 29.855 29.815 29.88 29.843 29.87 29.823 29.745 29.665 29.62 29.663 29.71 29.788 29.853 29.905 29.93 29.928 29.93 29.975 30.005 30.028 30.065 30.04 30.073 30.098 30.053 30.04 30.088 30.105 30.115 30.103 30.045 30.038 30.015 30.35 31.605 31.855 33.108 32.913 33.915 34.63 37.363 35.39 35.55 35.453 35.34 35.37 35.568 35.728 35.865 36.02 36.228 36.245 37.925 38.233 38.26 38.565 38.845 39.083 39.33 39.623 39.933 40.253 40.58 40.903 41.22 41.538 41.84 42.158 42.473 42.788 43.13 43.453 43.77 44.115 44.418 44.758 45.11 45.458 45.78 46.165 46.508 46.868 47.233 47.56 47.913 48.293 48.65 49.033 49.395 49.803 50.18 50.56 50.95 51.308 51.68 52.078 52.43 52.803 53.19 53.548 53.913 54.28 54.635 54.985 55.335 55.705 56.133 56.423 57.58 62.31 59.388 59.673 60.238 60.728 61.3 61.675 62.158 62.633 63.103 63.648 64.168 64.68 65.228 65.758 66.32 66.88 67.41 67.875 68.363 68.865 69.333 69.838 70.295 70.798 71.273 71.73 72.155 72.63 73.075 73.583 74.035 74.475 74.968 75.445 75.888 76.358 76.883 77.33 77.773 78.233 78.64 79.07 79.543 79.935 80.418 80.795 81.243 81.635 82.088 82.503 82.873 83.3 83.688 84.118 84.495 84.853 85.265 85.648 86.028 86.388 86.758 87.103 87.463 87.79 88.125 88.463 88.783 89.061 89.386 89.591 90.101 90.626 91.008 91.688 92.021 91.938 92.083 92.198 92.468 92.681 92.873 93.188 93.363 93.631 93.813 94.028 94.238 94.721 95.066 94.838 95.281 96.766 96.178 96.146 96.406 96.718 97.043 97.388 97.666 97.921 98.191 98.521 98.806 99.173 99.516 99.811 100.061 100.383 100.711 100.983 101.276 101.518 101.808 102.103 102.416 102.681 102.921 103.206 103.468 103.706 103.973 104.178 104.381 104.576 104.841 105.021 105.228 105.413 105.638 105.841 106.066 106.273 106.463 106.673 106.891 107.126 107.298 107.498 107.693 107.866 108.081 108.261 108.431 108.648 108.836 109.023 109.191 109.346 109.543 109.698 109.843 110.026 110.186 110.358 110.538 110.661 110.808 110.948 111.101 111.226 111.368 111.473 111.603 111.728 111.856 111.956 112.108 112.201 112.318 112.438 112.523 112.663 112.761 112.876 112.953 113.073 113.161 113.271 113.363 113.443 113.551 113.636 113.716 113.801 113.886 113.968 114.061 114.136 114.213 114.298 114.383 114.466 114.563 114.656 114.755 114.85 114.929 115.024 115.106 115.188 115.257 115.332 115.401 115.441 115.5 115.797 115.643 116.481 116.883 116.446 115.978 116.078 116.181 116.286 116.416 116.456 116.448 116.473 116.488 116.513 116.563 116.598 116.636 116.658 116.678 116.718 116.768 116.823 116.876 116.931 116.951 117.008 117.048 117.141 117.156 117.206 117.243 117.293 117.328 117.383 117.441 117.493 117.513 117.568 117.598 117.623 117.661 117.686 117.728 117.753 117.808 117.846 117.876 117.931 117.978 118.003 118.063 118.078 118.076 118.091 118.098 118.108 118.143 118.153 118.176 118.181 118.183 118.193 118.201 118.198 118.193 118.208 118.216 118.231
29.988 29.985 29.98 29.47 29.76 35.473 29.903 29.983 30.003 29.983 30.015 30.01 30 29.965 29.955 29.985 29.973 29.96 29.98 29.99 29.98 30 29.995 29.993 29.955 29.96 29.94 30.003 29.98 29.978 29.968 29.978 29.935 29.883 29.85 29.795 29.865 29.805 29.783 29.745 29.723 29.618 29.598 29.64 29.738 29.765 29.848 29.865 29.89 29.89 29.91 29.945 29.96 30.013 30.033 30.035 30.078 30.053 30.028 30.03 30.108 30.078 30.078 30.058 30.06 30.07 30.043 30.323 31.013 31.698 32.34 33.128 34.258 34.453 35.175 35.58 35.533 35.398 35.26 35.39 35.563 35.73 35.855 36.093 36.178 36.35 37.828 38.075 38.328 38.62 38.853 39.12 39.393 39.7 40.028 40.338 40.658 40.993 41.315 41.643 41.958 42.293 42.588 42.915 43.228 43.56 43.888 44.223 44.543 44.87 45.225 45.56 46.188 46.245 46.593 46.978 47.34 47.688 48.035 48.43 48.77 49.16 49.543 49.91 50.3 50.675 51.043 51.418 51.803 52.173 52.548 52.91 53.258 53.623 53.993 54.363 54.71 55.08 55.458 55.798 56.243 56.485 57.368 59.133 58.845 59.318 59.973 60.73 61.228 61.633 62.113 62.618 63.105 63.705 64.19 64.735 65.198 65.77 66.278 66.845 67.328 67.865 68.33 68.838 69.338 69.803 70.298 70.768 71.208 71.698 72.173 72.643 73.09 73.558 74.025 74.458 74.958 75.42 75.93 76.425 76.955 77.393 77.825 78.33 78.78 79.163 79.648 80.058 80.563 80.97 81.348 81.763 82.143 82.54 82.963 83.353 83.775 84.153 84.538 84.91 85.3 85.695 86.063 86.43 86.795 87.145 87.505 87.838 88.153 88.493 88.81 89.096 89.378 89.608 90.356 92.776 92.121 92.876 92.408 92.533 93.298 93.028 93.656 94.643 94.438 94.908 94.761 94.448 94.576 94.728 94.841 95.481 95.046 95.236 97.343 96.496 96.008 96.213 96.538 96.858 97.251 97.516 97.743 98.013 98.351 98.618 98.936 99.266 99.601 99.881 100.178 100.508 100.796 101.053 101.336 101.643 101.913 102.223 102.528 102.768 103.053 103.301 103.583 103.816 104.086 104.271 104.476 104.706 104.873 105.083 105.286 105.538 105.718 105.918 106.153 106.353 106.561 106.756 106.986 107.173 107.371 107.583 107.771 107.981 108.168 108.378 108.548 108.726 108.918 109.093 109.286 109.443 109.636 109.788 109.933 110.113 110.276 110.436 110.568 110.738 110.913 111.056 111.201 111.316 111.448 111.568 111.716 111.843 111.948 112.081 112.173 112.281 112.416 112.523 112.648 112.711 112.848 112.948 113.048 113.136 113.236 113.316 113.408 113.521 113.593 113.713 113.771 113.863 113.943 114.021 114.093 114.163 114.241 114.336 114.418 114.504 114.581 114.667 114.768 114.854 114.93 115.009 115.103 115.171 115.228 115.328 115.43 115.436 115.524 115.592 116.191 116.983 117.376 115.933 115.906 116.093 116.181 116.268 116.353 116.386 116.368 116.423 116.458 116.511 116.568 116.576 116.618 116.626 116.673 116.711 116.748 116.791 116.816 116.861 116.923 116.971 117.028 117.076 117.116 117.173 117.221 117.253 117.293 117.328 117.393 117.426 117.506 117.528 117.538 117.581 117.608 117.656 117.671 117.711 117.753 117.783 117.823 117.863 117.888 117.951 118.003 118.013 118.041 118.043 118.081 118.071 118.081 118.111 118.128 118.136 118.141 118.153 118.153 118.148 118.146 118.163 118.171 118.178
29.95 29.965 29.91 36.035 31.955 30.81 29.918 29.96 29.99 29.993 29.995 29.993 29.943 29.953 29.943 29.948 29.948 29.958 29.935 29.945 29.96 29.948 29.96 29.958 29.92 29.905 29.918 29.98 29.948 29.928 29.95 29.945 29.92 29.883 29.803 29.788 29.848 29.803 29.768 29.748 29.69 29.613 29.573 29.638 29.665 29.733 29.863 29.84 29.838 29.865 29.903 29.928 29.963 30.025 30.025 30.055 30.07 30.03 29.963 29.98 30.038 30.048 30.048 30.11 30.09 30.073 30.068 30.018 30.633 31.578 32.363 33.833 34.143 34.605 35.035 36.743 35.398 35.283 35.21 35.395 35.568 35.733 35.845 36.075 36.168 38.195 38.753 38.098 38.39 38.66 38.903 39.165 39.458 39.788 40.11 40.418 40.753 41.075 41.408 41.733 42.06 42.405 42.728 43.038 43.373 43.685 44.005 44.338 44.665 45.008 45.33 45.648 46.088 46.38 46.718 47.063 47.448 47.808 48.173 48.545 48.91 49.278 49.658 50.06 50.423 50.803 51.178 51.553 51.913 52.285 52.653 53.003 53.368 53.725 54.073 54.445 54.803 55.158 55.53 55.87 56.305 56.648 57.4 57.963 58.565 59.735 60.498 60.813 61.188 61.653 62.075 62.538 63.08 63.59 64.14 64.645 65.18 65.76 66.268 66.848 67.368 67.883 68.38 68.873 69.348 69.845 70.245 70.705 71.205 71.623 72.108 72.563 73.083 73.573 74.103 74.5 75.038 75.54 75.983 76.488 77 77.473 77.905 78.37 78.828 79.258 79.753 80.203 80.615 81.078 81.5 81.91 82.328 82.645 83.03 83.423 83.835 84.213 84.603 84.98 85.36 85.75 86.113 86.483 86.85 87.208 87.543 87.88 88.205 88.523 88.82 89.128 89.366 89.698 90.423 91.723 91.413 92.156 91.823 92.056 92.171 92.436 92.728 93.556 94.216 95.108 94.761 95.256 95.621 95.556 95.406 96.298 96.486 96.496 97.493 95.863 96.128 96.388 96.686 97.041 97.398 97.576 97.833 98.111 98.411 98.741 99.048 99.403 99.671 99.971 100.306 100.616 100.878 101.148 101.456 101.746 102.056 102.336 102.581 102.896 103.156 103.438 103.681 103.893 104.138 104.338 104.581 104.761 105.006 105.176 105.418 105.598 105.818 106.036 106.258 106.423 106.628 106.866 107.058 107.278 107.503 107.688 107.893 108.083 108.296 108.463 108.648 108.831 108.998 109.213 109.391 109.533 109.726 109.873 110.051 110.186 110.366 110.508 110.663 110.838 110.976 111.136 111.283 111.426 111.553 111.643 111.803 111.901 112.036 112.153 112.278 112.386 112.493 112.616 112.726 112.851 112.906 113.028 113.103 113.218 113.321 113.401 113.518 113.598 113.671 113.753 113.831 113.931 113.988 114.076 114.163 114.236 114.301 114.368 114.428 114.531 114.599 114.676 114.748 114.851 114.94 115.022 115.101 115.157 115.239 115.339 115.438 115.481 115.528 115.589 116.083 117.056 116.488 115.843 115.893 116.048 116.153 116.253 116.263 116.311 116.343 116.398 116.463 116.486 116.541 116.556 116.596 116.638 116.656 116.688 116.736 116.741 116.808 116.853 116.883 116.921 116.993 117.021 117.078 117.143 117.171 117.216 117.251 117.288 117.321 117.401 117.423 117.456 117.498 117.548 117.581 117.588 117.623 117.671 117.698 117.746 117.768 117.821 117.851 117.876 117.941 117.981 117.983 118.013 118.013 118.026 118.026 118.048 118.073 118.086 118.086 118.103 118.111 118.123 118.101 118.128 118.123 118.138
29.91 29.948 29.823 33.113 33.363 30.74 29.96 29.953 29.963 29.99 29.965 29.938 29.923 29.93 29.928 29.943 29.923 29.92 29.908 29.903 29.87 29.895 29.893 29.9 29.883 29.875 29.893 29.903 29.915 29.888 29.94 29.953 29.923 29.873 29.783 29.775 29.813 29.763 29.748 29.658 29.638 29.64 29.565 29.593 29.633 29.703 29.76 29.785 29.838 29.84 29.9 29.933 29.958 29.988 30.008 30.048 30.025 30.015 29.933 29.955 30.005 30.09 30.058 30.035 30.033 30.018 30.07 30.073 30.565 31.245 32.368 33.935 34.298 34.56 34.968 35.665 35.278 35.223 35.223 35.403 35.578 35.71 35.84 36.08 36.18 37.913 38.083 38.18 38.443 38.688 38.928 39.208 39.52 39.83 40.165 40.505 40.835 41.18 41.518 41.843 42.185 42.513 42.843 43.145 43.485 43.815 44.153 44.473 44.805 45.123 45.473 45.785 46.14 46.473 46.84 47.195 47.538 47.915 48.303 48.66 49.033 49.408 49.808 50.173 50.55 50.945 51.3 51.655 52.023 52.373 52.745 53.093 53.463 53.838 54.188 54.54 54.895 55.238 55.595 55.933 56.26 56.67 57.228 58.865 59.915 60.175 60.45 60.83 61.165 61.558 62.118 62.525 63.055 63.538 64.048 64.63 65.13 65.738 66.27 66.785 67.323 67.85 68.358 68.83 69.3 69.783 70.27 70.67 71.16 71.603 72.09 72.61 73.065 73.605 74.06 74.58 75.038 75.543 76.033 76.54 77.005 77.518 77.968 78.463 78.925 79.35 79.858 80.32 80.75 81.183 81.573 81.993 82.423 82.813 83.153 83.545 83.913 84.295 84.685 85.088 85.438 85.825 86.188 86.553 86.91 87.25 87.585 87.933 88.235 88.548 88.84 89.161 89.388 89.778 91.551 91.326 91.321 91.536 91.771 92.018 92.226 92.456 92.716 92.981 93.238 93.501 93.768 94.023 94.266 94.486 94.671 94.936 95.163 95.558 95.748 96.001 96.258 96.533 96.843 97.228 97.456 97.688 97.981 98.276 98.541 98.856 99.183 99.491 99.776 100.093 100.448 100.703 100.981 101.281 101.568 101.873 102.156 102.418 102.731 103.001 103.291 103.546 103.781 104.011 104.203 104.443 104.666 104.873 105.038 105.281 105.471 105.678 105.901 106.108 106.301 106.513 106.753 106.946 107.156 107.371 107.573 107.778 107.991 108.186 108.366 108.568 108.748 108.938 109.126 109.318 109.483 109.638 109.808 109.976 110.151 110.303 110.448 110.616 110.778 110.911 111.053 111.206 111.358 111.508 111.628 111.793 111.883 112.023 112.146 112.258 112.376 112.486 112.586 112.698 112.798 112.898 112.988 113.116 113.216 113.313 113.378 113.463 113.561 113.656 113.751 113.813 113.908 113.983 114.068 114.166 114.213 114.273 114.346 114.406 114.473 114.556 114.616 114.679 114.766 114.853 114.959 115.02 115.085 115.171 115.262 115.357 115.43 115.486 115.558 115.587 115.746 116.456 117.251 116.116 115.866 115.978 116.096 116.208 116.223 116.271 116.311 116.373 116.443 116.481 116.503 116.566 116.598 116.623 116.651 116.666 116.698 116.736 116.778 116.818 116.853 116.913 116.958 116.996 117.026 117.078 117.131 117.156 117.216 117.246 117.281 117.336 117.373 117.436 117.456 117.508 117.528 117.546 117.573 117.611 117.663 117.666 117.733 117.746 117.798 117.856 117.911 117.913 117.956 117.973 117.981 117.993 117.968 118.018 117.998 118.026 118.058 118.068 118.066 118.056 118.066 118.096 118.106 118.096
29.905 29.865 32.203 34.255 29.433 29.905 29.915 29.955 29.938 29.98 29.963 29.938 29.94 29.908 29.903 29.87 29.868 29.853 29.843 29.828 29.848 29.853 29.823 29.823 29.823 29.84 29.878 29.898 29.88 29.89 29.935 29.93 29.878 29.853 29.795 29.738 29.725 29.705 29.7 29.69 29.63 29.655 29.57 29.573 29.578 29.65 29.735 29.793 29.853 29.87 29.933 29.96 29.973 30.028 29.99 30.073 30.025 29.948 29.935 29.94 29.945 30.048 29.985 30.018 30.01 30.04 30.015 30.005 30.298 31.093 32.345 33.77 34.183 34.588 35.12 35.308 35.233 35.14 35.565 35.418 35.565 35.715 35.948 36.01 37.638 38.53 37.985 38.265 38.505 38.725 38.988 39.268 39.593 39.908 40.238 40.588 40.925 41.273 41.61 41.93 42.255 42.608 42.953 43.273 43.59 43.938 44.245 44.585 44.92 45.238 45.565 45.923 46.245 46.595 46.94 47.305 47.678 48.045 48.405 48.778 49.145 49.52 49.888 50.29 50.668 51.03 51.408 51.78 52.12 52.475 52.848 53.198 53.555 53.928 54.303 54.653 54.993 55.345 55.695 56.008 56.2 57.668 58.53 62.063 59.415 60.395 60.413 60.808 61.1 61.588 62.06 62.528 62.953 63.483 64.068 64.58 65.078 65.658 66.23 66.73 67.28 67.798 68.288 68.77 69.268 69.698 70.178 70.675 71.125 71.563 72.043 72.583 73.03 73.583 74.048 74.55 75.038 75.553 76.045 76.525 77.08 77.54 78.045 78.543 79.013 79.45 79.938 80.428 80.868 81.285 81.73 82.125 82.533 82.88 83.313 83.688 84.023 84.45 84.763 85.158 85.525 85.883 86.27 86.605 86.955 87.31 87.67 87.975 88.28 88.583 88.87 89.183 89.401 89.916 91.081 91.176 91.323 91.603 91.876 92.191 92.421 92.636 92.888 93.141 93.406 93.663 93.931 94.196 94.436 94.678 94.916 95.141 95.366 95.616 95.843 96.108 96.438 96.693 97.066 97.326 97.566 97.786 98.073 98.363 98.671 98.978 99.303 99.586 99.916 100.226 100.508 100.803 101.106 101.411 101.696 101.973 102.243 102.556 102.846 103.138 103.386 103.633 103.893 104.101 104.336 104.526 104.761 104.956 105.151 105.366 105.566 105.791 105.991 106.208 106.413 106.663 106.831 107.041 107.248 107.451 107.668 107.878 108.078 108.271 108.481 108.681 108.861 109.053 109.211 109.406 109.576 109.743 109.913 110.081 110.246 110.393 110.541 110.721 110.851 110.998 111.143 111.293 111.431 111.576 111.728 111.861 111.988 112.123 112.216 112.348 112.471 112.593 112.661 112.796 112.901 112.991 113.118 113.198 113.286 113.366 113.471 113.566 113.636 113.726 113.816 113.893 113.976 114.061 114.148 114.206 114.266 114.351 114.411 114.466 114.523 114.598 114.664 114.709 114.791 114.872 114.969 115.024 115.102 115.204 115.317 115.363 115.431 115.496 116.086 115.923 115.656 115.816 117.088 117.173 116.011 115.951 116.051 116.141 116.216 116.213 116.278 116.366 116.451 116.463 116.478 116.558 116.583 116.608 116.621 116.621 116.676 116.703 116.731 116.793 116.836 116.863 116.913 116.956 116.996 117.033 117.093 117.126 117.166 117.203 117.251 117.281 117.323 117.366 117.411 117.463 117.511 117.521 117.571 117.603 117.616 117.641 117.676 117.713 117.761 117.808 117.836 117.851 117.893 117.946 117.936 117.943 117.953 117.943 117.956 117.968 118.003 118.018 118.001 118.038 118.031 118.033 118.071 118.056
29.868 29.733 29.74 33.355 29.65 29.893 29.915 29.955 29.955 29.955 29.945 29.938 29.913 29.888 29.87 29.84 29.87 29.835 29.79 29.793 29.798 29.808 29.825 29.82 29.805 29.86 29.838 29.85 29.863 29.868 29.878 29.903 29.883 29.813 29.765 29.708 29.678 29.67 29.655 29.668 29.643 29.608 29.54 29.553 29.578 29.65 29.763 29.823 29.865 29.88 29.94 29.955 29.988 30.05 30.028 30.073 30.003 29.918 29.903 29.925 29.923 29.988 29.975 30.013 30.03 29.958 30.003 29.983 30.443 31.533 32.42 33.888 35 34.725 35.198 35.248 35.145 36.09 36.063 35.418 35.563 35.7 35.93 36.12 37.6 38.045 38.033 38.285 38.553 38.795 39.055 39.355 39.665 39.985 40.323 40.678 41.003 41.358 41.75 42.04 42.373 42.72 43.05 43.38 43.705 44.033 44.37 44.725 45.03 45.358 45.685 46.013 46.34 46.705 47.053 47.42 47.76 48.128 48.5 48.883 49.228 49.64 50.008 50.395 50.775 51.16 51.515 51.878 52.21 52.583 52.94 53.283 53.638 54.015 54.38 54.728 55.09 55.425 55.783 56.065 56.243 59.735 58.443 62.833 60.585 60.068 60.375 60.745 61.153 61.525 61.978 62.505 62.975 63.478 64.005 64.518 65.075 65.605 66.14 66.685 67.23 67.7 68.205 68.68 69.208 69.658 70.17 70.625 71.09 71.553 71.983 72.515 73.008 73.535 74.023 74.528 75.02 75.543 76.08 76.613 77.143 77.658 78.155 78.635 79.14 79.64 80.083 80.508 80.973 81.403 81.79 82.255 82.628 83.003 83.43 83.81 84.183 84.533 84.878 85.245 85.585 85.96 86.353 86.685 87.04 87.39 87.743 88.028 88.34 88.64 88.9 89.176 89.421 90.388 91.808 91.216 91.346 91.736 92.078 92.348 92.566 92.778 93.013 93.263 93.526 93.813 94.078 94.358 94.613 94.853 95.111 95.331 95.538 95.746 95.991 96.246 96.531 96.851 97.176 97.441 97.648 97.923 98.233 98.526 98.801 99.136 99.413 99.746 100.051 100.323 100.636 100.921 101.198 101.523 101.806 102.093 102.386 102.666 102.971 103.236 103.473 103.746 103.976 104.198 104.408 104.631 104.838 105.031 105.261 105.466 105.696 105.893 106.101 106.306 106.528 106.731 106.928 107.156 107.336 107.606 107.793 108.001 108.198 108.391 108.581 108.753 108.973 109.146 109.331 109.518 109.678 109.873 110.028 110.193 110.338 110.503 110.683 110.813 110.953 111.101 111.248 111.378 111.518 111.673 111.783 111.936 112.071 112.183 112.333 112.453 112.576 112.678 112.803 112.878 112.986 113.098 113.198 113.273 113.368 113.476 113.563 113.623 113.701 113.798 113.893 113.953 114.033 114.118 114.203 114.278 114.356 114.406 114.461 114.513 114.581 114.633 114.681 114.761 114.829 114.913 114.985 115.061 115.138 115.229 115.29 115.368 115.435 116.064 116.992 116.332 115.652 115.696 116.123 116.876 116.596 115.968 116.023 116.106 116.161 116.213 116.238 116.333 116.423 116.473 116.501 116.548 116.546 116.583 116.608 116.636 116.646 116.696 116.731 116.748 116.803 116.826 116.878 116.903 116.953 116.988 117.041 117.106 117.141 117.181 117.226 117.256 117.286 117.348 117.388 117.413 117.458 117.488 117.531 117.543 117.571 117.601 117.611 117.641 117.708 117.741 117.786 117.793 117.821 117.863 117.891 117.898 117.908 117.918 117.898 117.951 117.961 117.983 117.978 117.976 118.001 117.996 118.016 118.038
29.853 29.645 34.558 29.838 29.828 29.865 29.903 29.9 29.965 29.96 29.918 29.913 29.885 29.845 29.84 29.8 29.818 29.79 29.765 29.76 29.755 29.785 29.765 29.783 29.795 29.825 29.82 29.808 29.808 29.818 29.818 29.84 29.833 29.758 29.743 29.668 29.69 29.668 29.643 29.605 29.608 29.585 29.528 29.563 29.565 29.7 29.763 29.86 29.863 29.915 29.943 29.988 30.05 30.045 30.058 30.05 29.988 29.9 29.875 29.888 29.915 30.04 29.978 30.005 30.04 30 30.773 29.918 31.385 31.65 32.685 34.088 34.633 35.315 35.288 35.09 35.088 35.088 35.258 35.423 35.568 35.718 35.958 37.823 38.693 37.853 38.108 38.37 38.585 38.835 39.118 39.428 39.74 40.073 40.408 40.753 41.09 41.43 41.77 42.125 42.453 42.8 43.153 43.48 43.795 44.145 44.473 44.81 45.148 45.488 45.863 46.12 46.475 46.813 47.173 47.538 47.88 48.245 48.608 48.978 49.345 49.715 50.113 50.49 50.848 51.218 51.59 51.958 52.308 52.668 52.995 53.368 53.728 54.093 54.44 54.798 55.16 55.49 55.823 56.068 56.27 57.973 58.59 59.525 59.68 59.81 60.305 60.755 61.133 61.5 61.985 62.515 62.99 63.445 63.998 64.493 65.038 65.51 66.07 66.575 67.123 67.608 68.113 68.62 69.118 69.623 70.093 70.555 71.033 71.52 71.973 72.453 72.995 73.495 74.06 74.545 75.043 75.555 76.14 76.618 77.175 77.705 78.26 78.748 79.163 79.738 80.19 80.625 81.045 81.5 81.855 82.333 82.735 83.115 83.525 83.865 84.28 84.68 84.983 85.358 85.688 86.063 86.405 86.78 87.133 87.47 87.808 88.12 88.395 88.655 88.993 89.198 89.536 90.741 91.258 91.216 91.426 91.806 92.141 92.428 92.646 92.836 93.098 93.341 93.618 93.866 94.126 94.413 94.693 94.948 95.173 95.458 95.646 95.871 96.121 96.386 96.708 96.973 97.253 97.528 97.821 98.071 98.346 98.638 98.968 99.236 99.568 99.893 100.158 100.466 100.741 101.046 101.363 101.646 101.961 102.223 102.521 102.803 103.121 103.323 103.606 103.843 104.061 104.266 104.508 104.708 104.921 105.181 105.353 105.583 105.768 106.001 106.206 106.418 106.648 106.851 107.068 107.261 107.478 107.678 107.893 108.078 108.286 108.488 108.676 108.883 109.066 109.271 109.443 109.621 109.796 109.993 110.128 110.308 110.471 110.636 110.796 110.923 111.066 111.206 111.358 111.488 111.653 111.758 111.891 112.023 112.146 112.298 112.396 112.523 112.651 112.761 112.878 112.958 113.086 113.163 113.296 113.358 113.463 113.531 113.626 113.713 113.803 113.871 113.958 114.048 114.131 114.188 114.263 114.356 114.428 114.498 114.521 114.563 114.606 114.676 114.73 114.809 114.87 114.947 114.997 115.106 115.151 115.229 115.297 115.364 115.885 116.871 116.367 115.657 115.666 115.703 115.748 116.106 116.853 116.533 116.006 116.063 116.093 116.188 116.238 116.316 116.383 116.431 116.486 116.526 116.546 116.566 116.581 116.636 116.638 116.681 116.686 116.751 116.781 116.811 116.836 116.878 116.931 116.976 117.041 117.053 117.101 117.128 117.171 117.218 117.256 117.303 117.331 117.381 117.401 117.463 117.496 117.521 117.553 117.571 117.583 117.618 117.643 117.683 117.726 117.731 117.781 117.808 117.841 117.851 117.863 117.898 117.908 117.903 117.911 117.941 117.941 117.976 117.978 117.988 117.966 117.991
29.748 29.98 31.52 29.205 29.788 29.848 29.888 29.92 29.95 29.93 29.928 29.905 29.898 29.843 29.825 29.798 29.803 29.758 29.748 29.745 29.745 29.765 29.778 29.778 29.818 29.81 29.818 29.795 29.793 29.78 29.75 29.788 29.763 29.765 29.74 29.71 29.665 29.628 29.62 29.593 29.58 29.525 29.508 29.538 29.56 29.643 29.768 29.855 29.87 29.908 29.955 30.003 30.06 30.048 30.085 30.025 29.99 29.895 29.883 29.888 29.918 29.91 30.07 30.025 29.955 29.965 29.935 30.97 31.078 32.5 33.128 33.66 35.068 34.908 35.078 35.075 35.738 35.92 35.27 35.433 35.58 35.81 35.958 37.463 37.8 37.935 38.178 38.413 38.648 38.925 39.178 39.505 39.835 40.155 40.508 40.825 41.16 41.498 41.878 42.215 42.558 42.9 43.24 43.6 43.915 44.243 44.575 44.925 45.263 45.595 45.875 46.24 46.595 46.938 47.28 47.638 47.975 48.34 48.713 49.068 49.448 49.808 50.188 50.578 50.933 51.285 51.643 52.018 52.385 52.738 53.078 53.45 53.783 54.153 54.508 54.85 55.185 55.495 55.835 56.068 56.475 58.575 58.743 61.348 59.39 59.805 60.438 60.68 61.22 61.493 62.018 62.46 63.048 63.513 63.963 64.458 64.988 65.468 65.99 66.518 67.015 67.533 68.03 68.555 69.07 69.533 70.008 70.505 70.97 71.388 71.948 72.43 72.988 73.508 73.99 74.58 75.08 75.615 76.153 76.725 77.233 77.8 78.303 78.798 79.343 79.813 80.23 80.738 81.138 81.655 81.993 82.413 82.768 83.198 83.57 83.983 84.365 84.733 85.113 85.48 85.885 86.195 86.535 86.855 87.193 87.528 87.86 88.185 88.463 88.728 89.065 89.261 89.896 90.933 91.083 91.228 91.476 91.828 92.223 92.433 92.648 92.881 93.156 93.433 93.731 94.001 94.276 94.551 94.818 95.076 95.328 95.618 95.836 96.068 96.336 96.608 96.868 97.156 97.368 97.686 97.946 98.198 98.481 98.801 99.101 99.448 99.708 99.981 100.286 100.581 100.873 101.161 101.488 101.741 102.031 102.333 102.656 102.933 103.191 103.458 103.703 103.943 104.148 104.366 104.578 104.836 105.036 105.241 105.461 105.683 105.906 106.111 106.341 106.553 106.761 106.963 107.181 107.388 107.596 107.811 108.003 108.196 108.401 108.593 108.801 109.016 109.188 109.371 109.558 109.766 109.926 110.101 110.278 110.438 110.581 110.743 110.873 111.046 111.188 111.316 111.471 111.603 111.741 111.868 111.998 112.118 112.258 112.356 112.503 112.621 112.731 112.846 112.961 113.068 113.186 113.263 113.363 113.483 113.566 113.623 113.718 113.813 113.876 113.966 114.038 114.093 114.186 114.256 114.348 114.426 114.478 114.538 114.566 114.616 114.671 114.736 114.79 114.86 114.919 114.981 115.069 115.118 115.177 115.25 115.33 115.551 116.383 116.377 115.638 115.593 115.687 115.776 115.781 115.863 116.433 117.061 116.268 116.023 116.066 116.128 116.208 116.283 116.341 116.418 116.476 116.508 116.548 116.563 116.591 116.603 116.631 116.663 116.701 116.718 116.733 116.776 116.823 116.851 116.888 116.933 116.981 117.026 117.076 117.106 117.153 117.191 117.218 117.248 117.293 117.331 117.391 117.436 117.473 117.501 117.516 117.536 117.531 117.578 117.603 117.638 117.691 117.701 117.736 117.788 117.796 117.823 117.831 117.841 117.856 117.853 117.886 117.896 117.913 117.941 117.953 117.966 117.958 117.961
30.188 30.578 30.268 29.68 29.733 29.823 29.813 29.908 29.945 29.928 29.905 29.903 29.853 29.83 29.793 29.778 29.785 29.748 29.718 29.728 29.708 29.763 29.775 29.785 29.82 29.813 29.788 29.755 29.755 29.733 29.715 29.723 29.698 29.785 29.76 29.723 29.735 29.653 29.625 29.6 29.538 29.493 29.503 29.553 29.555 29.658 29.785 29.838 29.89 29.92 29.97 30 30.023 30.03 30.023 30.038 29.963 29.86 29.855 29.848 29.903 29.93 29.935 29.943 29.943 29.965 30.038 30.415 31.153 32.598 33.128 34.183 34.788 34.965 34.988 34.995 35.343 35.425 35.278 35.433 35.57 35.795 37.365 37.625 37.713 37.998 38.235 38.468 38.73 38.983 39.288 39.595 39.918 40.253 40.573 40.913 41.268 41.613 41.955 42.298 42.645 42.99 43.335 43.673 44.02 44.35 44.69 45.008 45.345 45.703 46 46.345 46.71 47.055 47.408 47.745 48.103 48.453 48.795 49.15 49.518 49.883 50.253 50.618 50.978 51.345 51.705 52.065 52.428 52.78 53.14 53.493 53.84 54.205 54.555 54.908 55.215 55.515 55.825 56.175 58.523 58.743 59.098 59.203 59.64 60.175 61.99 60.698 61.055 62.033 62.045 62.46 62.988 63.465 64.02 64.473 64.938 65.493 65.943 66.483 66.978 67.475 67.963 68.49 68.97 69.448 69.92 70.415 70.928 71.418 71.868 72.41 72.923 73.475 74 74.583 75.1 75.645 76.168 76.76 77.313 77.843 78.403 78.868 79.408 79.918 80.365 80.848 81.288 81.748 82.133 82.48 82.84 83.248 83.68 84.068 84.423 84.818 85.173 85.575 85.958 86.275 86.633 86.973 87.315 87.625 87.925 88.243 88.55 88.803 89.103 89.333 90.481 91.128 91.091 91.256 91.531 91.896 92.258 92.498 92.701 92.931 93.221 93.511 93.806 94.071 94.341 94.631 94.906 95.176 95.393 95.688 95.931 96.231 96.458 96.753 96.996 97.248 97.548 97.833 98.073 98.338 98.643 98.953 99.266 99.536 99.821 100.138 100.411 100.718 100.998 101.323 101.613 101.881 102.188 102.471 102.786 103.031 103.313 103.591 103.796 104.021 104.238 104.471 104.698 104.918 105.116 105.363 105.578 105.801 106.016 106.268 106.451 106.653 106.873 107.051 107.308 107.513 107.713 107.898 108.101 108.338 108.503 108.713 108.916 109.128 109.281 109.478 109.688 109.858 110.046 110.208 110.383 110.546 110.733 110.876 111.013 111.168 111.288 111.423 111.583 111.711 111.828 111.956 112.081 112.236 112.343 112.448 112.583 112.708 112.838 112.948 113.061 113.163 113.241 113.371 113.471 113.551 113.621 113.726 113.796 113.891 113.973 114.021 114.136 114.201 114.271 114.326 114.413 114.466 114.528 114.588 114.641 114.671 114.748 114.803 114.846 114.902 114.968 115.06 115.101 115.147 115.208 115.291 115.413 116.471 116.627 115.681 115.564 115.61 115.707 115.748 115.828 115.858 115.953 116.888 116.961 116.036 116.041 116.098 116.178 116.256 116.316 116.391 116.448 116.498 116.548 116.576 116.573 116.601 116.618 116.661 116.693 116.703 116.683 116.731 116.771 116.831 116.876 116.898 116.963 117.003 117.031 117.066 117.121 117.158 117.178 117.218 117.246 117.331 117.333 117.383 117.416 117.453 117.493 117.506 117.508 117.551 117.576 117.603 117.653 117.668 117.706 117.728 117.771 117.776 117.821 117.808 117.836 117.841 117.823 117.873 117.868 117.908 117.916 117.938 117.938 117.923
30.273 31.06 29.38 29.723 29.765 29.78 29.845 29.888 29.905 29.918 29.888 29.875 29.855 29.828 29.798 29.77 29.72 29.738 29.708 29.683 29.718 29.75 29.775 29.783 29.798 29.8 29.773 29.733 29.733 29.69 29.718 29.67 29.7 29.72 29.72 29.745 29.738 29.688 29.688 29.635 29.535 29.5 29.515 29.54 29.595 29.73 29.81 29.91 29.93 29.983 30.018 30.003 30.018 30.005 29.988 30.018 29.948 29.86 29.793 29.833 29.875 29.915 29.905 29.903 29.968 29.96 29.943 30.908 31.145 31.998 33.118 34.043 34.78 37.033 34.915 34.923 36.05 35.14 35.303 35.443 35.638 35.815 37.55 38.07 37.783 38.07 38.325 38.523 38.798 39.068 39.34 39.668 40.008 40.305 40.673 41 41.348 41.698 42.058 42.388 42.738 43.083 43.445 43.8 44.145 44.44 44.778 45.118 45.45 45.793 46.125 46.46 46.813 47.14 47.49 47.83 48.193 48.543 48.895 49.253 49.623 49.953 50.345 50.69 51.068 51.42 51.773 52.125 52.48 52.843 53.185 53.533 53.885 54.263 54.593 54.953 55.26 55.55 55.828 58.098 57.218 58.828 58.923 59.093 59.265 59.675 60.013 60.778 61.54 61.863 62.295 62.63 63.023 63.518 63.995 64.43 64.883 65.373 65.88 66.418 66.873 67.385 67.903 68.39 68.885 69.36 69.895 70.378 70.828 71.408 71.853 72.38 72.895 73.455 74.028 74.563 75.12 75.723 76.245 76.813 77.36 77.913 78.468 79.025 79.495 80.013 80.485 80.94 81.393 81.768 82.188 82.538 82.975 83.323 83.78 84.175 84.525 84.905 85.293 85.655 86.018 86.383 86.71 87.068 87.423 87.75 88.023 88.335 88.58 88.853 89.138 89.373 90.498 91.113 91.056 91.323 91.623 92.006 92.308 92.551 92.776 93.061 93.361 93.613 93.931 94.188 94.483 94.746 95.038 95.251 95.513 95.788 96.063 96.281 96.553 96.806 97.093 97.376 97.688 97.961 98.208 98.501 98.793 99.096 99.358 99.661 99.996 100.256 100.588 100.873 101.156 101.466 101.721 102.023 102.308 102.623 102.893 103.158 103.406 103.656 103.868 104.123 104.331 104.576 104.771 105.006 105.238 105.473 105.698 105.911 106.128 106.363 106.538 106.791 106.991 107.216 107.438 107.631 107.816 108.026 108.228 108.403 108.646 108.841 109.048 109.231 109.428 109.631 109.783 109.973 110.136 110.346 110.531 110.648 110.831 110.991 111.121 111.268 111.396 111.553 111.698 111.811 111.948 112.048 112.183 112.336 112.441 112.556 112.668 112.798 112.886 113.036 113.146 113.261 113.356 113.428 113.548 113.636 113.728 113.808 113.888 113.981 114.051 114.128 114.186 114.268 114.341 114.391 114.486 114.538 114.593 114.651 114.708 114.768 114.828 114.866 114.916 114.979 115.05 115.1 115.123 115.185 115.264 115.359 116.351 116.659 115.892 115.544 115.573 115.641 115.701 115.738 115.813 115.913 115.936 116.398 117.106 116.646 116.046 116.096 116.138 116.206 116.293 116.358 116.436 116.486 116.516 116.551 116.578 116.608 116.618 116.648 116.661 116.673 116.683 116.721 116.776 116.806 116.836 116.878 116.918 116.951 117.008 117.051 117.091 117.121 117.168 117.173 117.233 117.263 117.303 117.333 117.363 117.438 117.478 117.486 117.491 117.501 117.548 117.558 117.586 117.646 117.666 117.701 117.716 117.723 117.798 117.781 117.791 117.811 117.828 117.838 117.823 117.836 117.868 117.881 117.903 117.898
30.798 32.86 29.625 29.735 29.738 29.733 29.8 29.843 29.855 29.855 29.863 29.85 29.865 29.793 29.755 29.723 29.675 29.688 29.7 29.695 29.72 29.748 29.785 29.775 29.795 29.823 29.783 29.745 29.7 29.693 29.675 29.628 29.663 29.703 29.668 29.708 29.68 29.67 29.673 29.59 29.495 29.468 29.53 29.585 29.595 29.765 29.885 29.9 29.963 29.96 29.97 29.97 29.975 30.003 29.975 29.968 29.98 29.883 29.785 29.858 29.87 29.865 29.91 29.908 32.478 29.98 29.993 31.325 31.023 32.12 32.498 33.905 34.95 35.108 34.903 34.805 34.983 35.16 35.313 35.458 35.69 36.105 37.463 37.67 37.853 38.158 38.368 38.593 38.87 39.133 39.438 39.743 40.083 40.41 40.73 41.08 41.443 41.77 42.13 42.485 42.833 43.17 43.523 43.883 44.213 44.56 44.88 45.2 45.563 45.893 46.223 46.568 46.89 47.243 47.6 47.93 48.285 48.628 48.985 49.335 49.698 50.058 50.425 50.768 51.125 51.465 51.83 52.188 52.53 52.885 53.24 53.6 53.958 54.295 54.635 54.978 55.29 55.593 55.83 56.805 58.128 58.585 58.698 58.988 59.183 59.628 59.813 60.07 60.275 61.053 62.185 63.323 63.163 63.538 64 64.465 64.895 65.353 65.853 66.323 66.82 67.28 67.798 68.273 68.808 69.29 69.845 70.34 70.818 71.36 71.863 72.388 72.913 73.483 74.013 74.598 75.18 75.74 76.3 76.918 77.483 78.01 78.518 79.098 79.6 80.04 80.56 81.013 81.45 81.855 82.188 82.64 83.05 83.423 83.825 84.185 84.593 84.97 85.388 85.78 86.095 86.408 86.815 87.173 87.485 87.87 88.153 88.418 88.698 88.975 89.198 89.403 90.858 91.308 91.148 91.408 91.693 92.121 92.401 92.636 92.836 93.126 93.428 93.741 94.016 94.316 94.626 94.893 95.118 95.396 95.638 95.906 96.158 96.406 96.668 96.946 97.286 97.556 97.796 98.088 98.383 98.683 98.953 99.218 99.516 99.813 100.108 100.393 100.716 101.018 101.316 101.571 101.871 102.183 102.466 102.736 103.031 103.308 103.516 103.723 103.983 104.206 104.458 104.676 104.891 105.091 105.361 105.563 105.806 106.003 106.233 106.448 106.688 106.903 107.136 107.356 107.541 107.766 107.953 108.181 108.346 108.568 108.753 108.953 109.143 109.321 109.531 109.726 109.923 110.081 110.271 110.441 110.618 110.776 110.956 111.111 111.233 111.386 111.533 111.678 111.796 111.931 112.046 112.153 112.313 112.411 112.526 112.653 112.766 112.896 113.018 113.123 113.223 113.318 113.406 113.533 113.628 113.721 113.796 113.891 113.996 114.058 114.153 114.196 114.263 114.338 114.421 114.488 114.543 114.598 114.656 114.723 114.778 114.831 114.941 114.958 114.963 115.054 115.096 115.131 115.169 115.238 115.291 116.074 116.53 115.905 115.523 115.52 115.567 115.631 115.701 115.727 115.791 115.926 115.971 115.946 116.493 116.993 116.223 116.103 116.138 116.193 116.276 116.341 116.411 116.473 116.508 116.551 116.576 116.596 116.626 116.641 116.681 116.668 116.703 116.721 116.746 116.768 116.828 116.871 116.886 116.926 116.981 117.036 117.058 117.103 117.131 117.153 117.191 117.251 117.283 117.308 117.341 117.368 117.433 117.448 117.471 117.488 117.541 117.538 117.548 117.621 117.628 117.656 117.681 117.708 117.741 117.773 117.783 117.793 117.816 117.798 117.793 117.803 117.836 117.836 117.863 117.878
30.618 30.635 29.67 29.708 29.703 29.725 29.768 29.81 29.855 29.845 29.865 29.845 29.815 29.775 29.73 29.68 29.665 29.655 29.663 29.7 29.718 29.75 29.76 29.755 29.75 29.768 29.755 29.695 29.708 29.703 29.618 29.62 29.613 29.635 29.663 29.645 29.693 29.653 29.673 29.538 29.493 29.435 29.525 29.57 29.71 29.855 29.888 29.933 29.943 29.953 29.953 29.975 29.95 29.95 29.96 29.955 29.903 29.83 29.81 29.813 29.858 29.85 29.885 29.98 30.24 29.908 30.178 31.173 31.015 32.2 33.08 34.255 35.633 34.825 34.825 34.833 35.018 35.18 35.34 35.47 35.7 37.348 37.413 37.68 37.94 38.18 38.425 38.66 38.923 39.205 39.505 39.84 40.173 40.498 40.795 41.155 41.513 41.873 42.235 42.588 42.935 43.275 43.623 43.973 44.325 44.653 44.995 45.333 45.655 45.98 46.325 46.673 47 47.338 47.678 48.02 48.373 48.713 49.065 49.393 49.778 50.123 50.49 50.83 51.188 51.538 51.883 52.248 52.593 52.945 53.285 53.628 53.983 54.343 54.693 55.005 55.315 55.615 55.863 56.303 58.26 58.413 58.57 61.793 61.64 61.973 62.243 61.2 60.398 60.663 61.618 62.758 63.355 63.568 64.028 64.493 64.94 65.358 65.838 66.325 66.775 67.255 67.773 68.255 68.778 69.288 69.798 70.285 70.813 71.348 71.87 72.43 72.958 73.528 74.09 74.673 75.25 75.835 76.385 76.98 77.535 78.07 78.61 79.195 79.668 80.16 80.6 81.078 81.545 81.933 82.29 82.743 83.108 83.553 83.953 84.275 84.648 85.085 85.41 85.838 86.198 86.588 86.935 87.29 87.61 87.975 88.283 88.515 88.823 89.1 89.305 89.671 90.906 92.326 91.196 91.463 91.806 92.228 92.473 92.703 92.948 93.271 93.536 93.841 94.146 94.456 94.763 94.963 95.243 95.491 95.771 96.036 96.308 96.528 96.801 97.096 97.383 97.656 97.906 98.221 98.536 98.806 99.123 99.373 99.656 99.971 100.256 100.533 100.813 101.103 101.401 101.721 102.026 102.333 102.611 102.881 103.136 103.368 103.613 103.841 104.076 104.301 104.521 104.751 104.973 105.216 105.456 105.676 105.906 106.176 106.341 106.566 106.798 107.053 107.241 107.438 107.683 107.873 108.081 108.281 108.493 108.676 108.878 109.091 109.253 109.476 109.666 109.863 110.006 110.206 110.381 110.573 110.731 110.896 111.048 111.213 111.358 111.493 111.643 111.753 111.906 112.031 112.158 112.291 112.401 112.531 112.646 112.776 112.853 112.996 113.096 113.191 113.316 113.403 113.491 113.603 113.688 113.813 113.886 113.988 114.056 114.136 114.213 114.313 114.376 114.428 114.496 114.573 114.616 114.673 114.718 114.781 114.836 114.916 114.963 115.026 115.056 115.111 115.124 115.157 115.217 115.261 115.948 116.806 116.031 115.514 115.518 115.515 115.581 115.643 115.708 115.762 115.808 115.883 116.008 115.943 115.991 116.656 117.203 116.228 116.121 116.178 116.246 116.333 116.368 116.448 116.513 116.551 116.558 116.611 116.626 116.658 116.648 116.676 116.688 116.703 116.731 116.748 116.793 116.838 116.863 116.911 116.971 116.988 117.041 117.076 117.121 117.143 117.183 117.211 117.211 117.266 117.298 117.351 117.393 117.428 117.443 117.496 117.496 117.521 117.546 117.563 117.596 117.621 117.653 117.678 117.686 117.743 117.761 117.791 117.783 117.788 117.783 117.783 117.781 117.806 117.826 117.816
29.853 29.61 29.72 29.695 29.678 29.723 29.705 29.75 29.818 29.848 29.82 29.81 29.77 29.745 29.748 29.683 29.638 29.623 29.645 29.688 29.7 29.72 29.735 29.763 29.748 29.723 29.74 29.71 29.728 29.665 29.6 29.555 29.543 29.61 29.63 29.63 29.635 29.618 29.588 29.528 29.485 29.408 29.52 29.605 29.803 29.89 29.905 29.908 29.93 29.958 29.925 29.893 29.92 29.933 29.953 29.925 29.953 29.81 29.805 29.793 29.838 29.82 29.848 29.878 29.84 29.92 30.15 30.66 32.025 37.365 33.9 34.758 35.698 34.79 34.668 34.86 35.043 35.205 35.348 35.575 36.073 37.163 37.513 37.758 38.008 38.23 38.478 38.74 39.035 39.305 39.615 39.925 40.235 40.575 40.883 41.233 41.565 41.95 42.305 42.643 43.008 43.355 43.708 44.073 44.415 44.758 45.088 45.443 45.75 46.095 46.425 46.763 47.098 47.448 47.768 48.123 48.455 48.798 49.14 49.493 49.835 50.178 50.538 50.9 51.263 51.6 51.958 52.28 52.643 53.003 53.333 53.683 54.04 54.4 54.72 55.028 55.365 55.63 55.968 57.02 58.268 58.395 63.585 60.805 61.758 61.485 61.535 61.725 62.683 60.843 61.153 62.63 63.335 63.713 64.135 64.513 64.888 65.348 65.83 66.298 66.748 67.225 67.733 68.248 68.783 69.308 69.86 70.338 70.838 71.403 71.948 72.488 73.05 73.598 74.203 74.763 75.34 75.92 76.498 77.055 77.618 78.135 78.71 79.258 79.753 80.26 80.73 81.143 81.628 82.053 82.355 82.858 83.213 83.615 84.03 84.393 84.74 85.148 85.518 85.918 86.258 86.635 86.995 87.328 87.68 88.058 88.31 88.668 88.96 89.288 89.403 89.851 91.496 91.268 91.273 91.533 91.921 92.333 92.568 92.781 93.076 93.398 93.648 93.968 94.283 94.568 94.811 95.083 95.351 95.623 95.866 96.133 96.376 96.671 96.963 97.216 97.506 97.793 98.071 98.391 98.641 98.988 99.233 99.511 99.778 100.101 100.381 100.643 100.961 101.273 101.571 101.891 102.168 102.471 102.738 103.013 103.238 103.478 103.706 103.933 104.156 104.398 104.603 104.833 105.081 105.313 105.533 105.761 106.016 106.218 106.461 106.711 106.931 107.153 107.338 107.583 107.791 107.986 108.188 108.408 108.601 108.816 109.013 109.183 109.396 109.568 109.783 109.963 110.146 110.331 110.531 110.668 110.828 111.011 111.156 111.316 111.451 111.618 111.748 111.886 112.031 112.143 112.271 112.393 112.533 112.641 112.751 112.848 112.963 113.061 113.181 113.313 113.391 113.506 113.603 113.691 113.791 113.861 113.973 114.061 114.141 114.226 114.293 114.373 114.448 114.516 114.576 114.631 114.676 114.731 114.801 114.861 114.908 114.981 115.038 115.083 115.126 115.15 115.172 115.21 115.245 115.778 116.646 115.932 115.508 115.531 115.507 115.517 115.576 115.661 115.719 115.738 115.788 115.868 115.941 115.993 115.981 116.068 117.058 116.858 116.188 116.168 116.218 116.308 116.366 116.418 116.458 116.543 116.563 116.601 116.626 116.646 116.633 116.656 116.681 116.693 116.716 116.731 116.763 116.831 116.861 116.923 116.936 116.986 117.016 117.066 117.091 117.123 117.146 117.171 117.223 117.243 117.273 117.311 117.333 117.393 117.436 117.456 117.478 117.501 117.511 117.558 117.568 117.598 117.623 117.678 117.678 117.696 117.738 117.768 117.778 117.771 117.796 117.751 117.786 117.776 117.783 117.803
30.153 29.72 29.728 29.67 29.7 29.685 29.685 29.703 29.79 29.813 29.805 29.775 29.763 29.728 29.708 29.633 29.635 29.613 29.663 29.69 29.685 29.708 29.733 29.74 29.705 29.695 29.673 29.688 29.673 29.593 29.55 29.523 29.545 29.548 29.613 29.625 29.605 29.54 29.508 29.483 29.448 29.398 29.503 29.628 29.848 29.885 29.888 29.903 29.913 29.873 29.875 29.87 29.89 29.883 29.908 29.93 29.918 29.838 29.788 29.76 29.785 29.715 29.43 29.675 29.88 30.065 30.47 31.268 31.718 33.185 34.74 34.615 34.75 34.71 34.718 34.895 35.063 35.225 35.355 35.505 36.523 37.505 38.738 37.82 38.05 38.265 38.555 38.808 39.11 39.398 39.7 40.025 40.333 40.655 40.973 41.325 41.675 42.02 42.378 42.735 43.083 43.458 43.81 44.165 44.508 44.858 45.185 45.538 45.86 46.188 46.52 46.87 47.193 47.528 47.868 48.21 48.55 48.883 49.22 49.565 49.92 50.268 50.613 50.96 51.305 51.645 52 52.35 52.715 53.058 53.4 53.77 54.123 54.458 54.768 55.073 55.4 55.638 56.965 57.825 57.998 58.763 60.198 61.478 60.925 61.668 60.58 60.79 61.533 62.68 61.368 62.38 63.583 64.4 64.145 64.548 64.978 65.408 65.838 66.318 66.75 67.235 67.765 68.25 68.79 69.335 69.85 70.393 70.905 71.445 72.023 72.598 73.175 73.708 74.298 74.84 75.415 76.013 76.613 77.198 77.75 78.293 78.833 79.373 79.878 80.363 80.825 81.3 81.718 82.115 82.468 82.925 83.378 83.77 84.118 84.473 84.858 85.258 85.608 86.003 86.368 86.795 87.113 87.443 87.778 88.108 88.453 88.798 89.07 89.415 89.54 90.166 92.198 91.093 91.353 91.626 92.076 92.406 92.646 92.891 93.178 93.491 93.761 94.081 94.396 94.646 94.921 95.206 95.488 95.708 95.993 96.236 96.533 96.823 97.111 97.378 97.641 97.906 98.208 98.511 98.838 99.071 99.388 99.708 99.943 100.206 100.498 100.806 101.113 101.398 101.723 102.008 102.306 102.601 102.851 103.096 103.333 103.571 103.808 104.041 104.266 104.501 104.708 104.928 105.183 105.383 105.623 105.881 106.096 106.333 106.571 106.801 107.008 107.258 107.466 107.686 107.911 108.118 108.348 108.531 108.711 108.941 109.118 109.326 109.528 109.693 109.896 110.093 110.263 110.431 110.626 110.788 110.921 111.091 111.253 111.416 111.578 111.711 111.851 111.998 112.111 112.241 112.363 112.493 112.608 112.746 112.843 112.968 113.063 113.151 113.281 113.366 113.491 113.581 113.693 113.766 113.851 113.973 114.063 114.156 114.213 114.298 114.378 114.476 114.543 114.576 114.648 114.711 114.763 114.823 114.881 114.933 115.003 115.038 115.088 115.151 115.168 115.189 115.235 115.251 116.355 116.933 115.926 115.49 115.547 115.542 115.554 115.532 115.602 115.652 115.702 115.717 115.791 115.861 115.936 115.991 116.028 116.016 116.348 117.216 116.406 116.151 116.218 116.271 116.363 116.401 116.441 116.496 116.591 116.608 116.618 116.631 116.668 116.668 116.691 116.706 116.736 116.736 116.778 116.783 116.828 116.878 116.941 116.976 117.008 117.031 117.028 117.113 117.128 117.166 117.191 117.218 117.236 117.296 117.311 117.363 117.391 117.421 117.458 117.478 117.498 117.533 117.561 117.576 117.598 117.611 117.651 117.686 117.718 117.748 117.748 117.746 117.756 117.751 117.753 117.741 117.778 117.781
29.76 29.715 29.675 29.633 29.668 29.673 29.698 29.693 29.775 29.795 29.79 29.78 29.77 29.73 29.685 29.655 29.588 29.585 29.593 29.663 29.678 29.68 29.688 29.678 29.635 29.638 29.663 29.65 29.615 29.503 29.51 29.485 29.473 29.515 29.59 29.623 29.593 29.52 29.5 29.443 29.403 29.38 29.515 29.598 29.845 29.868 29.87 29.898 29.873 29.863 29.838 29.838 29.843 29.88 29.898 29.91 29.92 29.86 29.79 29.75 29.748 29.798 30.115 29.828 29.91 30.243 30.72 31.078 32.11 33.42 34.213 36.223 34.653 34.545 34.738 34.925 35.09 35.238 35.405 35.508 35.668 37.943 37.875 38.143 38.143 38.308 38.605 38.878 39.175 39.483 39.773 40.1 40.433 40.74 41.068 41.38 41.753 42.108 42.465 42.81 43.163 43.53 43.883 44.24 44.598 44.948 45.3 45.615 45.973 46.305 46.658 46.985 47.305 47.663 47.968 48.295 48.643 48.973 49.31 49.663 49.985 50.335 50.668 51.023 51.375 51.69 52.068 52.43 52.778 53.135 53.473 53.825 54.16 54.503 54.838 55.12 55.405 55.69 56.873 57.878 58.123 60.26 60.795 61.018 60.565 60.575 60.553 60.898 60.805 62.655 61.623 61.908 63.015 64.278 64.66 64.663 65.013 65.478 65.908 66.37 66.83 67.353 67.803 68.348 68.883 69.425 69.965 70.463 71.003 71.545 72.105 72.655 73.225 73.818 74.413 74.975 75.555 76.15 76.7 77.288 77.855 78.358 78.91 79.42 79.923 80.428 80.918 81.35 81.81 82.183 82.61 83.008 83.398 83.813 84.18 84.593 84.963 85.345 85.72 86.088 86.453 86.843 87.215 87.538 87.898 88.21 88.558 88.853 89.198 89.48 89.623 90.516 91.658 91.101 91.416 91.721 92.201 92.508 92.721 92.983 93.278 93.573 93.898 94.218 94.471 94.753 95.048 95.311 95.583 95.821 96.096 96.366 96.688 96.953 97.246 97.503 97.741 98.063 98.373 98.631 98.898 99.213 99.516 99.766 100.063 100.328 100.646 100.941 101.243 101.553 101.838 102.146 102.423 102.701 102.936 103.171 103.411 103.673 103.888 104.108 104.346 104.581 104.813 105.058 105.268 105.521 105.756 106.003 106.201 106.438 106.676 106.906 107.146 107.393 107.578 107.803 108.016 108.233 108.453 108.643 108.863 109.046 109.263 109.448 109.648 109.833 110.043 110.221 110.391 110.563 110.731 110.881 111.026 111.216 111.378 111.538 111.683 111.811 111.958 112.088 112.218 112.328 112.483 112.598 112.723 112.823 112.946 113.066 113.161 113.278 113.371 113.463 113.568 113.663 113.761 113.838 113.966 114.023 114.121 114.208 114.298 114.388 114.451 114.543 114.613 114.671 114.731 114.788 114.826 114.916 114.971 115.011 115.063 115.126 115.141 115.193 115.233 115.288 115.285 116.347 116.553 115.758 115.498 115.542 115.549 115.543 115.538 115.558 115.617 115.667 115.724 115.794 115.861 115.916 115.938 115.946 116.046 116.043 116.076 117.011 117.223 116.278 116.216 116.251 116.333 116.391 116.451 116.471 116.561 116.588 116.638 116.623 116.651 116.668 116.686 116.706 116.693 116.731 116.736 116.776 116.833 116.858 116.898 116.956 116.986 117.006 117.033 117.083 117.126 117.158 117.193 117.183 117.238 117.248 117.288 117.346 117.376 117.411 117.441 117.478 117.491 117.506 117.526 117.533 117.578 117.601 117.616 117.651 117.693 117.691 117.728 117.713 117.731 117.728 117.718 117.708 117.726 117.741
29.655 29.65 29.658 29.638 29.658 29.65 29.635 29.668 29.688 29.725 29.77 29.738 29.745 29.703 29.673 29.628 29.585 29.588 29.58 29.62 29.643 29.618 29.618 29.603 29.575 29.605 29.648 29.638 29.578 29.49 29.46 29.43 29.47 29.52 29.588 29.595 29.588 29.558 29.498 29.435 29.368 29.363 29.443 29.568 29.748 29.808 29.858 29.845 29.835 29.81 29.835 29.84 29.833 29.858 29.88 29.905 29.898 29.908 29.77 29.703 29.7 29.74 29.743 29.783 29.875 30.11 30.52 32.378 32.143 33.753 34.56 35.173 34.563 34.56 34.763 34.938 35.103 35.25 35.435 35.76 35.603 35.87 36.165 37.52 38.55 38.383 38.585 38.908 39.243 39.563 39.85 40.183 40.493 40.83 41.155 41.485 41.828 42.188 42.53 42.893 43.25 43.608 43.968 44.33 44.68 45.035 45.395 45.723 46.053 46.413 46.753 47.083 47.42 47.753 48.083 48.43 48.75 49.09 49.415 49.755 50.103 50.413 50.77 51.1 51.465 51.803 52.158 52.523 52.868 53.225 53.563 53.923 54.26 54.583 54.873 55.16 55.445 55.82 57.593 57.685 58.025 59.998 61.183 60.555 60.553 60.555 60.553 60.535 60.52 62.773 62.43 62.18 63.218 64.1 65.568 64.758 65.125 65.553 65.978 66.46 66.928 67.403 67.883 68.423 68.968 69.455 70.028 70.6 71.135 71.648 72.215 72.79 73.38 73.945 74.563 75.19 75.69 76.31 76.863 77.418 77.915 78.47 79 79.54 80.015 80.498 80.948 81.405 81.858 82.32 82.673 83.14 83.498 83.888 84.288 84.663 85.063 85.455 85.788 86.183 86.543 86.905 87.283 87.675 87.993 88.335 88.65 88.97 89.303 89.495 89.7 91.341 92.801 91.186 91.508 91.878 92.311 92.586 92.813 93.066 93.393 93.666 93.986 94.263 94.593 94.858 95.128 95.411 95.656 95.916 96.206 96.513 96.796 97.076 97.371 97.598 97.911 98.171 98.468 98.741 99.053 99.316 99.611 99.938 100.173 100.516 100.766 101.086 101.388 101.693 101.996 102.308 102.551 102.783 103.028 103.276 103.508 103.728 103.956 104.198 104.443 104.703 104.906 105.133 105.376 105.611 105.866 106.073 106.328 106.558 106.783 107.026 107.263 107.491 107.688 107.928 108.131 108.338 108.556 108.753 108.976 109.206 109.396 109.583 109.793 109.986 110.156 110.318 110.496 110.678 110.823 110.993 111.113 111.293 111.456 111.618 111.778 111.933 112.041 112.183 112.293 112.433 112.563 112.698 112.813 112.946 113.058 113.133 113.281 113.348 113.451 113.556 113.661 113.763 113.878 113.963 114.023 114.113 114.218 114.283 114.393 114.461 114.538 114.633 114.678 114.746 114.806 114.868 114.918 115.016 115.028 115.086 115.156 115.188 115.206 115.261 115.298 115.328 116.607 116.45 116.084 115.488 115.531 115.549 115.527 115.53 115.559 115.581 115.62 115.679 115.782 115.857 115.931 115.946 115.971 115.986 116.036 116.116 116.153 116.246 117.036 117.178 116.188 116.236 116.301 116.396 116.433 116.483 116.543 116.591 116.628 116.641 116.653 116.678 116.696 116.716 116.718 116.741 116.763 116.776 116.823 116.836 116.881 116.921 116.973 117.003 117.013 117.076 117.098 117.121 117.151 117.173 117.211 117.243 117.266 117.301 117.346 117.371 117.411 117.446 117.458 117.476 117.528 117.528 117.541 117.573 117.596 117.626 117.633 117.668 117.701 117.688 117.698 117.696 117.696 117.686 117.681 117.673
29.6 29.615 29.61 29.608 29.603 29.603 29.615 29.613 29.693 29.69 29.725 29.74 29.72 29.71 29.683 29.625 29.583 29.555 29.533 29.55 29.583 29.58 29.508 29.518 29.543 29.568 29.603 29.593 29.538 29.465 29.428 29.425 29.455 29.508 29.55 29.568 29.558 29.523 29.46 29.403 29.35 29.323 29.38 29.573 29.725 29.765 29.813 29.813 29.783 29.773 29.755 29.75 29.763 29.823 29.84 29.903 29.933 29.855 29.79 29.685 29.703 29.685 29.735 29.813 29.838 32.055 31.778 31.583 32.593 34.008 35.585 34.483 34.385 34.588 34.783 34.958 35.125 35.325 35.538 36.805 38.228 37.183 36.183 36.503 36.83 37.758 39.028 39.148 39.253 39.573 39.918 40.248 40.593 40.935 41.248 41.585 41.92 42.273 42.628 42.975 43.338 43.693 44.07 44.423 44.758 45.123 45.458 45.81 46.153 46.5 46.823 47.178 47.52 47.873 48.203 48.55 48.858 49.19 49.533 49.863 50.178 50.525 50.863 51.223 51.568 51.918 52.263 52.605 52.963 53.3 53.638 53.998 54.32 54.66 54.943 55.23 55.518 56.613 57.59 57.698 61.09 60.533 61.075 60.543 60.535 60.553 60.563 60.545 60.87 61.148 62.9 62.488 62.793 63.92 64.573 65.575 65.285 65.643 66.073 66.535 67.003 67.52 68.01 68.523 69.055 69.648 70.16 70.695 71.273 71.843 72.398 72.943 73.518 74.098 74.65 75.223 75.82 76.393 76.99 77.48 78.028 78.568 79.095 79.588 80.113 80.58 81.03 81.485 81.955 82.323 82.788 83.185 83.578 84.013 84.34 84.765 85.165 85.515 85.85 86.255 86.64 87.033 87.388 87.728 88.068 88.42 88.738 89.053 89.37 89.558 89.93 91.613 92.706 91.306 91.601 92.011 92.408 92.648 92.881 93.198 93.491 93.781 94.066 94.403 94.668 94.921 95.236 95.501 95.763 96.038 96.326 96.616 96.918 97.198 97.456 97.768 98.021 98.333 98.576 98.893 99.178 99.428 99.731 100.003 100.318 100.623 100.918 101.248 101.528 101.836 102.153 102.416 102.643 102.906 103.121 103.376 103.606 103.808 104.051 104.268 104.551 104.776 105.016 105.251 105.483 105.718 105.946 106.181 106.443 106.661 106.913 107.158 107.373 107.621 107.793 108.003 108.263 108.466 108.681 108.901 109.113 109.316 109.511 109.726 109.931 110.128 110.258 110.458 110.613 110.768 110.946 111.086 111.248 111.401 111.551 111.688 111.831 111.973 112.118 112.258 112.398 112.526 112.671 112.818 112.908 113.018 113.126 113.253 113.341 113.473 113.553 113.643 113.756 113.841 113.926 114.043 114.111 114.196 114.296 114.383 114.466 114.558 114.626 114.681 114.761 114.818 114.878 114.941 115.011 115.063 115.106 115.193 115.236 115.258 115.286 115.328 115.358 115.971 116.478 115.856 115.522 115.554 115.56 115.516 115.526 115.57 115.615 115.638 115.689 115.754 115.834 115.899 115.935 115.948 115.986 116.048 116.076 116.126 116.143 116.138 116.668 117.251 116.518 116.218 116.283 116.353 116.408 116.471 116.543 116.561 116.613 116.641 116.663 116.671 116.686 116.723 116.711 116.726 116.753 116.781 116.808 116.823 116.858 116.903 116.931 116.986 117.028 117.068 117.083 117.101 117.136 117.173 117.186 117.216 117.243 117.278 117.311 117.358 117.391 117.411 117.436 117.466 117.506 117.503 117.531 117.536 117.556 117.573 117.603 117.608 117.641 117.653 117.653 117.676 117.661 117.671 117.648 117.648
29.578 29.588 29.595 29.593 29.555 29.595 29.57 29.573 29.63 29.648 29.665 29.715 29.748 29.723 29.66 29.655 29.593 29.568 29.488 29.505 29.513 29.498 29.448 29.45 29.485 29.55 29.585 29.553 29.553 29.478 29.4 29.413 29.435 29.51 29.58 29.553 29.553 29.533 29.495 29.343 29.305 29.305 29.355 29.585 29.758 29.723 29.778 29.793 29.755 29.708 29.705 29.713 29.755 29.75 29.77 29.81 29.9 29.825 29.765 29.67 29.608 29.595 29.72 29.75 29.78 30.058 31.005 31.998 33.223 34.18 34.365 34.39 34.408 34.605 34.8 34.96 35.128 35.33 36.368 36.975 37.078 37.093 37.29 37.725 36.9 37.183 37.48 38.09 39.99 40.033 40.098 40.26 40.658 40.99 41.343 41.69 42 42.368 42.73 43.083 43.45 43.788 44.128 44.498 44.86 45.203 45.563 45.9 46.255 46.603 46.955 47.29 47.625 47.975 48.315 48.658 48.983 49.3 49.655 49.983 50.333 50.678 50.995 51.355 51.673 52.033 52.385 52.73 53.055 53.413 53.78 54.115 54.41 54.725 55.01 55.283 55.878 57.348 57.313 57.845 60.248 61.01 60.54 60.53 60.525 60.535 60.56 60.555 60.55 60.64 62.993 62.983 62.985 63.723 64.738 65.548 65.403 65.825 66.178 66.65 67.15 67.623 68.128 68.64 69.185 69.713 70.3 70.843 71.405 71.945 72.51 73.09 73.653 74.218 74.805 75.385 75.928 76.503 77.023 77.605 78.098 78.645 79.198 79.713 80.158 80.653 81.13 81.59 81.998 82.42 82.785 83.22 83.65 84.063 84.425 84.805 85.19 85.58 85.965 86.348 86.733 87.073 87.433 87.803 88.155 88.493 88.803 89.115 89.448 89.645 90.345 91.741 91.373 91.426 91.716 92.161 92.496 92.723 92.966 93.281 93.576 93.866 94.191 94.486 94.756 95.066 95.328 95.578 95.866 96.168 96.471 96.751 97.028 97.298 97.583 97.856 98.168 98.416 98.746 99.033 99.303 99.581 99.843 100.133 100.428 100.766 101.061 101.353 101.676 102.006 102.298 102.491 102.756 102.996 103.258 103.473 103.676 103.911 104.123 104.388 104.631 104.871 105.098 105.321 105.581 105.826 106.078 106.321 106.526 106.788 107.013 107.258 107.493 107.716 107.921 108.153 108.366 108.578 108.838 109.058 109.251 109.428 109.661 109.838 110.036 110.203 110.398 110.586 110.706 110.876 111.041 111.206 111.343 111.496 111.643 111.786 111.928 112.083 112.206 112.366 112.451 112.613 112.776 112.881 113.003 113.101 113.246 113.358 113.446 113.561 113.658 113.746 113.846 113.956 114.031 114.101 114.201 114.308 114.393 114.463 114.533 114.626 114.703 114.773 114.848 114.896 114.968 115.031 115.096 115.148 115.241 115.253 115.298 115.336 115.366 115.398 116.108 116.851 115.952 115.528 115.572 115.566 115.554 115.511 115.53 115.587 115.645 115.709 115.751 115.785 115.848 115.909 115.969 115.988 116.041 116.106 116.166 116.141 116.181 116.181 116.213 117.051 117.448 116.378 116.268 116.353 116.408 116.478 116.531 116.581 116.588 116.648 116.663 116.701 116.693 116.708 116.728 116.751 116.773 116.756 116.808 116.831 116.843 116.888 116.928 116.968 117.018 117.041 117.078 117.098 117.128 117.161 117.168 117.186 117.236 117.253 117.276 117.331 117.366 117.383 117.418 117.453 117.463 117.501 117.478 117.503 117.528 117.531 117.541 117.578 117.591 117.621 117.613 117.621 117.623 117.621 117.621 117.591
29.558 29.54 29.568 29.523 29.538 29.525 29.505 29.513 29.553 29.615 29.658 29.688 29.725 29.695 29.64 29.628 29.598 29.555 29.51 29.493 29.475 29.468 29.425 29.44 29.463 29.563 29.538 29.555 29.535 29.433 29.4 29.373 29.393 29.473 29.528 29.545 29.533 29.523 29.455 29.333 29.29 29.308 29.31 29.555 29.713 29.708 29.755 29.735 29.71 29.673 29.665 29.69 29.728 29.7 29.718 29.79 29.8 29.773 29.703 29.633 29.555 29.63 29.685 29.718 29.8 30.513 31.16 32.525 33.843 34.775 34.33 34.228 34.42 34.623 34.813 34.978 35.175 35.4 36.698 37.6 37.088 37.168 37.855 37.453 37.648 38.078 37.728 37.83 38.13 38.473 40.68 40.755 40.868 40.995 41.395 41.76 42.123 42.49 42.838 43.175 43.528 43.895 44.235 44.585 44.968 45.303 45.66 46.018 46.34 46.705 47.053 47.403 47.765 48.118 48.45 48.788 49.128 49.478 49.815 50.138 50.48 50.815 51.143 51.49 51.818 52.155 52.503 52.863 53.205 53.548 53.875 54.208 54.525 54.808 55.078 55.325 56.373 57.468 57.345 58.703 60.458 60.953 60.523 60.553 60.558 60.583 60.575 60.558 60.54 60.713 63.335 63.54 63.395 63.725 64.85 65.133 65.845 65.955 66.313 66.76 67.253 67.728 68.263 68.745 69.315 69.878 70.388 70.97 71.493 72.085 72.653 73.215 73.77 74.363 74.96 75.483 76.065 76.633 77.185 77.66 78.22 78.753 79.283 79.82 80.295 80.755 81.198 81.638 82.065 82.473 82.873 83.283 83.72 84.098 84.503 84.888 85.265 85.638 86.028 86.4 86.76 87.15 87.513 87.898 88.195 88.525 88.858 89.148 89.475 89.678 90.998 91.366 91.238 91.528 91.811 92.238 92.586 92.813 93.041 93.383 93.636 93.961 94.261 94.581 94.901 95.141 95.426 95.713 96.008 96.306 96.571 96.873 97.111 97.451 97.751 97.998 98.263 98.583 98.888 99.173 99.443 99.716 100.016 100.283 100.588 100.896 101.196 101.521 101.841 102.111 102.346 102.623 102.886 103.133 103.356 103.543 103.776 103.991 104.251 104.471 104.728 104.966 105.228 105.446 105.711 105.931 106.191 106.446 106.658 106.921 107.136 107.388 107.588 107.816 108.061 108.276 108.493 108.731 108.951 109.138 109.321 109.558 109.751 109.968 110.156 110.321 110.521 110.661 110.838 111.011 111.156 111.286 111.448 111.606 111.748 111.868 112.031 112.171 112.296 112.428 112.548 112.698 112.843 112.958 113.076 113.223 113.341 113.433 113.526 113.626 113.743 113.833 113.933 114.041 114.118 114.223 114.298 114.386 114.448 114.546 114.628 114.698 114.763 114.836 114.906 114.988 115.058 115.103 115.173 115.246 115.281 115.326 115.368 115.411 115.438 116.248 116.616 115.976 115.545 115.582 115.594 115.599 115.58 115.567 115.606 115.624 115.684 115.751 115.78 115.812 115.878 115.939 115.979 116.043 116.118 116.138 116.168 116.186 116.171 116.241 116.186 116.356 117.313 117.086 116.276 116.318 116.388 116.458 116.521 116.563 116.603 116.631 116.666 116.703 116.701 116.706 116.731 116.743 116.756 116.773 116.806 116.836 116.851 116.861 116.933 116.943 116.983 117.018 117.028 117.071 117.106 117.133 117.156 117.178 117.201 117.233 117.276 117.318 117.343 117.368 117.403 117.433 117.438 117.453 117.458 117.453 117.488 117.511 117.513 117.533 117.536 117.548 117.576 117.586 117.573 117.576 117.576 117.578
29.485 29.538 29.515 29.508 29.508 29.518 29.448 29.458 29.495 29.558 29.63 29.695 29.735 29.685 29.67 29.66 29.62 29.583 29.555 29.488 29.438 29.433 29.428 29.43 29.53 29.558 29.483 29.525 29.448 29.395 29.355 29.373 29.38 29.448 29.485 29.548 29.518 29.538 29.47 29.365 29.313 29.285 29.278 29.45 29.655 29.688 29.743 29.718 29.703 29.67 29.643 29.648 29.695 29.72 29.675 29.678 29.72 29.708 29.63 29.585 29.538 29.65 29.645 29.778 29.923 30.82 31.58 35.083 34.335 34.465 34.233 34.235 34.43 34.628 34.808 34.97 35.188 35.873 39.353 37.253 37.08 37.18 37.25 37.453 37.918 38.103 38.2 38.663 38.225 38.468 38.735 39.058 40.133 41.558 41.583 41.76 42.16 42.568 42.96 43.283 43.638 43.98 44.338 44.763 45.053 45.413 45.768 46.108 46.468 46.85 47.183 47.535 47.9 48.253 48.595 48.943 49.29 49.628 49.965 50.325 50.643 50.995 51.323 51.65 51.993 52.33 52.67 52.985 53.358 53.693 54 54.32 54.625 54.875 55.125 55.798 56.978 57.133 57.383 61.203 60.763 60.61 60.538 60.57 60.558 60.578 60.578 60.57 60.555 60.555 62.685 64.44 64.133 63.898 64.735 65.383 66.595 66.125 66.53 66.913 67.385 67.858 68.378 68.873 69.453 70.015 70.573 71.108 71.63 72.215 72.79 73.343 73.933 74.463 75.073 75.615 76.223 76.773 77.288 77.788 78.305 78.85 79.41 79.9 80.403 80.838 81.285 81.785 82.153 82.57 82.975 83.375 83.783 84.203 84.575 84.978 85.345 85.743 86.125 86.485 86.835 87.19 87.593 87.93 88.283 88.645 88.88 89.245 89.515 89.725 92.083 91.781 91.343 91.581 91.898 92.358 92.638 92.871 93.148 93.431 93.731 94.026 94.371 94.671 94.968 95.251 95.511 95.831 96.141 96.388 96.708 96.961 97.308 97.546 97.823 98.101 98.411 98.733 99.001 99.306 99.563 99.873 100.126 100.416 100.771 101.043 101.343 101.668 101.976 102.213 102.486 102.733 102.981 103.241 103.431 103.666 103.883 104.158 104.366 104.618 104.856 105.071 105.318 105.578 105.781 106.046 106.293 106.518 106.771 107.013 107.238 107.493 107.728 107.953 108.173 108.403 108.638 108.858 109.066 109.248 109.493 109.666 109.876 110.058 110.243 110.443 110.598 110.761 110.931 111.121 111.258 111.391 111.578 111.691 111.816 111.983 112.131 112.273 112.361 112.496 112.701 112.788 112.908 113.043 113.151 113.291 113.416 113.553 113.631 113.736 113.831 113.948 114.043 114.136 114.198 114.296 114.383 114.478 114.546 114.633 114.686 114.781 114.861 114.936 114.983 115.063 115.128 115.196 115.266 115.308 115.358 115.401 115.443 115.461 116.458 116.881 115.701 115.511 115.568 115.591 115.595 115.619 115.619 115.637 115.666 115.713 115.758 115.787 115.828 115.869 115.937 115.985 116.06 116.101 116.141 116.158 116.203 116.221 116.243 116.246 116.286 116.206 116.843 117.528 116.826 116.316 116.396 116.431 116.501 116.551 116.596 116.616 116.663 116.693 116.711 116.716 116.743 116.743 116.763 116.781 116.796 116.821 116.846 116.856 116.891 116.908 116.968 116.991 117.041 117.063 117.096 117.111 117.138 117.138 117.188 117.191 117.248 117.251 117.313 117.338 117.366 117.398 117.411 117.433 117.433 117.446 117.456 117.461 117.488 117.468 117.501 117.491 117.508 117.551 117.543 117.536 117.528 117.528
29.458 29.495 29.495 29.49 29.49 29.455 29.388 29.403 29.45 29.52 29.568 29.633 29.703 29.663 29.63 29.645 29.615 29.568 29.513 29.475 29.443 29.408 29.425 29.433 29.485 29.49 29.54 29.47 29.368 29.37 29.325 29.353 29.393 29.42 29.448 29.508 29.483 29.498 29.473 29.418 29.318 29.288 29.3 29.415 29.59 29.655 29.685 29.683 29.68 29.655 29.615 29.658 29.693 29.69 29.695 29.665 29.675 29.663 29.6 29.525 29.498 29.613 29.768 29.9 30.14 30.958 32.22 37.185 35.198 34.163 34.048 34.245 34.443 34.625 34.795 34.988 35.233 36.283 38.48 37.383 37.19 37.258 37.31 37.713 38.085 38.17 38.283 38.805 38.565 38.693 38.86 39.115 39.41 39.685 40.615 42.268 42.265 42.583 42.945 43.36 43.72 44.095 44.458 44.845 45.178 45.538 45.893 46.218 46.598 46.96 47.328 47.683 48.06 48.385 48.758 49.103 49.458 49.813 50.168 50.485 50.823 51.158 51.488 51.838 52.188 52.515 52.835 53.18 53.525 53.843 54.16 54.455 54.705 54.935 55.278 57.045 57.255 57.073 58.633 59.898 61.055 60.533 60.555 60.568 60.568 60.563 60.56 60.538 60.543 60.553 61.005 64.908 64.383 64.26 64.58 65.58 65.855 66.865 66.698 67.125 67.583 68.063 68.495 69.028 69.583 70.103 70.688 71.23 71.81 72.33 72.885 73.515 74.02 74.593 75.16 75.72 76.318 76.838 77.38 77.908 78.42 78.99 79.503 79.985 80.495 80.973 81.398 81.813 82.24 82.658 83.07 83.473 83.86 84.29 84.67 85.048 85.47 85.82 86.228 86.598 86.91 87.285 87.66 88.033 88.383 88.713 89.005 89.333 89.505 89.848 91.933 91.558 91.418 91.658 92.031 92.466 92.716 92.923 93.203 93.523 93.798 94.151 94.463 94.753 95.053 95.326 95.676 95.973 96.248 96.523 96.791 97.108 97.371 97.683 97.971 98.261 98.601 98.836 99.176 99.393 99.708 99.991 100.266 100.601 100.853 101.218 101.526 101.808 102.098 102.376 102.598 102.871 103.121 103.313 103.566 103.738 103.998 104.246 104.456 104.686 104.938 105.173 105.418 105.693 105.926 106.183 106.406 106.673 106.908 107.133 107.371 107.621 107.846 108.061 108.286 108.521 108.728 108.951 109.168 109.391 109.591 109.793 109.998 110.173 110.366 110.531 110.726 110.878 111.046 111.193 111.353 111.496 111.656 111.783 111.943 112.086 112.196 112.323 112.468 112.633 112.758 112.846 112.991 113.103 113.256 113.338 113.493 113.576 113.698 113.826 113.931 114.031 114.101 114.206 114.293 114.408 114.473 114.551 114.628 114.701 114.778 114.866 114.941 115.006 115.083 115.138 115.231 115.288 115.346 115.381 115.421 115.478 115.493 116.671 116.918 115.828 115.543 115.563 115.616 115.618 115.622 115.616 115.661 115.696 115.745 115.777 115.815 115.838 115.891 115.949 116.008 116.048 116.089 116.128 116.156 116.191 116.213 116.283 116.321 116.326 116.298 116.311 116.331 117.136 117.318 116.418 116.371 116.428 116.483 116.536 116.588 116.616 116.656 116.706 116.726 116.738 116.746 116.733 116.751 116.793 116.791 116.823 116.838 116.866 116.878 116.923 116.951 116.981 117.016 117.053 117.061 117.096 117.123 117.136 117.156 117.178 117.208 117.231 117.266 117.288 117.326 117.348 117.361 117.393 117.406 117.403 117.403 117.431 117.411 117.426 117.431 117.458 117.438 117.446 117.483 117.476 117.488 117.468
29.445 29.47 29.468 29.453 29.45 29.428 29.373 29.41 29.448 29.45 29.51 29.62 29.64 29.65 29.65 29.63 29.595 29.568 29.525 29.488 29.418 29.408 29.37 29.413 29.458 29.438 29.485 29.358 29.37 29.33 29.338 29.318 29.35 29.413 29.418 29.433 29.433 29.463 29.47 29.435 29.315 29.33 29.285 29.388 29.58 29.63 29.665 29.683 29.658 29.65 29.605 29.603 29.618 29.63 29.633 29.628 29.64 29.63 29.543 29.47 29.56 29.525 29.863 30.023 30.598 31.665 37.733 33.693 34.903 34.043 34.048 34.248 34.448 34.615 34.785 34.998 35.298 38.008 39.255 37.66 37.228 37.35 37.523 37.945 38.06 38.21 38.348 38.92 38.898 38.933 39.068 40.125 39.723 39.815 40.078 40.343 40.998 43.065 43.215 43.34 43.728 44.135 44.558 44.923 45.28 45.638 46.018 46.368 46.725 47.088 47.478 47.823 48.208 48.58 48.948 49.295 49.653 50.013 50.368 50.695 51.038 51.36 51.7 52.045 52.36 52.705 53.03 53.37 53.665 54.003 54.293 54.53 54.795 55.063 56.06 57.068 56.885 57.045 59.11 60.733 60.925 60.548 60.56 60.59 60.583 60.588 60.553 60.52 60.52 60.545 60.798 62.233 64.928 64.793 64.785 65.593 66.173 66.445 66.965 67.355 67.745 68.218 68.69 69.253 69.725 70.27 70.838 71.358 71.935 72.51 73.06 73.628 74.188 74.76 75.29 75.858 76.43 76.908 77.48 77.985 78.498 79.065 79.595 80.093 80.6 81.073 81.503 81.898 82.348 82.753 83.175 83.59 83.993 84.398 84.77 85.165 85.568 85.91 86.315 86.693 87.023 87.418 87.74 88.1 88.425 88.743 89.05 89.383 89.55 90.165 91.59 91.851 91.476 91.738 92.136 92.541 92.746 92.996 93.286 93.578 93.921 94.231 94.521 94.853 95.133 95.501 95.761 96.076 96.348 96.623 96.971 97.233 97.533 97.798 98.113 98.453 98.716 98.993 99.258 99.576 99.833 100.118 100.448 100.701 101.038 101.343 101.671 101.956 102.228 102.503 102.753 103.033 103.203 103.428 103.631 103.903 104.093 104.341 104.563 104.811 105.041 105.286 105.548 105.778 106.061 106.308 106.551 106.771 107.016 107.266 107.533 107.741 107.963 108.178 108.433 108.636 108.868 109.076 109.301 109.506 109.713 109.928 110.101 110.321 110.446 110.656 110.813 111.001 111.146 111.291 111.451 111.598 111.733 111.883 112.053 112.181 112.298 112.426 112.581 112.703 112.808 112.926 113.106 113.196 113.313 113.451 113.543 113.676 113.783 113.886 113.986 114.088 114.203 114.298 114.393 114.468 114.553 114.626 114.706 114.778 114.866 114.931 115.006 115.083 115.168 115.246 115.301 115.353 115.401 115.451 115.501 115.528 116.713 116.481 115.798 115.641 115.606 115.618 115.646 115.667 115.643 115.675 115.717 115.764 115.802 115.827 115.864 115.92 115.959 116.003 116.081 116.11 116.145 116.178 116.206 116.233 116.288 116.321 116.328 116.358 116.323 116.361 116.338 116.473 117.268 117.193 116.396 116.398 116.443 116.516 116.578 116.578 116.658 116.696 116.706 116.743 116.721 116.758 116.773 116.788 116.803 116.816 116.848 116.858 116.888 116.901 116.948 116.981 117.006 117.031 117.056 117.096 117.098 117.121 117.158 117.168 117.181 117.201 117.226 117.241 117.278 117.303 117.328 117.346 117.358 117.371 117.376 117.371 117.378 117.381 117.386 117.406 117.401 117.383 117.391 117.411 117.413 117.428
29.44 29.44 29.433 29.41 29.413 29.393 29.368 29.363 29.39 29.403 29.49 29.545 29.598 29.645 29.615 29.598 29.593 29.57 29.533 29.49 29.44 29.383 29.358 29.383 29.38 29.405 29.38 29.33 29.355 29.355 29.32 29.313 29.368 29.38 29.423 29.43 29.425 29.443 29.42 29.39 29.29 29.275 29.333 29.363 29.583 29.6 29.615 29.593 29.583 29.568 29.568 29.588 29.588 29.62 29.61 29.658 29.61 29.533 29.473 29.393 29.503 29.673 30.005 31.878 30.885 32.325 33.948 34.743 33.985 33.875 34.063 34.26 34.443 34.6 34.805 34.995 36.048 41.71 37.463 37.68 37.81 39.665 37.8 38.078 38.128 38.223 38.603 40.843 39.003 39.073 39.185 40.11 41.843 44.833 43.908 40.563 40.805 41.02 41.868 43.92 44.02 44.205 44.543 44.98 45.405 45.795 46.153 46.51 46.888 47.265 47.643 48.028 48.393 48.773 49.133 49.513 49.878 50.228 50.578 50.923 51.245 51.583 51.928 52.26 52.595 52.915 53.24 53.563 53.878 54.158 54.42 54.673 54.903 56.543 57.403 57.043 56.88 58.353 60.058 60.923 60.665 60.55 60.548 60.56 60.568 60.558 60.548 60.53 60.525 60.663 61.278 62.413 64.25 65.133 65.103 65.418 66.65 66.69 67.85 67.578 67.988 68.413 68.893 69.42 69.95 70.498 71.005 71.533 72.085 72.66 73.2 73.755 74.353 74.863 75.408 75.98 76.52 77.068 77.56 78.095 78.623 79.183 79.7 80.208 80.688 81.17 81.628 82.02 82.495 82.905 83.323 83.718 84.128 84.513 84.898 85.29 85.69 86.053 86.415 86.793 87.15 87.518 87.853 88.203 88.498 88.768 89.128 89.41 89.6 90.993 91.72 91.248 91.563 91.843 92.276 92.593 92.806 93.063 93.373 93.688 93.978 94.306 94.641 94.953 95.273 95.606 95.886 96.203 96.463 96.801 97.098 97.378 97.671 97.958 98.253 98.563 98.833 99.121 99.428 99.701 99.981 100.271 100.548 100.866 101.176 101.463 101.788 102.058 102.361 102.638 102.891 103.111 103.341 103.548 103.743 103.983 104.206 104.443 104.683 104.933 105.178 105.451 105.668 105.933 106.181 106.433 106.678 106.918 107.151 107.398 107.643 107.871 108.098 108.331 108.536 108.783 108.993 109.221 109.413 109.638 109.831 110.013 110.248 110.398 110.578 110.743 110.958 111.086 111.231 111.403 111.561 111.698 111.841 112.013 112.151 112.258 112.383 112.531 112.638 112.781 112.896 112.988 113.156 113.263 113.411 113.531 113.626 113.721 113.838 113.978 114.061 114.178 114.283 114.386 114.473 114.543 114.633 114.703 114.783 114.856 114.936 115.021 115.093 115.163 115.256 115.321 115.368 115.413 115.476 115.523 115.556 117.286 116.638 115.928 115.763 115.711 115.723 115.673 115.716 115.708 115.69 115.736 115.765 115.805 115.847 115.893 115.928 115.969 116.02 116.099 116.124 116.139 116.166 116.201 116.263 116.283 116.308 116.363 116.361 116.398 116.378 116.398 116.406 116.373 116.741 117.611 116.981 116.388 116.461 116.496 116.558 116.601 116.618 116.686 116.728 116.736 116.761 116.758 116.781 116.778 116.821 116.813 116.833 116.863 116.888 116.888 116.921 116.968 116.993 117.001 117.043 117.066 117.088 117.093 117.106 117.128 117.146 117.173 117.181 117.193 117.236 117.263 117.276 117.301 117.301 117.311 117.293 117.343 117.313 117.298 117.331 117.333 117.316 117.336 117.336 117.348 117.361 117.343
29.395 29.405 29.428 29.395 29.393 29.373 29.34 29.348 29.37 29.4 29.455 29.495 29.535 29.59 29.608 29.58 29.573 29.548 29.55 29.51 29.44 29.38 29.328 29.318 29.378 29.343 29.3 29.323 29.33 29.348 29.318 29.32 29.35 29.388 29.4 29.385 29.378 29.438 29.398 29.365 29.253 29.235 29.215 29.363 29.508 29.558 29.563 29.578 29.565 29.54 29.583 29.555 29.568 29.62 29.54 29.513 29.495 29.468 29.38 29.47 29.49 29.895 31.07 31.055 31.603 33.22 33.993 35.15 33.865 33.875 34.07 34.25 34.405 34.573 34.793 34.995 36.15 36.16 36.983 37.668 38.213 39.33 40.565 40.6 38.2 38.37 39.395 39.328 39.12 39.188 39.78 39.798 44.153 45.325 44.303 43.285 41.06 41.255 41.553 41.86 42.395 44.503 45.06 45.24 45.395 45.838 46.26 46.663 47.068 47.453 47.835 48.215 48.583 48.963 49.345 49.733 50.103 50.448 50.795 51.143 51.495 51.815 52.158 52.5 52.82 53.133 53.455 53.765 54.055 54.3 54.573 54.805 55.048 55.778 57.11 56.735 57.278 59.418 60.123 61.05 60.51 60.553 60.548 60.553 60.528 60.53 60.538 60.523 60.61 61.255 62.135 63.04 64.043 66.113 65.743 65.743 66.413 67.113 67.61 67.885 68.233 68.673 69.148 69.608 70.148 70.683 71.223 71.755 72.293 72.878 73.398 73.908 74.455 75.04 75.565 76.11 76.655 77.183 77.713 78.258 78.75 79.303 79.81 80.308 80.79 81.283 81.75 82.168 82.623 83.035 83.435 83.843 84.243 84.628 85.035 85.433 85.798 86.153 86.55 86.918 87.265 87.618 87.978 88.283 88.575 88.87 89.183 89.41 89.743 92.14 92.218 91.383 91.658 91.963 92.383 92.673 92.901 93.193 93.471 93.766 94.091 94.428 94.741 95.081 95.416 95.711 96.026 96.291 96.621 96.911 97.208 97.508 97.781 98.113 98.423 98.693 98.993 99.281 99.568 99.871 100.128 100.416 100.698 101.018 101.306 101.638 101.908 102.213 102.508 102.781 103.026 103.238 103.411 103.666 103.893 104.136 104.343 104.568 104.838 105.061 105.346 105.536 105.818 106.058 106.296 106.561 106.788 107.031 107.268 107.513 107.746 107.983 108.223 108.468 108.686 108.893 109.108 109.316 109.526 109.751 109.948 110.181 110.313 110.538 110.691 110.876 111.018 111.176 111.333 111.498 111.653 111.786 111.951 112.101 112.213 112.343 112.501 112.628 112.728 112.861 113.016 113.133 113.218 113.361 113.451 113.573 113.728 113.826 113.938 114.028 114.146 114.268 114.366 114.463 114.528 114.628 114.706 114.798 114.878 114.948 115.023 115.106 115.168 115.258 115.343 115.363 115.443 115.493 115.553 115.591 117.201 117.041 115.888 115.813 115.791 115.791 115.793 115.781 115.766 115.765 115.773 115.809 115.85 115.891 115.941 115.978 115.992 116.055 116.103 116.141 116.166 116.197 116.235 116.259 116.306 116.318 116.353 116.393 116.381 116.436 116.448 116.431 116.436 116.461 116.473 117.226 117.656 116.516 116.433 116.483 116.528 116.578 116.626 116.668 116.708 116.716 116.761 116.758 116.778 116.776 116.798 116.826 116.843 116.858 116.868 116.866 116.898 116.951 116.971 116.983 117.016 117.048 117.058 117.083 117.091 117.118 117.126 117.126 117.143 117.158 117.181 117.208 117.233 117.218 117.251 117.268 117.258 117.286 117.281 117.248 117.251 117.248 117.281 117.256 117.256 117.256 117.288 117.293
29.373 29.35 29.37 29.343 29.353 29.368 29.335 29.33 29.375 29.383 29.41 29.445 29.475 29.545 29.563 29.563 29.54 29.555 29.553 29.51 29.458 29.38 29.345 29.303 29.33 29.308 29.323 29.33 29.335 29.323 29.303 29.305 29.355 29.38 29.373 29.385 29.355 29.423 29.36 29.318 29.208 29.2 29.195 29.373 29.49 29.478 29.473 29.523 29.523 29.538 29.595 29.498 29.553 29.518 29.55 29.48 29.453 29.415 29.455 29.635 29.503 30.518 32.55 31.105 32.128 33.503 35.948 33.855 33.703 34.153 34.073 34.248 34.393 34.593 35.048 35.708 36.15 36.158 36.415 37.423 38.058 39.173 39.06 39.178 41.125 41.855 39.215 39.403 39.225 39.328 41.183 41.423 44.88 44.913 43.748 42.858 41.18 41.44 41.76 42.188 42.518 42.855 43.3 45.31 45.855 46.275 46.323 46.738 47.153 47.598 48.018 48.413 48.788 49.175 49.558 49.955 50.338 50.693 51.045 51.403 51.74 52.073 52.415 52.745 53.053 53.363 53.653 53.97 54.228 54.475 54.71 54.963 55.278 57.11 56.693 56.723 58.485 59.763 60.483 60.865 60.713 60.668 60.575 60.603 60.58 60.573 60.548 60.518 61.17 62.198 63.235 64.493 64.855 65.26 66.11 66.043 66.345 67.46 68.338 68.468 68.508 68.963 69.398 69.885 70.363 70.87 71.388 71.978 72.49 73.033 73.58 74.098 74.638 75.173 75.69 76.26 76.763 77.308 77.85 78.398 78.883 79.438 79.948 80.448 80.92 81.385 81.853 82.323 82.76 83.168 83.575 83.995 84.375 84.758 85.155 85.545 85.928 86.27 86.655 87.02 87.375 87.75 88.035 88.358 88.635 88.93 89.245 89.41 89.913 91.813 91.678 91.476 91.708 92.138 92.508 92.761 92.971 93.263 93.573 93.868 94.243 94.566 94.916 95.218 95.528 95.836 96.126 96.461 96.761 97.043 97.338 97.636 97.973 98.261 98.571 98.853 99.111 99.408 99.718 99.991 100.248 100.581 100.863 101.161 101.473 101.738 102.063 102.373 102.633 102.861 103.116 103.338 103.556 103.776 103.996 104.233 104.468 104.736 104.978 105.238 105.438 105.683 105.943 106.171 106.431 106.676 106.923 107.166 107.416 107.641 107.871 108.098 108.341 108.583 108.811 109.013 109.253 109.456 109.643 109.863 110.068 110.243 110.448 110.611 110.776 110.963 111.121 111.318 111.463 111.601 111.733 111.886 112.053 112.171 112.321 112.456 112.606 112.701 112.848 112.971 113.086 113.196 113.331 113.421 113.571 113.673 113.788 113.906 113.993 114.101 114.233 114.323 114.433 114.528 114.621 114.726 114.788 114.861 114.943 115.028 115.098 115.168 115.263 115.341 115.378 115.446 115.513 115.571 115.671 116.718 116.613 115.883 115.868 115.816 115.833 115.816 115.816 115.833 115.828 115.876 115.872 115.946 115.974 116.015 116.013 116.048 116.103 116.124 116.144 116.174 116.198 116.261 116.278 116.306 116.328 116.326 116.376 116.406 116.423 116.436 116.488 116.468 116.426 116.466 116.458 116.546 117.626 117.233 116.413 116.473 116.528 116.566 116.613 116.648 116.696 116.716 116.733 116.761 116.763 116.793 116.813 116.821 116.818 116.836 116.863 116.881 116.896 116.913 116.943 116.981 116.978 117.018 117.023 117.038 117.053 117.071 117.073 117.083 117.113 117.121 117.133 117.151 117.163 117.156 117.178 117.201 117.213 117.198 117.216 117.196 117.183 117.191 117.193 117.201 117.181 117.188 117.188 117.218
29.345 29.325 29.318 29.308 29.295 29.345 29.3 29.363 29.37 29.398 29.413 29.468 29.473 29.513 29.53 29.535 29.535 29.538 29.538 29.535 29.465 29.385 29.32 29.308 29.288 29.315 29.308 29.338 29.355 29.3 29.293 29.305 29.368 29.368 29.35 29.365 29.373 29.395 29.32 29.23 29.16 29.118 29.168 29.33 29.405 29.373 29.388 29.493 29.458 29.518 29.513 29.515 29.513 29.46 29.43 29.46 29.443 29.398 29.398 29.653 30.013 30.055 30.443 31.468 32.788 34.483 35.47 33.69 33.708 33.888 34.055 34.203 34.345 34.553 42.493 42.015 36.115 36.183 36.435 37.638 38.538 38.043 38.755 39.625 39.658 44.283 42.065 39.285 39.363 39.458 39.66 44.903 45.463 44.42 43.335 41.23 41.325 41.545 42.96 43.295 43.92 43.21 43.48 43.828 44.253 46.395 46.908 47.005 47.308 47.665 48.133 48.603 49.025 49.445 49.853 50.225 50.583 50.953 51.288 51.66 51.995 52.315 52.658 52.983 53.268 53.578 53.883 54.123 54.385 54.635 54.878 55.24 56.51 56.755 56.553 59.303 60.125 60.225 60.6 60.84 62.953 62.905 60.863 60.655 60.618 60.605 60.565 61.188 62.19 63.493 64.708 64.805 65.278 65.195 66.788 66.75 66.698 67.35 68.04 68.313 69.155 69.25 69.67 70.145 70.613 71.103 71.658 72.17 72.735 73.288 73.79 74.318 74.823 75.345 75.883 76.408 76.93 77.43 78.01 78.52 79.045 79.555 80.068 80.56 81.04 81.508 81.963 82.408 82.865 83.315 83.728 84.143 84.525 84.945 85.285 85.67 86.028 86.375 86.728 87.1 87.455 87.843 88.163 88.5 88.733 89.055 89.308 90.03 90.535 91.395 91.345 91.556 91.811 92.263 92.616 92.863 93.103 93.401 93.703 94.038 94.361 94.733 95.033 95.351 95.701 95.983 96.291 96.591 96.921 97.203 97.513 97.848 98.128 98.441 98.723 98.993 99.303 99.583 99.836 100.123 100.418 100.718 101.008 101.306 101.578 101.898 102.173 102.488 102.756 103.003 103.223 103.476 103.703 103.908 104.141 104.371 104.646 104.898 105.126 105.321 105.563 105.866 106.056 106.308 106.543 106.798 107.036 107.283 107.531 107.761 108.008 108.223 108.461 108.711 108.928 109.146 109.358 109.571 109.773 110.013 110.136 110.346 110.556 110.738 110.896 111.051 111.263 111.383 111.566 111.716 111.866 111.966 112.133 112.281 112.426 112.576 112.683 112.808 112.963 113.081 113.168 113.293 113.406 113.543 113.666 113.761 113.881 113.978 114.083 114.211 114.301 114.423 114.523 114.616 114.698 114.781 114.883 114.958 115.026 115.123 115.188 115.271 115.348 115.401 115.463 115.528 115.573 115.703 116.528 116.653 116.006 115.893 115.868 115.893 115.866 115.881 115.886 115.901 115.936 115.952 115.987 116.006 116.043 116.084 116.082 116.119 116.167 116.178 116.182 116.217 116.267 116.301 116.309 116.329 116.348 116.371 116.396 116.411 116.441 116.491 116.513 116.511 116.476 116.463 116.498 116.506 116.788 117.748 116.991 116.461 116.498 116.531 116.586 116.621 116.686 116.708 116.723 116.758 116.771 116.783 116.821 116.811 116.826 116.853 116.843 116.863 116.881 116.878 116.911 116.938 116.946 116.966 116.988 117.008 117.028 117.033 117.033 117.041 117.038 117.043 117.081 117.061 117.083 117.106 117.118 117.131 117.153 117.148 117.133 117.123 117.133 117.121 117.111 117.093 117.123 117.116 117.098 117.116
29.293 29.303 29.285 29.293 29.293 29.328 29.303 29.335 29.38 29.393 29.418 29.45 29.433 29.453 29.51 29.515 29.523 29.515 29.553 29.49 29.423 29.398 29.315 29.298 29.325 29.285 29.295 29.328 29.325 29.285 29.273 29.28 29.335 29.328 29.3 29.333 29.313 29.35 29.278 29.153 29.133 29.108 29.195 29.328 29.398 29.343 29.348 29.445 29.438 29.463 29.495 29.563 29.488 29.46 29.458 29.433 29.403 29.433 29.45 29.548 29.773 30.275 31.38 32.48 33.633 34.863 33.665 35.208 33.71 33.893 34.053 34.165 34.313 34.5 41.17 42.365 37.53 36.91 37.15 38.953 41.815 42.913 38.228 38.713 40.215 42.158 39.713 39.39 39.465 39.558 39.748 44.61 44.958 43.825 42.873 42.745 42.855 42.8 43.4 43.653 44.01 44.055 43.865 44.175 44.483 44.808 45.143 46.775 48.095 48.77 48.678 48.72 49.15 49.623 50.06 50.473 50.848 51.225 51.56 51.905 52.238 52.575 52.915 53.213 53.51 53.78 54.053 54.29 54.533 54.793 57.345 56.405 56.62 56.415 59.868 59.488 59.6 60.245 60.185 60.663 60.433 60.513 60.523 60.553 60.598 60.658 60.99 62.035 63.49 64.333 64.455 64.868 64.955 65.073 65.628 67.52 67.153 67.343 68.56 68.7 70.208 69.548 69.993 70.473 70.92 71.39 71.883 72.418 72.955 73.473 73.975 74.498 74.995 75.575 76.065 76.573 77.1 77.625 78.16 78.665 79.193 79.673 80.195 80.71 81.19 81.66 82.118 82.558 83.005 83.448 83.845 84.243 84.625 84.998 85.36 85.763 86.163 86.528 86.903 87.265 87.605 87.908 88.22 88.465 88.695 89.003 89.435 90.768 92.7 91.435 91.433 91.655 91.978 92.42 92.718 92.98 93.26 93.543 93.868 94.193 94.545 94.883 95.205 95.528 95.823 96.165 96.465 96.793 97.093 97.365 97.718 97.973 98.303 98.583 98.875 99.2 99.435 99.723 100 100.283 100.573 100.858 101.18 101.418 101.73 102.02 102.34 102.6 102.863 103.098 103.353 103.598 103.815 104.02 104.258 104.518 104.78 105.015 105.23 105.45 105.72 105.941 106.206 106.423 106.668 106.896 107.163 107.383 107.653 107.903 108.108 108.376 108.603 108.826 109.013 109.248 109.486 109.701 109.911 110.093 110.283 110.473 110.676 110.858 110.991 111.176 111.321 111.506 111.663 111.803 111.946 112.103 112.241 112.393 112.521 112.661 112.776 112.926 113.041 113.151 113.291 113.393 113.513 113.658 113.753 113.858 113.956 114.058 114.191 114.288 114.423 114.493 114.573 114.678 114.781 114.866 114.958 115.033 115.108 115.173 115.283 115.348 115.403 115.471 115.536 115.593 115.798 116.441 117.431 115.913 115.951 115.911 115.938 115.933 115.933 115.953 115.953 116.013 116.018 116.046 116.063 116.053 116.091 116.116 116.143 116.182 116.209 116.22 116.246 116.282 116.322 116.334 116.35 116.368 116.368 116.396 116.418 116.421 116.446 116.473 116.526 116.523 116.533 116.501 116.528 116.528 116.581 117.388 117.718 116.658 116.483 116.513 116.556 116.596 116.656 116.668 116.718 116.736 116.756 116.781 116.781 116.811 116.828 116.833 116.851 116.846 116.876 116.863 116.863 116.888 116.913 116.921 116.938 116.963 116.963 116.978 116.998 116.986 116.996 117.008 117.011 117.026 117.036 117.023 117.031 117.053 117.088 117.061 117.068 117.036 117.051 117.036 117.023 117.006 117.028 117.016 117.031 117.011
29.268 29.265 29.248 29.268 29.275 29.303 29.278 29.333 29.4 29.413 29.388 29.413 29.433 29.435 29.463 29.5 29.468 29.518 29.525 29.5 29.43 29.37 29.368 29.305 29.31 29.3 29.278 29.3 29.248 29.213 29.283 29.298 29.303 29.318 29.288 29.313 29.31 29.363 29.185 29.115 29.098 29.135 29.178 29.26 29.303 29.313 29.343 29.37 29.46 29.45 29.45 29.47 29.425 29.42 29.388 29.383 29.348 29.4 29.428 29.633 32.16 31.52 31.915 39.058 33.365 34.803 33.515 36.72 33.713 33.875 34.003 34.12 34.28 41.835 44.245 42.27 40.838 37.365 37.578 41.313 42.418 42.483 41.38 38.438 40.873 39.91 39.498 39.525 39.573 39.653 44.775 45.29 44.438 43.37 40.885 41.718 42.99 43.403 43.825 43.773 44.018 44.728 44.405 44.55 44.728 45.035 45.383 45.693 46.1 47.083 49.205 49.735 49.498 49.825 50.215 50.668 51.11 51.473 51.853 52.165 52.51 52.82 53.14 53.438 53.708 53.968 54.215 54.44 54.703 56.558 56.795 56.67 56.28 59.258 59.733 59.218 60.483 59.78 59.923 60.24 60.35 60.39 60.478 60.495 60.525 60.623 61.79 63.198 63.768 64.433 64.703 64.653 64.843 65.308 65.975 68.41 68.55 67.725 68.323 69.235 69.643 69.975 70.308 70.79 71.263 71.7 72.195 72.675 73.22 73.708 74.223 74.738 75.225 75.728 76.23 76.753 77.29 77.793 78.325 78.805 79.328 79.84 80.365 80.868 81.345 81.795 82.24 82.663 83.078 83.53 83.91 84.328 84.743 85.195 85.54 85.913 86.25 86.633 86.913 87.218 87.553 88.053 89.098 90.185 90.795 91.085 91.453 90.933 91.325 92.015 91.565 91.773 92.193 92.57 92.848 93.143 93.395 93.745 94.055 94.4 94.74 95.063 95.388 95.678 96.023 96.33 96.63 96.958 97.253 97.598 97.883 98.185 98.448 98.713 99.033 99.3 99.598 99.883 100.163 100.46 100.72 101.025 101.278 101.565 101.888 102.188 102.458 102.72 103 103.253 103.49 103.713 103.91 104.163 104.413 104.673 104.918 105.103 105.353 105.66 105.86 106.083 106.306 106.563 106.793 107.041 107.271 107.521 107.756 107.988 108.241 108.473 108.698 108.911 109.156 109.393 109.588 109.798 110.001 110.206 110.411 110.591 110.793 110.923 111.118 111.278 111.418 111.591 111.733 111.893 112.038 112.198 112.343 112.451 112.621 112.741 112.876 113.008 113.133 113.253 113.381 113.476 113.616 113.723 113.803 113.931 114.058 114.173 114.261 114.373 114.478 114.563 114.683 114.763 114.853 114.938 115.023 115.106 115.176 115.278 115.343 115.406 115.478 115.556 115.583 116.076 116.651 116.721 115.916 115.953 115.948 115.998 115.971 115.998 115.998 116.031 116.081 116.088 116.116 116.148 116.111 116.141 116.159 116.186 116.2 116.224 116.268 116.291 116.306 116.339 116.363 116.366 116.386 116.398 116.403 116.413 116.431 116.436 116.476 116.488 116.528 116.586 116.578 116.563 116.531 116.573 116.491 116.536 117.463 117.416 116.473 116.501 116.528 116.581 116.633 116.666 116.693 116.736 116.763 116.783 116.786 116.793 116.811 116.816 116.813 116.821 116.853 116.838 116.828 116.853 116.873 116.888 116.896 116.916 116.941 116.926 116.923 116.923 116.946 116.946 116.943 116.956 116.951 116.966 116.951 116.981 116.988 116.993 116.983 116.981 116.968 116.966 116.926 116.913 116.928 116.916 116.913 116.906
