ncols 407
nrows 31
xllcorner    249010
yllcorner    140300
cellsize     2
NODATA_value -9999
139.924 139.977 140.044 140.112 140.164 140.219 140.244 140.282 140.327 140.367 140.407 140.422 140.474 140.512 140.507 140.517 140.547 140.552 140.559 140.574 140.604 140.612 140.642 140.637 140.654 140.657 140.659 140.672 140.634 140.639 140.667 140.662 140.664 140.682 140.674 140.652 140.677 140.694 140.714 140.682 140.649 140.582 140.407 140.967 142.617 145.149 145.657 144.974 145.494 145.869 145.087 144.487 145.167 145.249 146.062 144.584 141.327 143.082 144.677 144.759 144.269 142.662 142.152 143.929 142.174 143.867 143.539 143.494 143.207 143.554 144.004 142.577 141.792 141.752 141.747 141.744 141.312 141.827 141.634 140.084 140.397 141.144 141.069 140.382 140.337 140.332 139.822 139.172 139.532 138.697 138.334 137.672 137.607 137.572 137.587 136.912 137.179 135.779 136.424 137.057 135.419 135.214 135.057 134.909 134.969 134.712 134.399 133.407 133.234 133.344 133.179 132.504 131.519 131.572 130.297 129.954 124.369 126.019 128.392 128.394 128.602 128.727 127.642 127.492 127.019 125.584 125.449 126.034 125.299 126.167 125.147 125.049 124.017 123.232 121.634 121.532 122.267 119.164 120.187 119.244 117.927 116.747 116.997 117.059 116.529 116.572 115.734 115.049 114.189 113.507 112.904 112.394 111.659 111.394 111.177 109.394 109.634 109.969 108.514 107.997 107.144 106.639 107.339 105.914 105.174 104.272 104.879 103.647 102.549 101.547 101.169 101.797 100.019 98.989 97.872 97.934 97.137 96.149 94.577 93.554 92.482 91.502 91.209 90.887 89.507 88.242 85.162 85.642 86.552 85.077 83.387 82.174 81.642 80.147 79.167 78.192 78.539 77.697 77.574 75.202 75.374 75.327 75.169 72.654 72.602 72.749 71.102 72.149 67.004 70.862 71.217 70.987 69.674 69.204 66.404 61.462 61.024 60.697 60.384 60.299 60.539 60.922 60.519 59.322 57.894 58.022 58.867 57.622 56.847 56.632 56.412 56.292 56.099 56.047 55.934 55.879 55.784 55.767 55.702 55.687 55.657 55.614 55.519 55.422 55.639 55.594 55.529 55.494 55.519 55.547 55.522 55.587 55.612 55.669 55.707 55.754 55.829 55.937 56.029 56.112 56.217 56.327 56.382 56.442 56.522 56.572 56.669 56.827 56.844 56.739 57.167 57.952 59.269 58.432 58.114 58.792 59.269 57.219 56.892 56.887 56.922 56.949 56.947 56.992 56.977 57.012 57.027 57.037 57.024 57.037 57.047 57.034 57.067 57.084 57.102 57.117 57.114 57.159 57.189 57.219 57.284 57.342 57.384 57.434 57.529 57.667 57.699 57.722 57.712 57.694 57.954 58.779 58.959 58.897 59.132 58.319 58.317 58.427 58.599 58.754 58.907 58.999 59.232 59.967 61.389 61.359 61.122 61.124 61.119 61.519 61.547 62.114 62.289 62.252 63.409 62.569 62.804 62.687 62.189 61.867 61.659 61.507 61.424 61.324 61.392 61.662 61.622 61.714 61.979 62.564 63.282 64.584 64.044 63.919 64.104 64.234 64.404 64.589 64.782 64.972 65.207 65.422 65.672 65.952 66.229 66.504 66.804 67.062 67.349 67.647 67.929 68.187 68.447 68.687 68.887 69.067 69.202 69.379 69.512 69.699 69.849 69.997 70.177 70.344 70.497 70.627 70.764 70.894 71.034 71.142 71.262 71.382 71.489 71.599 71.732 71.837 71.967 72.062 72.182 72.277 72.392 72.487 72.624 72.719 72.817 72.929 73.039
140.017 140.087 140.132 140.197 140.239 140.287 140.319 140.347 140.379 140.427 140.464 140.484 140.512 140.549 140.572 140.584 140.604 140.624 140.644 140.662 140.659 140.682 140.679 140.687 140.694 140.692 140.709 140.712 140.702 140.722 140.717 140.724 140.724 140.742 140.754 140.749 140.744 140.779 140.804 140.767 140.729 140.634 140.524 141.242 142.777 145.059 145.732 145.064 145.362 145.819 145.599 144.914 145.687 143.537 144.817 145.404 141.689 143.829 144.607 144.984 143.244 141.849 141.939 144.324 143.962 143.924 143.877 144.709 143.679 143.367 143.009 142.662 142.549 142.194 141.989 141.882 140.654 142.012 141.582 141.499 140.627 140.414 139.927 140.142 140.047 140.379 139.824 139.774 139.859 138.994 137.822 138.514 138.452 138.037 138.199 137.422 136.549 136.689 136.934 135.877 135.797 134.747 135.089 135.304 134.812 135.164 135.009 133.224 134.272 133.689 132.939 132.057 131.689 131.887 130.427 126.747 123.664 123.797 127.099 127.432 128.382 128.354 128.562 127.562 126.462 126.474 126.154 126.747 126.167 125.477 124.879 124.074 123.707 123.169 122.324 121.414 122.282 120.774 120.059 118.517 118.492 118.179 117.957 117.147 116.297 116.442 115.402 114.494 114.522 113.192 112.129 111.967 111.934 112.054 110.874 110.124 110.907 110.832 108.954 108.502 106.627 106.609 106.089 105.989 104.862 104.397 103.797 103.609 102.492 101.422 101.069 100.432 100.322 99.394 98.292 97.057 96.634 96.007 95.472 93.847 92.319 92.252 91.517 91.084 89.924 88.329 85.842 86.099 85.227 85.219 83.564 82.354 81.179 80.562 79.904 79.779 77.804 78.697 78.977 76.732 75.104 73.559 74.002 73.417 73.087 72.997 72.472 71.732 71.689 72.507 71.429 67.909 68.807 70.392 66.637 61.284 61.104 60.722 60.444 60.249 60.209 60.229 60.577 60.019 58.009 57.762 58.552 57.994 56.799 56.572 56.382 56.192 56.082 55.987 55.887 55.799 55.719 55.669 55.634 55.624 55.622 55.579 55.547 55.427 55.627 55.569 55.464 55.509 55.567 55.552 55.544 55.584 55.617 55.647 55.687 55.732 55.814 55.942 56.022 56.082 56.169 56.267 56.357 56.429 56.499 56.562 56.577 56.617 56.657 56.764 57.782 56.794 57.762 58.852 58.194 58.394 58.549 57.199 56.957 56.834 56.887 56.892 56.932 56.934 56.942 56.964 56.972 56.997 56.967 56.977 56.989 57.014 57.037 57.042 57.047 57.047 57.082 57.124 57.124 57.179 57.227 57.272 57.317 57.382 57.522 57.664 57.839 57.999 57.934 58.809 58.664 58.674 58.467 58.659 58.277 58.407 58.582 58.747 58.907 59.097 59.224 59.332 60.397 61.679 61.119 61.162 61.214 61.217 61.182 62.174 63.747 62.482 62.562 62.494 62.609 62.739 62.634 62.364 61.977 61.709 61.599 61.462 61.347 61.432 61.644 61.894 61.662 61.624 62.392 64.504 64.314 64.387 64.057 64.229 64.354 64.497 64.649 64.857 65.047 65.247 65.472 65.712 65.974 66.229 66.502 66.779 67.029 67.342 67.609 67.899 68.179 68.442 68.704 68.932 69.092 69.254 69.397 69.529 69.684 69.819 69.967 70.122 70.284 70.419 70.577 70.699 70.842 70.974 71.094 71.217 71.317 71.437 71.534 71.674 71.789 71.899 72.007 72.107 72.212 72.327 72.424 72.532 72.654 72.757 72.862 72.952 73.059
140.097 140.164 140.227 140.302 140.329 140.344 140.389 140.402 140.457 140.492 140.514 140.554 140.592 140.574 140.609 140.644 140.649 140.679 140.684 140.719 140.719 140.729 140.739 140.742 140.754 140.727 140.772 140.749 140.769 140.787 140.782 140.789 140.809 140.819 140.807 140.839 140.847 140.847 140.859 140.852 140.817 140.707 140.627 141.467 142.759 145.112 144.614 143.807 145.789 145.304 145.647 145.264 145.109 145.262 145.122 145.062 143.232 142.772 144.354 144.564 144.387 144.642 145.102 144.594 144.112 143.474 143.559 143.714 142.394 143.452 144.054 143.072 142.919 141.762 141.797 141.992 141.652 142.527 141.397 141.747 141.832 142.254 141.247 140.577 140.487 140.114 140.479 140.419 139.719 138.904 137.842 138.737 138.447 138.702 138.454 138.624 137.427 136.484 137.074 135.789 136.167 135.917 135.419 136.054 135.157 134.649 134.699 133.824 134.144 134.004 133.242 132.194 131.479 129.664 126.894 124.217 123.712 123.302 123.462 125.547 127.934 128.259 127.802 128.414 127.429 127.457 126.904 126.927 126.689 124.709 121.347 124.582 123.709 122.809 123.232 122.504 119.862 119.672 121.184 120.469 119.182 118.702 118.827 117.717 117.282 116.432 117.514 115.359 114.974 115.139 114.262 112.349 112.594 111.127 110.954 111.249 111.132 110.117 109.754 108.092 107.489 107.194 107.504 106.147 103.719 103.859 104.199 103.739 102.029 101.912 101.907 101.134 99.989 100.392 99.364 97.814 97.204 96.014 96.042 95.104 93.607 92.084 91.649 91.352 89.124 88.007 87.209 86.912 86.552 85.184 84.602 83.692 81.462 81.229 80.357 77.464 77.009 78.347 76.872 76.274 77.462 73.609 73.362 73.392 72.894 72.972 72.304 72.322 71.742 71.764 69.102 65.434 69.959 70.012 66.134 61.522 61.107 60.837 60.462 60.197 60.124 59.967 60.552 60.282 58.577 57.539 58.117 58.154 56.769 56.507 56.319 56.114 55.987 55.894 55.792 55.707 55.647 55.582 55.564 55.577 55.582 55.554 55.317 55.502 55.567 55.534 55.527 55.517 55.539 55.557 55.542 55.579 55.587 55.639 55.734 55.762 55.817 55.907 55.992 56.037 56.142 56.239 56.324 56.399 56.477 56.529 56.564 56.562 56.542 56.664 56.734 56.799 57.554 59.232 58.249 58.674 59.114 57.904 56.917 56.814 56.804 56.859 56.877 56.894 56.894 56.907 56.917 56.899 56.947 56.947 56.987 56.977 56.987 56.999 57.037 57.037 57.049 57.092 57.104 57.139 57.202 57.242 57.242 57.562 58.179 59.077 58.677 59.039 58.947 58.202 58.104 58.019 58.189 58.379 58.532 58.712 58.917 59.084 59.312 59.469 59.634 60.342 61.462 61.837 61.259 61.344 61.342 61.377 61.437 61.987 62.499 62.439 62.802 64.324 62.897 63.217 62.542 62.037 61.749 61.607 61.504 61.389 61.387 61.572 61.714 61.577 61.857 62.299 63.359 64.039 64.947 64.212 64.339 64.464 64.594 64.759 64.912 65.084 65.277 65.502 65.724 65.979 66.224 66.497 66.752 67.032 67.314 67.582 67.872 68.149 68.402 68.682 68.902 69.097 69.272 69.414 69.539 69.682 69.817 69.949 70.079 70.227 70.374 70.509 70.652 70.779 70.907 71.032 71.172 71.272 71.397 71.499 71.599 71.712 71.847 71.957 72.064 72.169 72.257 72.357 72.457 72.567 72.667 72.784 72.892 72.999 73.092
140.172 140.214 140.287 140.334 140.382 140.412 140.442 140.444 140.469 140.522 140.547 140.594 140.599 140.624 140.652 140.677 140.707 140.714 140.737 140.774 140.769 140.777 140.782 140.792 140.807 140.809 140.819 140.834 140.852 140.847 140.854 140.864 140.869 140.869 140.877 140.887 140.894 140.917 140.924 140.909 140.872 140.739 140.802 141.819 141.899 145.224 144.272 145.352 145.347 145.469 145.349 145.057 144.502 145.002 143.742 144.824 143.649 144.007 143.977 142.722 144.167 144.384 144.122 144.664 144.389 144.197 143.782 144.624 144.252 143.537 143.654 142.404 142.734 142.372 142.424 141.867 141.947 142.249 141.862 141.364 141.417 140.972 141.104 140.447 140.642 140.279 139.364 139.907 139.669 139.459 139.002 139.007 138.037 138.314 138.514 138.199 137.239 136.104 136.219 135.807 136.712 135.967 136.099 136.154 135.014 133.759 134.594 135.052 134.342 133.594 133.042 132.829 131.702 127.887 124.749 124.304 123.854 123.414 123.017 123.059 126.044 126.819 128.129 128.052 127.807 126.694 126.314 126.912 127.129 124.937 124.462 124.142 122.812 122.922 123.192 122.452 121.149 121.407 120.932 120.709 119.729 119.582 118.412 117.804 116.694 115.962 115.772 115.827 115.932 114.274 113.272 113.722 113.102 112.524 112.049 111.122 110.884 109.959 107.682 107.029 108.039 108.047 106.617 106.339 105.107 104.934 104.372 103.417 103.097 100.629 102.299 101.417 99.784 100.332 99.754 98.362 96.759 96.812 95.439 94.097 94.184 92.527 91.202 90.559 88.887 87.749 86.254 85.814 85.199 84.527 83.679 80.252 82.094 80.309 79.237 79.147 77.984 77.709 77.134 76.872 76.252 73.652 73.009 74.109 74.119 73.954 72.944 73.574 71.942 70.289 70.279 70.844 71.517 70.767 69.039 63.037 61.122 60.822 60.497 60.194 59.984 59.672 60.257 60.262 59.214 57.429 57.634 58.302 56.974 56.494 56.234 56.077 55.907 55.782 55.694 55.607 55.562 55.522 55.509 55.537 55.559 55.499 55.249 55.534 55.564 55.494 55.542 55.507 55.532 55.544 55.534 55.542 55.559 55.634 55.729 55.794 55.847 55.904 55.949 56.009 56.114 56.219 56.299 56.364 56.422 56.477 56.524 56.522 56.517 56.517 56.552 56.489 56.722 59.324 58.344 58.459 59.362 58.234 57.164 56.877 56.759 56.814 56.847 56.854 56.857 56.872 56.867 56.872 56.914 56.914 56.937 56.954 56.964 56.999 57.002 57.032 57.067 57.082 57.017 56.927 57.329 58.007 58.172 57.539 57.982 58.004 58.029 57.949 58.042 57.957 58.092 58.299 58.502 58.664 58.889 59.107 59.309 59.534 59.729 59.884 60.339 61.499 61.814 61.364 61.454 61.504 61.474 61.757 62.257 62.859 62.572 62.627 62.904 62.789 62.847 63.087 62.464 61.844 61.677 61.532 61.417 61.334 61.549 61.752 61.849 62.094 62.409 63.789 64.327 64.954 64.439 64.447 64.584 64.722 64.852 64.997 65.139 65.309 65.537 65.744 65.989 66.222 66.459 66.727 67.024 67.282 67.559 67.819 68.089 68.364 68.629 68.884 69.077 69.272 69.444 69.582 69.724 69.842 69.979 70.087 70.214 70.334 70.467 70.602 70.732 70.862 70.994 71.107 71.207 71.322 71.462 71.564 71.672 71.784 71.899 72.012 72.104 72.204 72.314 72.407 72.504 72.609 72.707 72.814 72.934 73.039 73.149
140.687 140.659 140.714 140.692 140.699 140.604 140.564 140.497 140.514 140.514 140.549 140.579 140.627 140.639 140.669 140.697 140.734 140.742 140.749 140.794 140.804 140.842 140.849 140.842 140.862 140.852 140.857 140.889 140.887 140.912 140.907 140.919 140.932 140.927 140.957 140.934 140.972 140.984 140.982 140.977 140.909 140.774 141.054 142.439 142.234 144.942 146.289 145.867 145.694 145.614 145.952 145.842 145.894 145.492 143.999 145.094 143.034 142.879 144.677 144.759 144.624 144.377 144.562 143.947 141.489 143.689 144.729 143.774 142.182 143.484 142.374 143.162 142.542 142.909 142.704 141.902 142.497 141.412 141.449 141.404 142.249 141.502 141.309 141.022 139.822 139.522 140.094 140.177 139.527 139.429 139.577 139.134 139.039 138.114 139.029 138.007 138.279 136.077 137.364 136.864 136.329 136.154 135.489 135.264 135.449 134.539 134.484 135.284 133.959 133.414 134.042 133.007 132.474 128.717 125.244 124.484 124.012 123.604 123.184 122.787 122.674 125.029 127.112 127.267 127.642 127.027 127.204 126.614 126.107 124.904 125.084 124.739 124.264 123.354 123.297 123.014 122.757 121.102 120.534 120.759 119.369 119.699 119.472 118.244 117.509 116.892 116.322 116.437 115.187 115.079 113.107 113.734 113.012 111.574 111.984 110.909 110.874 109.982 109.224 108.939 108.204 107.639 108.177 106.454 105.512 104.084 103.924 103.099 102.569 101.552 101.692 100.784 100.559 100.457 99.817 98.932 98.262 96.149 96.779 94.589 92.869 92.362 91.882 91.202 90.254 88.374 86.142 84.542 85.112 84.259 81.749 81.142 78.124 79.562 79.819 79.614 78.042 77.732 76.772 75.779 73.732 74.369 75.082 74.389 75.084 73.374 71.994 71.397 70.914 70.909 71.092 70.669 65.777 70.277 69.242 63.612 61.104 60.892 60.519 60.219 59.944 59.707 60.314 60.059 59.647 57.317 57.169 58.019 58.587 56.459 56.204 56.034 55.889 55.704 55.612 55.514 55.487 55.474 55.467 55.514 55.529 55.362 55.329 55.567 55.534 55.499 55.512 55.497 55.492 55.514 55.499 55.482 55.547 55.637 55.737 55.794 55.867 55.884 55.949 55.997 56.062 56.134 56.214 56.312 56.357 56.412 56.437 56.424 56.457 56.439 56.399 56.384 56.522 58.447 58.532 58.497 59.442 58.637 57.164 57.062 56.764 56.757 56.797 56.814 56.817 56.832 56.832 56.862 56.872 56.889 56.897 56.957 56.964 56.992 57.022 56.989 56.847 56.967 57.489 58.177 58.697 58.132 58.117 58.169 57.912 57.712 57.769 57.919 58.077 58.277 58.474 58.654 58.847 59.049 59.292 59.549 59.757 59.977 60.179 60.344 60.937 61.897 61.494 61.607 61.679 61.654 61.747 62.457 63.342 62.724 62.829 62.907 63.664 63.019 62.902 62.324 61.867 61.702 61.587 61.469 61.394 61.527 61.732 61.857 61.894 62.437 63.347 65.852 65.672 65.307 64.564 64.689 64.827 64.924 65.072 65.212 65.372 65.559 65.767 65.952 66.189 66.454 66.674 66.982 67.257 67.517 67.797 68.052 68.304 68.594 68.827 69.077 69.269 69.459 69.607 69.739 69.869 69.992 70.099 70.204 70.329 70.444 70.572 70.699 70.822 70.934 71.067 71.184 71.289 71.394 71.512 71.634 71.719 71.837 71.954 72.064 72.144 72.272 72.359 72.449 72.544 72.637 72.774 72.864 72.977 73.112 73.189
141.352 141.599 141.672 141.829 141.862 141.842 141.337 140.647 140.577 140.572 140.609 140.627 140.647 140.667 140.682 140.707 140.719 140.762 140.779 140.819 140.839 140.867 140.872 140.874 140.879 140.882 140.904 140.924 140.929 140.947 140.962 140.977 140.979 140.999 140.989 140.979 140.999 141.034 141.039 141.012 140.944 140.799 141.329 142.729 145.504 145.489 146.114 146.427 146.022 145.127 145.269 145.737 145.824 145.902 145.027 145.509 145.754 145.272 144.562 144.867 144.977 144.124 144.454 143.902 143.472 141.969 142.907 143.089 141.792 142.247 142.662 142.104 143.492 142.942 142.047 142.474 142.314 142.052 141.732 141.489 142.669 142.422 141.122 141.769 140.909 141.859 140.282 140.557 140.042 139.074 139.962 139.547 138.252 138.449 138.422 137.242 138.532 136.862 136.387 136.229 136.049 136.539 135.669 134.854 135.354 135.587 134.577 135.349 134.524 133.824 133.727 132.844 130.219 130.169 126.559 124.712 124.262 123.867 123.417 123.022 122.604 122.414 122.864 125.107 126.942 126.929 126.714 126.857 125.902 125.704 124.847 125.184 124.722 124.047 122.759 123.039 122.887 122.087 122.784 120.962 120.347 120.107 118.337 118.662 118.734 117.569 116.557 115.769 115.472 114.574 113.889 113.929 114.277 112.524 111.937 111.407 110.207 109.857 109.597 109.619 108.912 107.634 107.779 106.827 106.709 106.554 105.727 104.129 103.494 102.344 102.497 100.747 100.167 100.802 99.724 98.829 98.119 97.212 95.477 94.332 92.987 92.417 92.747 91.732 90.067 89.229 86.527 86.164 85.929 83.854 82.764 82.754 79.892 79.747 81.624 80.429 75.904 77.504 76.907 76.464 74.214 75.494 75.097 75.167 74.547 73.542 72.604 72.284 71.039 71.814 71.917 71.854 70.902 71.932 69.607 67.649 61.144 60.867 60.582 60.204 59.894 59.617 60.062 60.154 59.969 57.402 57.047 57.512 58.492 57.654 56.362 55.894 55.772 55.619 55.534 55.464 55.437 55.452 55.447 55.494 55.527 55.262 55.442 55.522 55.532 55.499 55.482 55.477 55.457 55.459 55.439 55.509 55.597 55.652 55.724 55.792 55.864 55.864 55.939 55.979 56.034 56.087 56.147 56.212 56.247 56.312 56.349 56.374 56.402 56.382 56.364 56.334 56.404 57.554 58.804 58.542 59.274 60.769 58.547 57.022 56.954 56.719 56.777 56.782 56.824 56.792 56.817 56.819 56.849 56.859 56.904 56.939 56.969 56.914 56.794 57.077 57.947 58.734 58.169 58.604 58.787 58.917 57.987 57.727 57.889 57.964 58.117 58.259 58.417 58.617 58.827 59.037 59.219 59.457 59.744 59.989 60.222 60.449 60.629 60.812 61.247 61.567 61.674 61.809 61.887 61.902 63.307 63.449 64.547 62.987 62.909 63.007 63.327 63.479 62.409 62.027 61.749 61.649 61.512 61.397 61.472 61.712 61.964 61.769 62.027 63.179 63.974 64.642 65.424 64.677 64.784 64.949 65.037 65.164 65.297 65.432 65.597 65.779 65.972 66.187 66.422 66.657 66.907 67.179 67.454 67.729 67.992 68.249 68.547 68.804 69.037 69.254 69.429 69.587 69.737 69.864 69.984 70.109 70.212 70.339 70.447 70.552 70.659 70.772 70.889 71.007 71.112 71.232 71.364 71.462 71.569 71.652 71.779 71.897 71.994 72.104 72.187 72.294 72.394 72.492 72.579 72.684 72.799 72.909 73.019 73.139 73.209
140.589 140.864 141.087 141.344 141.749 141.962 141.729 141.034 140.682 140.604 140.632 140.677 140.712 140.732 140.752 140.772 140.772 140.789 140.814 140.822 140.849 140.882 140.882 140.892 140.902 140.912 140.934 140.937 140.959 140.982 141.007 140.999 141.002 141.027 141.032 141.017 141.012 141.042 141.052 141.022 140.969 140.842 141.619 143.474 145.894 146.017 146.047 145.919 146.024 146.084 145.317 144.927 145.777 146.114 145.757 144.372 141.554 144.722 145.139 144.902 144.822 144.729 142.287 142.904 144.042 142.122 143.264 144.107 143.177 143.814 142.957 143.874 143.649 142.312 142.957 142.782 142.179 141.737 141.729 142.072 141.579 141.022 141.089 141.242 140.787 141.547 140.919 140.722 140.197 139.374 139.292 139.747 139.142 138.474 137.989 137.924 138.207 136.627 138.427 137.884 136.552 136.807 135.677 135.384 136.324 135.322 134.949 134.602 134.509 133.629 133.432 133.114 131.814 130.614 127.474 124.932 124.522 124.097 123.694 123.279 122.894 122.484 122.114 122.794 125.987 126.447 126.604 127.182 126.102 126.574 125.689 124.882 124.807 123.649 123.474 123.187 122.034 120.289 120.564 120.624 119.369 120.162 118.872 119.354 118.012 118.567 117.389 117.174 116.132 114.884 114.629 113.092 112.794 112.509 113.119 112.237 108.297 108.832 109.404 108.647 108.944 107.384 108.047 106.799 105.912 105.259 104.689 104.642 104.844 103.627 102.624 101.597 100.177 99.122 99.647 99.297 98.342 96.887 96.357 95.167 94.042 92.417 91.947 90.279 88.709 87.912 87.084 86.217 85.019 83.759 84.084 83.952 82.374 79.977 79.732 77.484 77.032 78.202 77.712 76.502 74.367 75.454 74.102 75.269 74.712 74.327 72.749 72.419 72.074 71.647 72.549 72.147 71.037 71.282 71.044 68.867 62.077 60.922 61.122 60.609 59.897 59.704 59.702 59.957 59.869 57.857 56.924 56.987 57.682 58.024 57.122 55.757 55.682 55.532 55.422 55.404 55.389 55.387 55.412 55.489 55.499 55.279 55.434 55.569 55.519 55.494 55.474 55.489 55.469 55.414 55.469 55.534 55.562 55.659 55.729 55.809 55.867 55.869 55.909 55.937 55.992 56.049 56.074 56.079 56.162 56.222 56.282 56.319 56.332 56.342 56.332 56.329 56.337 57.297 58.904 58.582 58.812 59.999 58.052 57.094 57.072 56.707 56.729 56.757 56.767 56.749 56.789 56.779 56.792 56.842 56.872 56.902 56.834 56.757 57.622 58.567 58.542 59.127 58.014 57.459 57.619 57.567 57.784 57.977 58.154 58.292 58.442 58.612 58.787 58.977 59.212 59.427 59.652 59.899 60.147 60.417 60.679 60.894 61.109 61.294 61.554 61.767 61.924 62.024 62.062 62.472 64.184 63.637 63.112 63.452 63.119 63.069 63.327 64.284 62.292 61.792 61.667 61.527 61.427 61.399 61.572 61.654 62.704 61.887 62.762 63.554 64.777 65.412 64.974 64.862 65.019 65.149 65.252 65.384 65.504 65.642 65.819 65.982 66.197 66.407 66.639 66.872 67.132 67.392 67.649 67.919 68.192 68.469 68.719 68.984 69.207 69.409 69.599 69.727 69.854 69.969 70.092 70.204 70.317 70.454 70.542 70.639 70.747 70.842 70.949 71.092 71.179 71.297 71.424 71.532 71.632 71.712 71.837 71.934 72.047 72.147 72.234 72.334 72.434 72.539 72.629 72.729 72.829 72.962 73.054 73.152 73.259
140.129 140.217 140.344 140.472 140.669 140.947 141.392 141.769 141.549 141.104 140.739 140.709 140.724 140.752 140.792 140.824 140.827 140.849 140.867 140.877 140.889 140.899 140.904 140.904 140.917 140.942 140.944 140.954 140.984 141.009 141.032 141.042 141.052 141.057 141.059 141.024 141.054 141.062 141.089 141.029 140.984 140.932 141.794 143.024 145.624 146.222 145.407 145.657 146.009 145.729 145.672 144.367 146.544 145.609 145.777 143.902 141.612 144.584 144.199 144.312 143.774 145.054 143.229 143.884 144.447 144.804 144.082 143.092 143.069 143.969 142.084 143.347 142.712 142.502 142.472 141.602 142.492 143.014 142.692 143.044 142.099 142.504 141.597 141.279 141.347 140.984 140.837 141.232 140.112 140.294 138.289 138.852 139.079 138.492 139.292 138.029 138.564 137.484 137.179 137.479 137.164 136.747 136.962 135.799 135.619 135.819 135.139 135.292 134.924 134.434 133.614 133.414 132.289 131.177 128.669 125.152 124.712 124.334 123.914 123.507 123.094 122.722 122.347 122.017 122.492 123.769 125.462 125.882 126.812 127.069 126.547 125.272 124.717 123.329 124.629 123.199 124.204 121.294 121.972 121.079 120.382 120.582 120.199 119.007 117.402 118.377 116.934 116.062 116.467 115.367 115.339 113.539 114.119 112.857 111.534 109.694 110.087 108.792 109.492 109.149 108.482 108.107 107.087 105.677 104.717 105.494 105.049 104.507 103.812 103.189 102.614 99.927 100.907 99.992 100.844 99.764 98.544 98.022 96.169 96.172 94.819 92.424 92.057 90.667 89.884 88.799 87.574 87.267 85.157 84.362 84.364 82.239 81.289 80.204 79.682 79.032 78.979 77.447 77.547 76.699 76.609 75.622 75.879 75.922 75.849 74.429 73.579 72.359 72.257 71.892 71.929 71.344 71.267 70.287 70.719 68.489 62.177 60.929 61.067 60.342 59.992 59.732 59.514 59.419 59.662 57.794 56.819 56.789 57.847 58.077 56.612 55.712 55.617 55.537 55.399 55.354 55.334 55.362 55.427 55.469 55.494 55.197 55.394 55.509 55.504 55.507 55.472 55.477 55.422 55.452 55.527 55.564 55.577 55.667 55.744 55.822 55.857 55.847 55.892 55.914 55.942 55.979 56.012 56.042 56.087 56.152 56.232 56.282 56.292 56.289 56.274 56.297 56.317 56.609 59.637 58.812 58.792 59.794 58.352 57.254 56.954 56.804 56.717 56.754 56.727 56.752 56.769 56.767 56.774 56.827 56.854 56.829 57.044 58.094 58.237 58.672 58.359 57.574 57.329 57.514 57.699 57.889 58.082 58.262 58.462 58.634 58.819 58.994 59.179 59.394 59.629 59.839 60.059 60.327 60.587 60.842 61.087 61.294 61.512 61.714 61.884 62.034 62.157 62.179 62.292 63.942 64.332 63.142 63.219 63.157 63.654 63.162 63.762 62.972 61.959 61.699 61.574 61.484 61.392 61.569 61.677 61.757 61.864 62.617 63.477 64.737 65.199 65.564 64.929 65.097 65.229 65.347 65.482 65.619 65.719 65.877 66.039 66.202 66.407 66.599 66.867 67.092 67.324 67.589 67.842 68.109 68.392 68.639 68.912 69.154 69.389 69.552 69.717 69.857 69.977 70.104 70.212 70.324 70.429 70.539 70.632 70.739 70.842 70.929 71.039 71.134 71.249 71.362 71.467 71.579 71.664 71.792 71.879 71.974 72.072 72.174 72.272 72.359 72.474 72.562 72.667 72.784 72.877 72.987 73.114 73.219 73.302
140.137 140.189 140.257 140.357 140.449 140.529 140.627 140.897 141.697 142.009 142.017 141.764 141.587 141.372 141.397 141.094 140.927 140.899 140.892 140.927 140.942 140.949 140.949 140.944 140.982 140.989 140.994 140.997 141.002 141.027 141.037 141.057 141.072 141.064 141.047 141.067 141.102 141.097 141.067 141.047 140.964 140.977 141.927 143.074 143.187 145.224 144.409 144.369 145.262 146.224 145.719 145.832 146.617 145.192 145.304 143.187 140.107 144.149 144.654 144.122 144.292 144.389 144.279 143.237 143.577 143.514 144.114 143.267 143.822 144.134 144.169 143.382 142.982 142.574 143.094 143.129 143.277 142.054 142.579 142.302 141.817 141.912 142.084 141.627 142.037 140.867 141.294 141.124 140.332 139.814 139.927 139.019 139.327 139.589 139.074 138.659 137.657 138.202 137.412 136.219 136.174 136.832 137.782 136.377 136.137 136.534 135.504 133.577 135.199 133.757 134.039 132.957 132.527 129.819 126.974 125.317 124.937 124.529 124.079 123.702 123.297 122.912 122.552 122.219 121.907 123.184 126.452 127.379 126.697 125.604 125.664 126.479 125.527 124.657 124.022 123.187 122.737 122.977 120.159 120.982 120.324 120.279 120.554 119.359 118.729 118.829 116.832 116.717 116.874 116.212 115.982 114.662 114.152 112.887 112.159 112.012 111.434 109.422 110.869 110.222 108.784 108.382 107.549 107.977 106.732 105.857 104.687 104.577 103.682 103.027 102.472 101.747 99.797 101.164 99.739 99.364 98.134 96.174 95.149 93.907 94.974 92.702 91.702 91.524 89.662 90.049 87.172 86.304 85.242 84.107 81.689 82.204 81.977 81.442 80.822 78.724 77.964 77.517 76.359 77.852 76.464 75.654 75.607 75.467 75.247 73.002 73.462 72.554 71.492 71.802 71.817 71.147 70.484 70.904 70.114 67.397 62.182 60.854 60.757 60.392 59.909 59.694 60.517 60.944 61.242 57.764 56.749 56.727 57.197 57.499 56.097 55.667 55.567 55.469 55.409 55.317 55.387 55.387 55.409 55.452 55.472 55.264 55.267 55.479 55.484 55.502 55.464 55.439 55.472 55.502 55.549 55.562 55.624 55.649 55.739 55.817 55.852 55.874 55.859 55.894 55.899 55.959 55.957 55.967 56.034 56.122 56.202 56.242 56.234 56.214 56.249 56.267 56.314 56.449 59.052 59.369 58.819 60.074 59.387 57.872 56.854 56.947 56.744 56.732 56.722 56.739 56.734 56.744 56.774 56.824 56.884 57.604 57.337 57.834 58.339 57.524 57.342 57.474 57.652 57.829 57.984 58.189 58.389 58.632 58.824 59.002 59.209 59.387 59.607 59.849 60.062 60.272 60.482 60.734 60.982 61.219 61.434 61.667 61.892 62.032 62.134 62.269 62.339 62.392 63.729 63.757 63.097 63.522 63.432 63.309 64.412 63.027 62.684 62.189 61.787 61.634 61.527 61.409 61.509 61.642 61.559 61.642 62.177 62.789 64.414 65.617 65.817 65.039 65.144 65.287 65.397 65.537 65.712 65.817 65.944 66.087 66.232 66.407 66.607 66.819 67.064 67.289 67.534 67.794 68.052 68.282 68.552 68.817 69.077 69.329 69.522 69.714 69.877 70.007 70.107 70.227 70.324 70.409 70.519 70.617 70.722 70.812 70.914 70.994 71.114 71.204 71.319 71.424 71.517 71.607 71.734 71.842 71.942 72.027 72.124 72.229 72.322 72.414 72.524 72.607 72.714 72.812 72.912 73.032 73.142 73.252 73.327
140.212 140.212 140.267 140.317 140.379 140.429 140.477 140.594 140.797 141.154 141.239 141.424 141.639 141.924 142.259 142.224 142.194 142.232 141.787 141.582 141.342 141.142 140.977 140.967 141.004 141.012 141.044 141.032 141.054 141.074 141.072 141.117 141.099 141.077 141.087 141.077 141.129 141.112 141.072 141.029 140.934 141.284 142.027 144.497 145.699 145.722 144.279 144.299 145.689 144.494 145.739 145.537 144.514 142.227 143.432 141.154 140.447 144.382 144.629 144.487 144.844 144.452 144.537 143.722 144.154 143.529 144.174 143.852 143.377 144.002 143.647 143.309 142.882 143.364 142.999 142.729 142.547 142.679 142.942 142.207 142.612 142.569 141.764 141.239 141.732 140.422 140.827 140.709 140.317 139.817 139.177 139.002 139.624 139.054 139.314 138.574 138.694 137.639 137.324 135.507 136.884 136.367 136.137 136.614 136.107 136.177 135.569 135.519 134.879 135.279 133.177 132.927 132.102 129.272 125.932 125.547 125.174 124.747 124.314 123.907 123.512 123.127 122.779 122.454 122.104 122.879 125.644 125.547 126.739 126.009 126.494 125.934 125.842 125.337 123.777 123.399 123.307 122.977 120.864 119.369 118.314 120.827 119.302 118.724 118.119 118.767 116.859 116.147 114.579 115.972 115.049 114.272 114.507 114.179 113.174 112.739 112.332 112.034 110.437 109.994 109.877 108.862 107.762 107.117 106.559 105.354 105.594 104.259 103.204 102.567 102.367 101.667 100.774 100.659 99.607 95.629 93.799 93.417 96.049 93.632 94.404 93.684 92.584 91.397 89.074 88.822 88.092 86.764 84.984 85.292 85.059 82.969 80.914 80.069 79.319 80.062 78.457 77.982 76.997 76.374 75.527 75.759 75.174 74.982 74.609 73.199 74.522 72.637 71.579 72.914 71.639 71.064 69.284 66.852 68.514 67.087 66.164 61.319 60.777 60.262 59.919 59.667 59.712 60.434 61.152 57.679 56.757 56.807 57.557 56.967 55.864 55.719 55.547 55.422 55.347 55.292 55.342 55.347 55.372 55.394 55.434 55.319 55.262 55.447 55.517 55.484 55.452 55.482 55.514 55.542 55.559 55.587 55.577 55.657 55.717 55.789 55.819 55.847 55.839 55.874 55.857 55.907 55.924 55.954 56.007 56.064 56.144 56.197 56.199 56.222 56.224 56.262 56.287 56.389 57.882 59.827 58.849 59.717 61.609 60.889 59.092 57.002 57.047 56.737 56.709 56.722 56.699 56.739 56.869 58.399 59.724 58.589 58.159 58.067 57.249 57.397 57.579 57.764 57.942 58.107 58.312 58.557 58.762 58.994 59.222 59.412 59.632 59.822 60.029 60.254 60.479 60.727 60.914 61.137 61.347 61.547 61.724 61.974 62.137 62.267 62.342 62.434 62.474 62.849 64.902 63.312 63.152 63.284 63.479 63.317 62.904 62.514 62.234 61.827 61.657 61.579 61.464 61.517 61.622 61.582 61.782 61.859 62.564 63.727 65.102 65.592 65.444 65.179 65.347 65.487 65.607 65.769 65.907 66.044 66.169 66.284 66.439 66.629 66.807 67.017 67.264 67.477 67.724 67.972 68.237 68.487 68.737 68.992 69.262 69.467 69.677 69.854 70.017 70.124 70.234 70.327 70.432 70.517 70.589 70.699 70.787 70.882 70.969 71.067 71.164 71.274 71.379 71.479 71.577 71.679 71.789 71.889 71.982 72.094 72.192 72.264 72.362 72.462 72.549 72.667 72.764 72.859 72.954 73.054 73.144 73.264 73.344
140.162 140.222 140.284 140.342 140.369 140.342 140.412 140.497 140.617 140.702 140.752 140.784 140.794 140.844 141.034 141.154 141.327 141.637 141.989 142.372 142.364 142.219 142.047 141.982 141.632 141.444 141.277 141.102 141.069 141.074 141.107 141.127 141.157 141.159 141.144 141.127 141.109 141.089 141.057 140.939 140.907 141.464 142.707 143.744 145.269 144.637 144.364 145.417 144.094 144.067 145.217 145.252 142.927 140.589 142.189 144.434 143.779 145.337 143.519 144.377 144.694 144.439 144.324 143.957 143.577 144.327 144.147 143.662 144.009 144.349 143.652 143.274 143.262 142.647 142.794 142.989 142.572 143.397 142.807 142.169 142.569 142.717 141.809 141.344 141.664 142.077 140.914 140.702 140.514 139.709 139.897 140.389 140.514 139.112 138.502 138.954 138.944 139.214 138.224 136.109 137.204 137.657 135.697 136.877 135.884 135.954 135.799 136.217 135.014 134.524 133.632 132.469 128.729 126.657 126.199 125.804 125.454 125.039 124.599 124.174 123.752 123.377 123.009 122.667 122.357 122.049 122.064 121.857 124.464 126.942 126.442 126.122 125.579 125.322 124.322 124.539 123.994 123.172 122.254 121.949 120.324 119.577 119.987 118.327 117.767 118.922 118.202 117.837 115.999 115.319 114.949 115.404 115.399 114.354 113.792 112.344 111.457 111.299 109.212 109.649 109.392 108.912 108.882 106.892 107.589 106.077 104.184 103.859 103.917 103.347 101.952 100.769 101.104 101.379 96.814 93.237 92.099 95.497 95.619 95.159 94.542 94.164 92.997 91.499 89.717 88.609 88.424 86.234 85.789 85.389 84.352 83.599 81.349 81.279 78.709 78.809 77.427 75.632 77.049 77.202 76.837 76.312 75.154 75.417 73.657 73.367 72.469 73.179 72.012 72.347 70.957 70.574 69.607 68.939 66.924 69.794 66.862 61.232 60.589 60.334 59.889 59.644 59.372 59.942 59.642 57.499 56.807 57.244 59.782 57.814 55.822 55.704 55.527 55.429 55.312 55.307 55.274 55.317 55.347 55.357 55.404 55.299 55.362 55.439 55.462 55.442 55.429 55.449 55.512 55.517 55.534 55.549 55.574 55.647 55.684 55.734 55.784 55.787 55.787 55.809 55.817 55.844 55.877 55.924 55.949 56.004 56.089 56.159 56.159 56.187 56.199 56.237 56.302 56.389 57.757 60.157 59.014 59.117 62.677 61.859 58.217 56.842 56.939 56.689 56.652 56.677 56.659 56.699 57.599 60.007 59.394 57.714 57.257 57.254 57.442 57.627 57.832 58.057 58.252 58.444 58.662 58.902 59.157 59.382 59.597 59.827 60.032 60.222 60.442 60.657 60.889 61.092 61.304 61.479 61.674 61.819 62.014 62.204 62.349 62.447 62.512 62.549 62.619 63.132 63.812 63.399 64.557 63.532 63.582 63.582 62.732 62.192 61.977 61.739 61.587 61.517 61.464 61.639 61.579 61.554 61.622 62.244 63.619 64.429 65.379 65.874 65.229 65.397 65.534 65.659 65.807 65.957 66.104 66.237 66.377 66.509 66.639 66.829 67.009 67.247 67.484 67.704 67.939 68.177 68.412 68.662 68.917 69.169 69.407 69.622 69.812 69.992 70.134 70.244 70.359 70.472 70.537 70.627 70.692 70.779 70.882 70.954 71.037 71.139 71.239 71.342 71.437 71.547 71.637 71.739 71.834 71.944 72.027 72.132 72.222 72.307 72.399 72.487 72.597 72.709 72.817 72.907 72.984 73.097 73.197 73.289 73.379
140.187 140.269 140.314 140.312 140.307 140.307 140.392 140.442 140.584 140.739 140.839 140.852 140.809 140.832 140.862 140.884 140.874 140.877 140.909 140.952 141.144 141.244 141.562 141.834 142.054 142.209 142.289 142.399 142.044 141.767 141.774 141.627 141.317 141.224 141.174 141.137 141.089 141.059 140.962 140.824 140.859 141.767 141.444 142.589 142.874 141.352 141.294 144.029 145.162 144.267 144.769 143.067 143.649 144.139 144.124 144.992 144.977 145.277 143.714 144.847 144.629 144.449 144.254 144.642 144.389 144.529 143.889 143.882 143.877 143.927 144.317 143.467 144.237 144.162 144.017 143.217 142.924 143.612 142.067 142.759 142.889 142.012 142.184 141.964 141.427 141.524 141.672 141.854 141.044 141.647 140.549 140.289 140.667 139.317 139.587 138.734 138.119 138.269 137.804 137.679 136.697 136.849 136.034 136.329 136.284 137.064 136.997 136.222 135.579 134.959 134.214 132.537 130.044 127.057 126.497 126.107 125.727 125.314 124.877 124.442 124.017 123.657 123.307 122.952 122.629 122.327 121.967 121.627 123.874 126.772 125.882 125.927 124.374 126.024 124.434 124.234 123.424 123.824 122.404 121.824 121.577 120.879 119.404 120.432 120.024 119.132 117.302 115.762 117.294 117.369 114.199 114.817 115.424 113.162 113.252 113.332 111.657 111.184 111.287 110.659 110.057 109.172 109.029 106.824 105.807 105.234 103.692 105.144 104.647 102.872 101.607 102.007 101.994 102.097 98.809 94.627 94.469 96.109 93.804 90.069 92.379 93.562 93.882 92.287 90.867 89.362 88.159 87.204 85.957 85.209 84.204 84.549 82.222 80.984 78.742 78.362 78.777 79.439 76.794 75.859 76.689 75.692 75.732 74.802 74.499 73.914 73.869 72.352 72.094 72.002 68.542 71.362 70.767 70.934 70.807 69.954 66.079 60.967 60.679 60.397 59.942 59.639 59.322 59.822 59.074 57.057 56.859 57.712 60.907 59.394 55.837 55.589 55.519 55.469 55.329 55.362 55.329 55.342 55.304 55.297 55.367 55.074 55.389 55.457 55.392 55.429 55.454 55.434 55.497 55.492 55.509 55.549 55.592 55.612 55.619 55.672 55.719 55.739 55.747 55.772 55.802 55.817 55.862 55.894 55.927 55.954 56.039 56.082 56.122 56.149 56.189 56.229 56.304 56.384 56.634 59.932 59.614 59.089 60.852 59.117 57.644 56.814 56.844 56.662 56.604 56.587 56.567 57.437 57.904 58.094 57.694 57.364 57.317 57.514 57.679 57.862 58.079 58.322 58.527 58.767 58.999 59.244 59.512 59.742 59.969 60.154 60.392 60.567 60.789 61.014 61.219 61.429 61.637 61.779 61.942 62.077 62.244 62.397 62.539 62.604 62.622 62.672 62.802 63.537 63.347 63.579 63.517 64.532 63.374 62.934 62.652 62.024 61.787 61.657 61.552 61.459 61.552 61.674 61.674 61.612 62.024 63.112 64.154 65.107 66.092 65.432 65.434 65.594 65.734 65.874 66.032 66.134 66.294 66.442 66.567 66.719 66.867 67.042 67.224 67.437 67.669 67.894 68.137 68.387 68.619 68.869 69.097 69.357 69.564 69.754 69.954 70.117 70.239 70.372 70.477 70.549 70.642 70.704 70.772 70.847 70.934 71.022 71.104 71.197 71.314 71.404 71.499 71.609 71.719 71.827 71.914 72.022 72.122 72.202 72.287 72.384 72.454 72.547 72.667 72.769 72.847 72.947 73.039 73.109 73.217 73.307 73.384
140.209 140.279 140.324 140.289 140.297 140.377 140.354 140.417 140.569 140.744 140.804 140.842 140.854 140.867 140.869 140.834 140.897 140.892 140.889 140.867 140.899 140.932 140.994 141.044 141.197 141.432 141.669 141.702 142.147 142.394 142.494 142.569 142.359 142.199 142.082 141.714 141.617 141.362 141.014 140.897 141.069 142.229 141.274 140.867 140.762 140.687 140.822 141.584 142.092 143.249 143.574 140.637 140.654 144.439 144.909 144.882 145.639 145.362 143.104 142.977 141.629 144.684 144.552 143.987 144.322 144.582 143.989 143.449 144.177 144.274 143.899 143.574 143.719 143.489 143.564 143.294 142.907 143.384 143.052 143.289 142.864 141.854 142.252 142.074 142.087 142.807 142.392 140.692 141.252 140.969 139.952 140.367 138.882 139.197 138.389 138.632 138.187 137.404 138.169 137.742 137.957 136.744 136.759 137.242 136.154 136.377 136.697 135.987 136.167 135.249 134.919 133.777 131.014 127.204 126.822 126.424 126.004 125.589 125.184 124.754 124.324 123.937 123.612 123.294 122.969 122.647 122.297 121.917 121.837 123.832 124.409 122.372 124.392 125.154 124.917 124.027 123.749 123.174 123.692 122.134 122.894 121.849 120.402 120.739 119.384 118.542 116.864 118.297 117.419 116.979 114.167 113.477 114.724 114.824 114.159 112.779 112.757 111.484 110.559 110.697 110.169 108.359 107.919 106.879 106.712 106.967 105.427 104.999 104.679 103.894 102.857 103.212 102.182 101.792 98.364 96.562 93.777 94.082 92.507 93.662 91.337 92.937 91.084 90.989 90.484 90.584 88.752 87.114 86.064 85.072 84.427 82.314 82.149 80.682 80.084 78.622 79.304 78.834 79.439 77.512 74.982 76.292 76.237 75.599 74.967 73.302 71.902 71.747 72.174 72.032 69.627 71.092 72.504 70.884 70.709 70.379 67.647 61.034 60.829 60.332 60.017 59.584 59.342 59.912 58.417 57.062 56.852 57.082 58.584 58.754 55.682 55.577 55.467 55.394 55.344 55.337 55.327 55.322 55.292 55.262 55.254 55.149 55.427 55.434 55.417 55.409 55.417 55.419 55.452 55.474 55.492 55.532 55.577 55.579 55.574 55.574 55.607 55.654 55.689 55.704 55.792 55.787 55.832 55.882 55.882 55.947 55.984 56.054 56.092 56.122 56.169 56.214 56.292 56.322 56.599 59.449 60.182 59.164 59.822 61.217 58.347 57.194 56.762 56.692 56.579 56.517 58.182 57.499 57.847 57.559 57.149 57.349 57.567 57.762 57.949 58.174 58.379 58.609 58.867 59.099 59.319 59.574 59.859 60.077 60.307 60.494 60.682 60.902 61.117 61.332 61.514 61.727 61.909 62.042 62.139 62.294 62.444 62.602 62.672 62.737 62.739 63.027 64.007 63.519 63.342 63.582 63.707 64.067 63.464 63.609 63.527 61.884 61.719 61.594 61.494 61.627 61.652 61.647 61.692 61.792 63.249 63.744 64.947 65.737 65.852 65.504 65.672 65.797 65.922 66.067 66.217 66.342 66.499 66.644 66.777 66.937 67.089 67.267 67.444 67.647 67.869 68.089 68.332 68.582 68.809 69.069 69.287 69.502 69.737 69.907 70.074 70.229 70.362 70.474 70.567 70.649 70.722 70.797 70.854 70.919 71.017 71.092 71.172 71.269 71.352 71.477 71.574 71.692 71.789 71.899 71.997 72.112 72.194 72.264 72.344 72.444 72.532 72.617 72.707 72.824 72.882 72.997 73.074 73.152 73.234 73.317 73.399
140.204 140.292 140.287 140.279 140.334 140.364 140.367 140.389 140.487 140.642 140.772 140.902 140.899 140.914 140.877 140.854 140.862 140.867 140.879 140.894 140.937 140.979 141.044 141.102 141.234 141.282 141.324 141.359 141.414 141.419 141.734 141.897 141.802 141.729 141.947 142.149 143.242 142.377 142.162 141.969 142.087 142.022 141.272 140.727 140.639 140.649 140.694 140.737 140.844 140.902 140.837 140.792 141.077 142.604 145.087 145.144 144.832 144.669 145.072 139.929 139.709 144.672 144.359 144.954 144.497 144.167 143.954 143.632 143.617 143.317 143.974 144.014 143.467 142.502 143.392 142.599 143.307 143.387 143.367 142.694 142.669 142.847 141.647 141.444 141.242 141.949 141.757 140.962 141.137 140.802 140.119 140.087 139.039 139.119 140.199 140.067 138.439 138.057 137.709 138.322 137.999 136.992 136.652 136.364 136.359 136.874 136.494 135.609 135.467 135.274 134.527 132.972 130.434 127.489 127.147 126.754 126.347 125.924 125.487 125.079 124.682 124.307 123.972 123.654 123.344 123.009 122.652 122.262 121.872 121.414 121.062 120.677 123.784 124.049 124.672 124.097 124.429 123.689 122.522 121.642 122.204 121.914 121.244 119.252 120.297 119.444 118.444 117.334 116.974 115.522 115.089 115.222 115.582 114.774 114.024 113.409 112.952 112.329 110.887 111.744 109.987 109.522 108.999 107.719 108.239 106.562 106.457 105.234 105.237 104.924 103.794 103.269 102.564 98.439 97.199 98.429 94.884 91.164 90.882 93.024 94.434 94.247 89.834 90.692 89.702 90.477 88.922 87.729 85.464 84.817 84.732 82.864 81.939 80.599 79.974 79.784 79.014 77.292 78.559 78.039 77.074 74.929 74.359 74.617 74.127 72.909 73.032 73.547 72.052 72.434 72.059 69.954 70.704 72.069 71.429 70.767 68.839 62.109 60.719 60.272 60.157 59.587 59.437 59.674 58.152 56.827 57.002 57.189 56.507 55.954 55.782 55.619 55.379 55.369 55.304 55.284 55.299 55.299 55.287 55.272 55.117 55.372 55.399 55.407 55.397 55.412 55.422 55.412 55.479 55.457 55.469 55.529 55.544 55.564 55.509 55.517 55.524 55.592 55.639 55.679 55.737 55.757 55.834 55.872 55.902 55.932 55.959 56.004 56.069 56.109 56.159 56.197 56.244 56.317 56.402 58.422 60.699 59.329 59.337 60.177 59.397 57.417 56.742 56.867 56.367 58.099 57.699 57.319 57.037 57.132 57.389 57.614 57.854 58.069 58.264 58.477 58.699 58.922 59.159 59.402 59.657 59.917 60.137 60.392 60.612 60.832 61.027 61.217 61.412 61.592 61.787 61.982 62.139 62.272 62.382 62.484 62.604 62.732 62.799 62.827 62.844 63.972 64.497 63.444 63.457 63.649 63.804 64.032 64.254 62.827 62.584 61.797 61.657 61.534 61.522 61.614 61.689 61.742 62.159 62.764 63.772 64.942 65.777 65.889 65.607 65.739 65.874 65.989 66.154 66.297 66.399 66.564 66.689 66.847 66.977 67.119 67.279 67.449 67.622 67.839 68.054 68.317 68.544 68.787 69.014 69.252 69.482 69.677 69.864 70.032 70.184 70.349 70.472 70.577 70.659 70.747 70.822 70.867 70.942 71.004 71.074 71.157 71.264 71.339 71.444 71.534 71.644 71.767 71.869 71.982 72.082 72.184 72.284 72.369 72.442 72.509 72.592 72.677 72.759 72.859 72.934 73.017 73.109 73.172 73.254 73.334 73.419
140.224 140.244 140.297 140.287 140.369 140.414 140.464 140.482 140.569 140.667 140.742 140.854 140.919 140.934 140.924 140.922 140.904 140.897 140.897 140.854 140.922 140.939 141.004 140.952 141.052 141.187 141.132 141.212 141.122 140.984 141.219 141.479 141.734 141.619 141.399 141.354 141.832 141.389 141.327 141.382 141.929 141.622 141.282 141.007 140.664 140.667 140.684 140.669 140.737 142.352 142.034 142.314 141.989 143.949 144.942 144.492 143.784 143.332 144.807 143.052 144.232 145.064 144.124 144.634 144.139 144.419 144.182 143.627 144.282 143.709 143.469 143.984 143.067 143.309 143.364 143.067 143.642 142.992 142.794 142.937 142.907 142.872 141.262 141.642 141.942 141.172 142.187 141.212 141.754 141.147 140.897 139.647 137.987 139.444 139.782 140.142 138.642 138.412 137.692 137.449 136.959 136.162 136.747 136.477 136.644 136.562 136.444 135.759 135.707 135.539 134.217 134.524 132.782 128.559 127.394 127.042 126.642 126.239 125.797 125.404 125.014 124.664 124.369 124.057 123.734 123.432 123.067 122.662 122.267 121.807 121.344 120.844 120.669 122.972 124.739 124.934 124.082 123.994 123.339 121.997 121.929 121.757 121.142 120.149 119.994 118.667 118.187 117.972 116.222 116.232 115.757 116.389 115.719 115.367 115.112 114.514 113.272 112.167 112.039 111.989 110.637 109.899 107.817 108.364 108.019 106.572 106.642 105.229 105.369 104.957 105.289 102.762 99.129 96.742 97.007 98.669 95.197 92.622 90.727 94.794 95.819 94.482 92.709 93.179 92.029 91.679 89.174 87.419 85.909 86.047 83.964 84.252 82.787 81.699 80.292 80.779 79.629 77.887 77.404 76.289 74.849 74.774 75.884 76.049 74.972 72.829 72.189 72.107 71.557 70.984 70.239 71.589 70.749 71.109 70.414 69.784 67.674 61.372 60.622 60.129 59.887 59.559 59.927 60.177 58.017 56.739 56.849 57.064 56.134 55.572 55.672 55.474 55.359 55.292 55.272 55.254 55.267 55.267 55.222 55.229 55.042 55.367 55.379 55.362 55.402 55.389 55.432 55.452 55.464 55.477 55.479 55.509 55.497 55.532 55.524 55.512 55.532 55.567 55.599 55.627 55.694 55.747 55.819 55.849 55.894 55.932 55.954 56.009 56.064 56.099 56.139 56.194 56.244 56.254 56.322 57.729 60.282 59.997 59.452 60.269 59.134 57.802 56.899 56.512 56.774 57.759 57.377 57.002 57.214 57.437 57.652 57.887 58.134 58.362 58.549 58.779 58.987 59.239 59.437 59.694 59.957 60.202 60.447 60.709 60.922 61.117 61.292 61.442 61.662 61.882 62.029 62.214 62.327 62.464 62.567 62.672 62.779 62.854 62.904 62.907 63.069 63.917 64.169 64.099 63.692 63.952 64.182 64.337 65.264 63.054 61.877 61.739 61.584 61.504 61.639 61.692 61.717 61.757 62.707 62.824 64.509 65.602 66.127 65.789 65.839 65.994 66.079 66.212 66.369 66.489 66.632 66.779 66.904 67.032 67.169 67.302 67.477 67.644 67.819 68.054 68.259 68.517 68.762 68.974 69.232 69.482 69.672 69.852 70.034 70.177 70.299 70.457 70.604 70.674 70.759 70.832 70.902 70.957 71.032 71.074 71.142 71.214 71.324 71.409 71.504 71.607 71.722 71.844 71.942 72.047 72.187 72.262 72.367 72.472 72.532 72.569 72.649 72.724 72.804 72.904 72.994 73.062 73.144 73.202 73.267 73.342 73.437
140.224 140.244 140.309 140.374 140.382 140.417 140.509 140.594 140.652 140.747 140.802 140.869 140.892 140.882 140.942 140.927 140.972 140.962 140.942 140.919 140.929 140.934 140.957 140.827 140.809 140.864 140.937 141.054 140.934 140.937 141.007 141.139 141.539 141.577 141.447 141.789 141.394 140.864 140.802 141.149 141.794 141.484 141.412 141.192 140.612 140.607 140.617 140.612 140.769 142.789 142.207 142.992 141.697 143.309 143.659 143.659 144.297 143.447 144.089 143.247 145.199 145.554 144.499 144.062 144.024 143.892 144.647 144.177 143.862 143.902 143.559 143.912 143.129 144.259 143.904 143.399 143.654 143.089 142.532 142.394 142.769 142.234 142.817 141.829 139.577 141.524 142.147 141.237 140.484 141.199 140.577 140.314 139.702 139.557 139.364 138.617 138.612 139.212 138.842 137.354 137.989 137.437 138.059 137.867 136.762 136.949 136.767 136.182 135.352 135.494 134.227 131.929 129.942 127.954 127.654 127.309 126.927 126.527 126.132 125.742 125.379 125.069 124.754 124.462 124.154 123.804 123.434 123.067 122.667 122.214 121.752 121.209 120.702 121.169 123.484 124.454 122.927 123.122 122.069 122.534 122.204 123.374 122.014 120.667 119.934 119.397 118.737 117.512 117.992 117.489 115.557 115.252 115.637 115.769 115.057 113.874 112.619 112.209 111.772 111.472 110.232 109.982 108.687 108.119 108.254 107.117 106.979 104.187 105.137 104.317 104.154 102.914 99.547 95.597 97.337 96.762 94.849 96.389 95.849 93.052 92.924 92.027 93.954 93.072 91.287 91.142 89.252 87.102 86.604 86.169 86.052 84.589 83.167 82.322 80.597 80.704 79.904 78.362 76.897 76.242 74.574 74.242 75.657 75.029 74.632 73.422 74.077 71.677 72.447 72.684 72.719 71.757 70.814 70.727 70.192 69.464 64.182 60.934 60.497 60.139 59.834 59.647 59.762 60.179 57.862 56.727 56.719 57.324 56.734 55.554 55.439 55.394 55.329 55.292 55.274 55.209 55.212 55.212 55.219 55.122 55.124 55.284 55.332 55.337 55.412 55.429 55.392 55.449 55.469 55.507 55.487 55.492 55.507 55.519 55.507 55.484 55.517 55.487 55.559 55.607 55.672 55.759 55.829 55.844 55.867 55.937 55.977 55.999 56.047 56.094 56.149 56.194 56.254 56.254 56.337 56.584 59.889 60.944 59.477 59.617 59.484 58.974 58.794 58.542 56.572 57.774 57.224 57.254 57.439 57.664 57.909 58.149 58.374 58.604 58.847 59.029 59.254 59.492 59.742 59.977 60.229 60.449 60.739 60.967 61.212 61.389 61.552 61.732 61.899 62.122 62.277 62.404 62.534 62.647 62.752 62.842 62.899 62.942 62.979 63.024 63.949 64.232 63.939 63.669 63.894 63.909 64.749 64.119 62.492 61.947 61.822 61.642 61.509 61.592 61.707 61.687 61.697 61.847 62.479 63.517 65.139 65.832 66.199 65.954 66.082 66.219 66.299 66.422 66.567 66.679 66.822 66.947 67.084 67.242 67.357 67.499 67.634 67.822 68.012 68.249 68.462 68.699 68.937 69.187 69.447 69.657 69.857 70.044 70.197 70.324 70.444 70.594 70.719 70.789 70.847 70.909 70.982 71.049 71.107 71.144 71.204 71.289 71.387 71.474 71.552 71.694 71.804 71.929 72.062 72.164 72.264 72.352 72.469 72.559 72.629 72.664 72.712 72.779 72.844 72.929 73.014 73.109 73.159 73.219 73.272 73.362 73.449
140.287 140.297 140.307 140.342 140.392 140.462 140.494 140.589 140.722 140.809 140.894 140.899 140.899 140.869 140.912 140.904 140.954 140.959 140.947 140.924 140.912 140.924 140.897 140.747 140.714 140.777 140.852 140.914 140.912 140.917 140.917 140.879 140.837 140.932 140.947 141.684 141.509 140.662 140.644 141.087 141.144 141.489 141.294 140.984 140.682 140.657 140.624 140.627 140.662 140.902 143.442 140.817 140.249 141.872 141.649 144.449 143.922 144.727 144.359 144.297 144.514 144.709 144.749 144.259 144.549 143.072 144.609 144.604 145.259 143.822 143.922 143.524 142.237 144.444 143.754 143.512 143.534 143.029 142.232 142.434 142.724 141.714 142.292 141.827 141.802 141.602 140.639 140.424 140.787 141.417 140.627 140.412 140.219 140.242 139.619 140.349 138.332 137.689 137.682 138.817 138.482 138.142 137.444 137.509 136.809 136.484 136.089 135.497 134.137 135.104 132.292 129.119 128.359 128.047 127.784 127.467 127.147 126.772 126.419 126.034 125.694 125.392 125.114 124.827 124.497 124.179 123.809 123.452 123.077 122.629 122.144 121.659 121.112 120.559 120.444 120.199 119.764 118.989 121.769 121.602 122.819 122.397 121.254 121.637 120.807 119.132 119.402 118.349 117.752 117.442 116.422 116.989 116.042 115.772 114.734 114.109 113.337 112.399 111.582 110.679 110.194 110.942 109.949 109.059 109.337 107.109 107.332 105.642 104.492 104.182 104.814 103.402 101.859 99.917 100.422 97.537 95.687 95.929 96.717 91.754 88.762 89.279 91.274 90.044 85.957 89.779 90.082 88.117 88.034 86.657 84.472 84.079 83.872 82.319 80.739 81.867 79.629 78.859 78.072 76.439 77.602 76.789 74.557 74.389 74.629 72.314 74.044 73.182 73.189 72.629 73.587 71.764 70.247 71.399 70.404 70.007 66.884 61.257 60.519 60.114 59.977 59.602 59.239 59.307 57.879 56.862 57.099 58.512 60.639 55.552 55.344 55.332 55.297 55.309 55.272 55.217 55.202 55.232 55.242 55.027 55.304 55.299 55.352 55.387 55.449 55.419 55.412 55.422 55.449 55.444 55.434 55.444 55.482 55.474 55.494 55.459 55.497 55.522 55.609 55.657 55.702 55.782 55.814 55.862 55.889 55.949 55.972 56.007 56.037 56.084 56.157 56.204 56.247 56.262 56.447 56.602 58.622 60.624 59.757 59.764 60.872 62.229 63.672 61.902 58.907 58.654 57.517 57.472 57.689 57.879 58.104 58.377 58.619 58.842 59.079 59.297 59.527 59.739 59.994 60.254 60.477 60.742 60.992 61.197 61.452 61.657 61.814 61.977 62.144 62.317 62.462 62.597 62.744 62.852 62.924 62.982 63.014 63.064 63.092 63.192 63.944 64.307 64.119 63.882 64.089 64.342 63.494 63.797 62.619 61.879 61.712 61.607 61.527 61.679 61.682 61.642 61.727 62.794 63.182 64.339 65.612 66.504 66.287 66.194 66.347 66.444 66.507 66.649 66.767 66.894 67.022 67.124 67.267 67.422 67.532 67.689 67.847 68.012 68.199 68.447 68.677 68.892 69.122 69.414 69.634 69.829 70.024 70.194 70.352 70.444 70.554 70.694 70.807 70.887 70.937 70.999 71.057 71.107 71.157 71.219 71.269 71.354 71.434 71.532 71.632 71.772 71.884 72.017 72.149 72.269 72.359 72.444 72.572 72.632 72.717 72.759 72.812 72.829 72.869 72.944 73.029 73.119 73.177 73.229 73.274 73.359 73.434
140.627 140.894 140.307 140.289 140.389 140.467 140.432 140.529 140.712 140.782 140.829 140.877 140.894 140.917 140.889 140.904 140.924 140.937 140.924 140.917 140.892 140.842 140.804 140.669 140.587 140.679 140.749 140.817 140.844 140.879 140.824 140.864 140.757 140.749 140.787 140.749 140.632 140.554 140.599 142.732 142.739 142.009 141.724 141.589 141.034 140.687 140.649 140.679 140.689 140.817 142.634 143.219 140.602 144.077 144.817 144.924 143.774 145.227 144.862 145.062 141.239 143.944 144.177 144.212 143.562 144.202 144.362 144.057 143.987 143.507 143.467 143.732 143.484 142.417 144.059 143.307 143.072 142.642 142.712 142.559 142.689 142.422 142.314 142.419 142.704 142.452 141.469 141.554 141.062 141.612 141.519 140.444 140.287 139.224 139.927 139.197 139.087 139.009 138.712 138.817 138.522 138.487 137.789 137.357 136.517 136.259 135.979 135.309 134.469 134.892 132.764 130.684 128.399 128.142 127.877 127.594 127.277 126.947 126.612 126.289 125.959 125.674 125.394 125.099 124.794 124.467 124.127 123.787 123.437 123.019 122.562 122.059 121.527 120.967 120.374 119.792 119.272 118.769 119.797 122.742 123.547 123.029 122.704 122.194 121.539 120.569 120.614 119.647 119.147 117.854 117.707 117.102 115.537 115.162 114.989 114.939 113.362 113.107 112.627 111.907 110.929 111.479 109.499 109.969 109.437 107.699 106.459 105.739 105.587 104.492 104.752 104.419 103.282 103.312 102.517 100.462 99.254 97.517 96.594 90.652 88.284 89.252 87.922 86.474 88.742 90.029 88.187 87.487 87.217 86.659 85.154 83.349 82.047 80.977 81.159 80.964 80.899 77.339 76.574 77.654 76.609 76.317 73.647 74.999 74.519 72.747 74.352 73.789 72.984 71.659 72.144 70.909 69.582 70.539 72.227 70.364 66.129 61.064 60.544 60.187 60.044 59.562 59.619 59.917 57.507 56.734 58.182 62.302 58.567 55.457 55.314 55.279 55.259 55.264 55.272 55.212 55.237 55.229 55.224 54.987 55.434 55.389 55.409 55.422 55.447 55.429 55.389 55.397 55.402 55.424 55.462 55.464 55.474 55.487 55.522 55.509 55.524 55.564 55.642 55.664 55.689 55.774 55.824 55.884 55.929 55.929 55.954 55.984 56.049 56.117 56.172 56.194 56.224 56.244 56.542 56.774 57.562 59.864 60.094 59.887 60.019 59.509 59.274 57.067 57.984 57.729 57.502 57.699 57.887 58.112 58.329 58.554 58.799 59.084 59.279 59.539 59.774 60.007 60.254 60.514 60.747 60.992 61.192 61.437 61.647 61.852 62.027 62.167 62.322 62.464 62.639 62.767 62.942 63.012 63.069 63.129 63.169 63.212 63.224 63.434 64.057 63.797 63.769 63.999 64.154 65.642 63.649 62.879 61.984 61.807 61.692 61.547 61.584 61.679 61.739 61.794 61.862 62.642 63.744 66.269 66.564 67.114 66.307 66.454 66.547 66.614 66.737 66.852 66.974 67.079 67.197 67.337 67.432 67.577 67.719 67.854 68.017 68.194 68.394 68.624 68.852 69.072 69.307 69.589 69.812 70.009 70.194 70.349 70.482 70.587 70.657 70.767 70.899 70.962 71.014 71.067 71.124 71.159 71.207 71.274 71.322 71.412 71.487 71.594 71.707 71.824 71.974 72.107 72.239 72.342 72.457 72.522 72.617 72.704 72.769 72.832 72.869 72.879 72.914 72.964 73.037 73.109 73.177 73.237 73.304 73.372 73.419
141.062 140.817 140.254 140.299 140.382 140.439 140.402 140.564 140.737 140.762 140.834 140.872 140.864 140.872 140.857 140.869 140.902 140.904 140.877 140.872 140.862 140.682 140.662 140.617 140.574 140.622 140.664 140.757 140.769 140.779 140.734 140.802 140.787 140.742 140.702 140.684 140.577 140.559 140.512 141.452 143.559 141.874 142.232 142.052 141.644 141.059 140.667 140.632 140.607 140.587 142.682 144.369 142.217 144.457 145.099 145.419 142.544 143.969 144.172 142.742 140.897 144.694 143.904 144.792 144.617 144.937 144.509 143.734 143.462 143.612 143.204 142.977 141.729 142.294 143.147 143.514 143.149 142.294 142.932 142.764 140.969 141.917 141.849 142.224 142.549 141.972 142.234 141.164 141.044 141.569 139.794 140.042 139.864 138.774 139.662 139.629 138.872 138.314 139.252 138.024 137.887 137.477 137.702 137.764 135.944 136.977 135.554 135.172 135.264 134.377 133.687 129.264 128.404 128.154 127.882 127.654 127.357 127.054 126.749 126.449 126.147 125.882 125.617 125.329 125.012 124.699 124.394 124.054 123.697 123.297 122.867 122.422 121.914 121.369 120.824 120.262 119.724 119.182 119.162 122.329 123.904 123.517 122.652 122.322 121.757 121.494 120.257 119.912 118.702 117.932 118.157 118.027 116.952 115.577 115.279 115.502 114.467 113.599 113.374 112.027 112.004 111.349 110.907 110.367 109.212 108.419 107.779 105.797 106.264 104.712 103.724 104.222 103.552 102.934 100.762 100.827 99.267 97.722 97.242 96.292 90.777 88.794 87.674 90.112 92.834 91.327 88.262 88.062 87.047 85.837 85.982 84.939 83.409 81.814 82.004 81.202 82.039 78.452 75.829 77.484 75.834 74.354 74.897 75.689 74.022 73.394 74.662 73.687 72.862 72.522 72.257 72.317 70.259 70.322 71.262 70.229 63.597 61.064 60.564 60.262 59.944 59.452 60.404 61.872 57.294 56.769 57.279 56.324 55.592 55.314 55.317 55.289 55.292 55.244 55.237 55.219 55.179 55.229 55.177 55.059 55.477 55.412 55.389 55.364 55.389 55.412 55.372 55.382 55.392 55.394 55.404 55.442 55.472 55.472 55.499 55.552 55.539 55.594 55.642 55.662 55.694 55.779 55.824 55.877 55.929 55.939 55.972 55.977 56.049 56.127 56.167 56.197 56.207 56.194 56.572 57.084 57.167 58.729 59.892 59.939 60.267 62.242 60.582 58.634 58.044 57.469 57.749 57.897 58.099 58.314 58.512 58.772 59.019 59.269 59.482 59.724 60.002 60.247 60.494 60.712 60.972 61.189 61.397 61.654 61.892 62.047 62.224 62.339 62.472 62.644 62.794 62.959 63.092 63.189 63.239 63.294 63.309 63.362 63.394 64.689 64.799 63.899 64.059 64.042 64.509 63.802 63.452 62.137 61.884 61.749 61.612 61.534 61.714 61.717 61.822 61.859 62.634 63.684 64.974 65.722 66.829 66.649 66.564 66.649 66.709 66.804 66.929 67.044 67.149 67.254 67.387 67.512 67.634 67.759 67.919 68.039 68.204 68.369 68.567 68.807 69.057 69.279 69.514 69.727 69.967 70.144 70.332 70.467 70.599 70.712 70.784 70.887 70.972 71.057 71.092 71.129 71.192 71.237 71.274 71.332 71.384 71.447 71.532 71.632 71.759 71.909 72.027 72.182 72.302 72.412 72.514 72.597 72.667 72.757 72.824 72.892 72.932 72.922 72.954 72.992 73.039 73.129 73.187 73.254 73.299 73.354 73.432
140.634 140.359 140.327 140.407 140.382 140.462 140.489 140.594 140.709 140.749 140.769 140.739 140.774 140.784 140.774 140.777 140.819 140.832 140.772 140.779 140.794 140.762 140.627 140.574 140.569 140.629 140.634 140.637 140.689 140.754 140.699 140.677 140.729 140.712 140.679 140.599 140.537 140.444 140.494 141.004 142.572 142.252 142.399 142.029 141.637 141.422 140.832 140.559 140.522 140.507 140.794 141.914 141.457 143.909 144.309 144.662 144.352 144.869 144.869 142.882 142.199 144.649 143.204 144.512 144.337 144.479 143.979 143.839 143.267 143.702 144.257 143.174 142.157 142.949 143.504 143.059 142.959 142.974 143.034 140.664 142.454 142.837 142.342 141.549 141.914 141.639 142.362 141.202 140.994 140.629 139.984 139.602 139.919 139.772 139.599 139.479 139.497 139.444 138.927 138.457 138.559 138.709 137.679 136.759 137.142 136.767 136.794 136.662 135.844 135.427 134.624 130.072 128.442 128.164 127.894 127.654 127.394 127.132 126.877 126.562 126.307 125.989 125.707 125.464 125.167 124.892 124.599 124.239 123.912 123.524 123.144 122.707 122.269 121.794 121.249 120.732 120.167 119.639 119.177 121.434 125.019 124.322 123.217 122.659 121.709 121.979 121.932 120.639 119.427 119.269 119.432 119.072 117.454 116.444 116.377 116.339 114.679 113.459 113.107 111.877 111.449 110.829 109.417 108.444 108.527 107.899 108.029 106.992 106.644 105.279 103.617 103.792 103.137 103.552 101.984 100.294 98.984 97.992 97.207 97.359 93.922 89.282 85.849 89.102 91.264 90.942 88.447 88.889 87.984 87.617 86.862 83.897 83.427 82.494 81.959 82.239 79.624 78.322 75.469 77.717 74.777 75.559 74.929 75.587 73.607 73.127 73.304 72.117 73.124 74.169 72.282 71.989 71.894 69.379 66.537 65.127 61.789 61.132 60.664 60.249 59.919 59.477 59.574 59.052 57.002 56.687 57.454 56.459 55.487 55.327 55.277 55.254 55.264 55.202 55.229 55.209 55.177 55.309 54.984 55.312 55.524 55.417 55.334 55.377 55.344 55.382 55.377 55.337 55.352 55.364 55.387 55.419 55.439 55.447 55.509 55.509 55.507 55.587 55.644 55.692 55.704 55.764 55.792 55.867 55.907 55.964 55.964 56.009 56.074 56.137 56.189 56.202 56.299 56.222 56.574 57.172 58.419 57.914 59.414 60.027 60.054 61.017 61.847 59.947 57.864 57.779 57.932 58.124 58.334 58.482 58.677 58.949 59.189 59.419 59.669 59.927 60.199 60.474 60.687 60.939 61.147 61.387 61.597 61.822 62.174 62.217 62.374 62.507 62.634 62.784 62.959 63.117 63.262 63.359 63.399 63.439 63.457 63.497 63.567 64.309 64.042 63.964 64.094 64.052 63.792 65.174 62.504 61.947 61.832 61.687 61.534 61.644 61.702 61.839 62.089 62.532 63.724 64.712 65.484 66.544 66.742 66.624 66.757 66.844 66.884 67.009 67.127 67.219 67.304 67.442 67.574 67.677 67.807 67.932 68.067 68.209 68.387 68.577 68.764 68.987 69.239 69.467 69.694 69.894 70.114 70.292 70.429 70.584 70.704 70.822 70.887 70.959 71.044 71.129 71.177 71.194 71.242 71.282 71.349 71.392 71.427 71.512 71.574 71.687 71.824 71.957 72.097 72.239 72.359 72.464 72.559 72.634 72.717 72.799 72.867 72.909 72.954 72.959 72.987 73.032 73.069 73.149 73.192 73.239 73.289 73.369 73.429
140.089 140.154 140.254 140.367 140.369 140.462 140.537 140.642 140.699 140.762 140.762 140.744 140.727 140.732 140.724 140.714 140.709 140.704 140.697 140.749 140.742 140.734 140.739 140.709 140.704 140.709 140.629 140.592 140.592 140.682 140.652 140.594 140.667 140.627 140.569 140.527 140.469 140.407 140.557 142.924 142.689 142.157 142.462 142.072 141.762 141.457 141.097 140.604 140.462 140.424 140.404 140.284 140.542 143.047 144.504 144.582 144.664 144.924 143.934 143.194 143.774 144.699 144.552 145.149 143.757 143.849 144.102 143.257 142.969 143.497 143.714 143.592 143.677 142.442 143.252 143.099 143.507 143.484 142.642 142.909 141.922 142.027 142.112 142.369 142.339 141.877 142.019 141.669 141.039 139.487 140.299 140.832 140.429 139.779 139.947 139.574 138.632 139.472 138.399 138.284 138.314 138.334 137.822 136.822 136.749 136.864 136.774 135.934 135.459 134.669 133.837 130.367 128.429 128.159 127.922 127.659 127.407 127.154 126.902 126.622 126.342 126.064 125.777 125.494 125.269 124.972 124.724 124.379 124.032 123.692 123.309 122.924 122.527 122.092 121.592 121.137 120.632 120.099 119.567 120.347 124.304 124.749 123.969 123.264 122.014 122.084 121.709 121.699 120.059 119.359 119.277 118.824 118.067 118.954 116.829 116.989 115.404 114.642 113.139 111.352 110.964 111.572 110.437 109.867 109.224 109.392 107.779 106.704 106.654 105.887 104.979 103.759 103.122 102.267 101.492 101.239 99.412 98.572 97.822 95.897 94.862 91.274 89.602 91.097 92.594 91.529 89.692 88.492 87.274 86.322 85.592 83.254 83.282 82.839 81.344 81.297 79.407 79.289 77.822 78.097 76.127 75.037 74.582 76.402 74.842 72.024 73.084 73.914 72.224 72.224 72.072 71.719 72.169 71.324 63.607 62.134 61.647 61.144 60.809 60.424 59.939 59.454 59.354 58.762 56.882 56.919 57.709 57.767 55.407 55.452 55.307 55.224 55.197 55.199 55.224 55.149 55.192 55.204 54.977 55.444 55.354 55.377 55.322 55.309 55.304 55.309 55.337 55.332 55.369 55.389 55.409 55.462 55.469 55.489 55.489 55.524 55.529 55.544 55.642 55.679 55.732 55.719 55.794 55.852 55.912 55.959 56.034 56.049 56.114 56.169 56.222 56.317 56.384 56.219 56.567 58.532 58.882 57.557 58.642 60.009 60.074 60.907 61.374 59.652 58.034 57.977 58.142 58.324 58.479 58.664 58.862 59.127 59.354 59.594 59.859 60.142 60.387 60.647 60.897 61.132 61.349 61.582 61.772 61.994 62.172 62.359 62.539 62.687 62.819 62.939 63.122 63.277 63.447 63.507 63.582 63.592 63.592 63.622 63.807 64.232 63.874 63.989 64.534 64.354 63.594 62.749 62.162 61.889 61.762 61.627 61.597 61.697 61.674 61.744 62.064 62.957 63.927 65.942 66.444 66.967 66.722 66.782 66.939 67.014 67.092 67.202 67.307 67.397 67.467 67.599 67.724 67.864 67.972 68.099 68.227 68.399 68.554 68.737 68.942 69.172 69.384 69.609 69.837 70.037 70.227 70.389 70.529 70.667 70.792 70.887 70.972 71.029 71.099 71.167 71.224 71.242 71.309 71.354 71.402 71.439 71.507 71.569 71.639 71.747 71.872 72.019 72.149 72.287 72.419 72.519 72.587 72.669 72.742 72.824 72.909 72.932 72.982 72.994 73.014 73.027 73.057 73.112 73.182 73.224 73.302 73.367 73.414
140.019 140.132 140.267 140.374 140.927 141.804 141.352 141.017 140.834 140.752 141.227 141.117 141.319 141.439 140.967 140.722 140.719 140.707 140.722 140.714 140.709 140.699 140.719 140.752 140.759 140.769 140.687 140.549 140.522 140.589 140.562 140.562 140.572 140.574 140.472 140.439 140.367 140.362 141.049 143.884 142.779 142.354 142.454 142.072 141.827 141.479 141.184 140.709 140.437 140.364 140.284 140.164 140.757 142.962 143.069 143.994 144.647 144.162 143.089 141.204 143.899 143.997 143.947 143.754 144.277 142.507 143.829 143.154 142.797 142.889 143.842 143.652 143.757 143.342 143.252 143.639 142.202 141.872 142.772 141.544 142.294 141.619 141.734 142.772 141.804 142.109 142.327 141.274 141.092 140.907 141.162 140.932 140.547 139.872 139.979 139.372 139.337 139.754 139.302 138.277 138.432 137.489 137.967 137.027 137.504 136.639 135.869 136.264 135.217 134.902 131.764 128.769 128.477 128.192 127.914 127.669 127.419 127.174 126.909 126.637 126.362 126.099 125.812 125.549 125.284 125.044 124.782 124.452 124.127 123.789 123.442 123.087 122.739 122.324 121.907 121.434 120.989 120.492 121.129 123.952 125.057 124.289 123.677 122.947 122.989 122.842 121.999 120.579 120.177 119.649 119.462 118.487 118.272 118.814 118.539 117.362 115.969 115.384 114.187 112.514 111.634 111.884 110.667 109.662 108.757 108.364 107.029 107.949 106.889 105.259 104.752 103.212 103.272 102.569 99.719 98.987 99.534 99.012 98.032 97.149 96.072 94.852 93.817 92.757 91.994 89.722 90.449 87.729 86.762 86.352 84.972 83.387 83.322 83.674 82.304 80.427 81.079 80.312 79.027 78.932 77.007 75.249 76.352 74.257 73.214 72.032 71.914 71.827 73.024 72.279 71.647 71.479 72.392 70.544 64.904 62.219 61.729 61.192 60.777 60.279 59.769 59.727 59.812 59.894 56.867 57.117 57.129 55.569 55.444 55.367 55.357 55.164 55.154 55.154 55.224 55.134 55.192 55.044 55.039 55.334 55.347 55.397 55.319 55.277 55.314 55.374 55.392 55.392 55.379 55.447 55.457 55.474 55.482 55.522 55.549 55.499 55.579 55.547 55.624 55.679 55.689 55.702 55.787 55.854 55.929 55.997 56.029 56.074 56.129 56.154 56.244 56.322 56.427 56.472 57.327 59.069 61.524 58.074 58.227 59.999 60.124 60.829 61.042 59.179 58.209 58.259 58.372 58.569 58.759 58.859 59.069 59.304 59.552 59.807 60.037 60.294 60.559 60.824 61.109 61.327 61.537 61.752 61.969 62.157 62.342 62.539 62.672 62.839 62.954 63.132 63.262 63.407 63.584 63.662 63.727 63.747 63.737 63.759 64.097 64.229 63.892 64.192 64.599 64.817 63.144 62.534 61.989 61.827 61.684 61.569 61.689 61.834 61.824 61.694 62.434 63.359 64.444 67.227 66.999 67.392 66.822 66.982 67.057 67.139 67.249 67.354 67.452 67.517 67.634 67.757 67.864 68.034 68.132 68.252 68.384 68.559 68.714 68.894 69.094 69.319 69.562 69.734 69.939 70.159 70.342 70.502 70.622 70.752 70.879 70.957 71.027 71.067 71.159 71.187 71.277 71.307 71.344 71.384 71.427 71.484 71.524 71.597 71.672 71.792 71.927 72.059 72.204 72.327 72.469 72.562 72.642 72.712 72.772 72.852 72.902 72.972 72.979 73.017 73.022 73.022 73.037 73.087 73.147 73.219 73.284 73.339 73.384
139.992 140.134 140.314 140.389 140.707 141.427 141.297 141.262 140.912 140.687 140.717 140.874 142.729 143.439 143.352 143.182 142.282 142.442 141.484 140.672 140.692 140.719 140.729 140.759 140.777 140.752 140.684 140.502 140.489 140.474 140.444 140.474 140.537 140.557 140.427 140.369 140.289 140.402 142.937 143.367 141.919 142.404 142.369 141.934 141.724 141.424 141.057 140.659 140.419 140.309 140.174 140.069 140.109 143.947 144.519 144.382 144.892 144.267 143.727 143.752 144.129 143.817 143.564 144.714 143.274 143.209 143.692 143.719 143.517 143.014 143.877 143.052 144.559 143.359 143.504 143.769 143.362 142.024 142.179 142.799 142.424 141.587 141.744 141.932 141.287 141.157 141.217 141.094 141.142 140.737 140.967 140.764 140.467 139.767 139.777 139.764 139.072 138.549 138.904 138.327 138.224 137.914 138.022 137.722 137.322 136.594 135.724 136.329 135.454 132.737 129.894 128.784 128.509 128.222 127.954 127.687 127.437 127.182 126.929 126.677 126.399 126.127 125.847 125.597 125.324 125.104 124.812 124.502 124.194 123.867 123.547 123.189 122.859 122.514 122.117 121.684 121.212 120.767 122.334 125.344 124.989 125.042 124.654 122.467 122.424 122.324 122.774 121.394 121.559 120.412 120.707 119.687 118.022 118.079 118.549 117.697 115.654 115.309 115.267 113.112 110.819 110.882 110.907 109.539 109.427 108.019 108.384 107.224 105.684 106.187 105.749 104.517 104.519 103.517 99.812 97.787 99.794 98.999 98.097 97.972 95.809 94.652 94.607 94.169 92.039 91.314 90.514 87.387 87.069 87.077 85.819 83.527 82.987 80.749 81.527 80.979 80.817 80.644 80.302 79.079 77.297 76.174 74.704 74.434 73.179 73.872 74.379 72.977 74.117 73.342 73.099 71.237 71.652 71.359 67.647 63.069 61.792 61.319 60.814 60.262 59.707 59.742 60.164 59.262 56.879 57.042 56.934 55.502 55.332 55.317 55.199 55.114 55.122 55.149 55.192 55.172 55.279 54.902 55.172 55.214 56.684 55.659 55.332 55.287 55.317 55.387 55.464 55.492 55.484 55.482 55.477 55.474 55.524 55.544 55.574 55.559 55.594 55.582 55.612 55.674 55.694 55.727 55.767 55.842 55.904 55.987 56.037 56.094 56.119 56.169 56.224 56.424 57.297 60.474 56.642 57.924 61.969 58.462 57.922 60.124 60.409 60.252 60.759 59.792 59.194 58.422 58.529 58.707 58.877 59.042 59.259 59.487 59.729 59.974 60.217 60.464 60.699 61.007 61.289 61.502 61.709 61.924 62.107 62.287 62.469 62.634 62.817 62.979 63.134 63.264 63.407 63.564 63.707 63.797 63.857 63.867 63.947 64.592 64.779 64.357 64.147 64.537 64.382 63.962 62.939 62.184 61.959 61.782 61.614 61.569 61.702 62.054 61.889 61.932 62.837 64.042 65.182 66.362 67.349 67.017 66.974 67.087 67.199 67.299 67.387 67.507 67.582 67.644 67.759 67.852 67.989 68.137 68.267 68.374 68.514 68.657 68.869 69.049 69.239 69.462 69.684 69.874 70.067 70.254 70.412 70.564 70.709 70.819 70.927 71.019 71.069 71.124 71.212 71.252 71.309 71.342 71.372 71.409 71.482 71.514 71.552 71.627 71.742 71.852 71.972 72.112 72.242 72.384 72.499 72.602 72.667 72.734 72.804 72.869 72.934 72.977 72.992 72.994 73.019 73.002 73.044 73.094 73.142 73.204 73.249 73.327 73.369
139.972 140.099 140.307 140.309 140.314 140.419 140.447 140.817 140.754 141.852 143.427 142.874 143.577 143.634 143.672 143.717 143.682 143.582 142.622 140.657 140.679 140.699 140.739 140.732 140.742 140.732 140.602 140.439 140.392 140.419 140.372 140.374 140.467 140.452 140.349 140.259 140.254 140.269 142.389 142.777 141.749 142.437 142.187 141.832 141.587 141.314 141.017 140.577 140.307 140.202 140.042 139.982 139.879 141.937 141.669 143.364 144.202 144.849 144.447 144.747 144.362 144.339 144.549 145.222 143.824 143.814 143.742 143.794 142.809 144.014 144.064 143.487 144.124 142.132 141.964 142.724 142.779 142.852 142.717 142.257 142.387 142.169 143.149 141.874 140.944 140.799 141.669 142.224 139.969 140.212 140.364 140.399 140.587 139.557 139.714 139.727 139.842 137.842 138.487 137.552 137.859 137.999 138.974 138.154 136.832 136.512 136.602 135.629 135.077 131.939 129.107 128.834 128.529 128.257 127.979 127.714 127.434 127.187 126.947 126.699 126.414 126.152 125.884 125.632 125.364 125.104 124.822 124.544 124.232 123.892 123.564 123.249 122.914 122.607 122.257 121.857 121.427 120.994 121.187 123.972 124.982 125.564 124.419 123.904 123.344 122.904 122.569 121.414 120.392 120.707 120.912 118.647 118.749 119.027 118.887 117.852 116.469 114.519 114.252 114.367 111.389 111.332 110.989 109.614 109.364 108.602 108.254 107.017 106.254 105.662 105.459 105.859 104.897 103.349 101.199 93.422 96.357 98.354 99.007 97.994 96.674 96.014 95.832 94.694 92.179 90.694 90.002 88.682 87.572 86.927 85.454 84.047 83.234 83.129 81.552 81.962 81.087 80.582 80.604 77.369 77.437 78.009 75.957 76.659 75.087 74.509 73.374 74.889 74.124 72.294 71.439 71.459 72.089 70.787 68.977 64.584 61.779 61.427 60.794 60.289 59.664 59.602 61.269 59.394 56.874 57.139 57.284 55.454 55.372 55.277 55.107 55.094 55.099 55.134 55.207 55.194 55.117 54.854 55.122 55.262 55.679 56.582 55.359 55.302 55.307 55.332 55.439 55.509 55.492 55.499 55.522 55.517 55.517 55.512 55.542 55.597 55.609 55.597 55.637 55.682 55.737 55.767 55.762 55.807 55.884 55.974 56.032 56.094 56.127 56.212 56.264 56.329 56.052 56.902 59.502 57.584 58.879 58.539 58.054 59.782 60.947 60.327 60.889 60.467 59.117 58.619 58.762 58.867 59.047 59.219 59.414 59.654 59.884 60.157 60.404 60.642 60.864 61.159 61.429 61.674 61.859 62.054 62.249 62.434 62.617 62.772 62.959 63.117 63.264 63.412 63.587 63.719 63.847 63.947 63.979 63.967 64.002 64.467 64.739 64.284 64.277 64.489 64.764 64.087 62.754 62.012 61.874 61.747 61.637 61.637 61.797 62.037 62.037 62.499 63.444 64.509 65.739 66.704 67.069 66.959 67.102 67.244 67.312 67.409 67.524 67.609 67.679 67.767 67.889 67.967 68.097 68.219 68.379 68.514 68.647 68.792 68.977 69.182 69.357 69.602 69.787 69.999 70.187 70.347 70.507 70.637 70.787 70.872 70.974 71.049 71.129 71.169 71.232 71.287 71.344 71.379 71.412 71.452 71.497 71.544 71.594 71.659 71.749 71.869 71.979 72.139 72.279 72.417 72.512 72.602 72.702 72.754 72.824 72.887 72.914 72.969 72.989 72.974 72.984 73.019 73.029 73.084 73.149 73.172 73.244 73.277 73.339
139.907 140.027 140.217 140.252 140.344 140.424 140.444 140.887 140.664 143.492 143.819 143.564 142.679 143.064 143.277 143.364 143.472 143.522 141.887 140.649 140.647 140.687 140.714 140.717 140.739 140.692 140.547 140.407 140.402 140.332 140.292 140.289 140.382 140.352 140.287 140.259 140.229 140.162 141.617 142.052 141.749 142.439 142.059 141.642 141.377 141.232 140.932 140.524 140.164 140.062 139.902 139.819 139.749 140.599 142.309 144.429 144.164 144.677 144.144 143.067 144.227 143.432 143.624 143.934 143.987 144.224 143.517 143.927 143.189 144.322 144.182 143.809 143.637 142.804 142.872 142.664 142.762 142.777 143.527 141.489 141.982 141.752 141.827 141.469 141.289 140.702 141.562 141.544 139.387 139.932 141.124 137.529 139.449 140.067 139.247 139.247 139.374 138.752 138.799 138.289 139.259 137.987 137.844 137.737 137.544 136.417 136.387 135.932 135.417 133.452 129.344 128.869 128.564 128.272 127.984 127.702 127.439 127.189 126.934 126.697 126.429 126.164 125.879 125.622 125.357 125.097 124.819 124.524 124.269 123.952 123.587 123.294 122.997 122.677 122.332 121.957 121.582 121.169 120.764 122.542 124.732 125.422 124.354 124.189 123.712 123.109 122.972 122.404 121.389 121.449 121.019 119.797 120.024 118.257 118.547 117.869 116.589 115.007 114.719 114.714 112.722 111.807 111.357 110.537 109.384 108.977 107.859 108.252 108.017 106.742 103.939 103.642 103.749 102.767 101.039 94.682 94.227 95.519 94.822 94.502 93.954 94.994 94.977 93.894 91.582 90.349 89.552 88.722 87.662 86.454 85.957 84.097 83.429 83.504 82.024 81.497 80.924 79.679 77.672 78.417 77.937 77.592 75.577 75.984 74.244 74.207 73.742 74.304 74.167 73.137 73.502 72.309 71.327 70.937 70.854 65.657 61.749 61.259 60.762 60.189 59.809 59.994 60.527 58.394 56.834 57.054 56.514 55.279 55.199 55.147 55.079 55.087 55.102 55.169 55.277 54.942 54.839 54.839 56.559 54.909 55.134 55.374 55.307 55.262 55.329 55.337 55.444 55.487 55.504 55.554 55.532 55.524 55.494 55.509 55.529 55.542 55.564 55.584 55.642 55.694 55.742 55.747 55.772 55.839 55.899 55.977 56.034 56.077 56.114 56.294 56.202 56.539 57.029 56.352 56.837 56.742 56.854 57.329 57.497 59.184 60.894 60.392 60.484 61.414 60.624 59.092 58.849 59.027 59.219 59.369 59.567 59.809 60.067 60.344 60.574 60.787 61.009 61.259 61.549 61.792 62.004 62.192 62.389 62.577 62.757 62.932 63.107 63.249 63.399 63.574 63.722 63.852 63.947 64.042 64.059 64.069 64.172 65.444 64.814 64.262 64.284 64.949 63.814 62.914 62.234 61.942 61.794 61.694 61.644 61.734 62.264 62.287 62.949 63.197 64.322 66.194 66.489 67.602 67.284 67.104 67.239 67.342 67.382 67.542 67.632 67.722 67.804 67.879 67.972 68.092 68.202 68.322 68.472 68.622 68.767 68.909 69.077 69.262 69.487 69.669 69.887 70.102 70.264 70.429 70.624 70.739 70.852 70.937 71.022 71.097 71.164 71.207 71.284 71.314 71.362 71.427 71.437 71.492 71.512 71.557 71.612 71.679 71.782 71.872 72.019 72.162 72.309 72.452 72.542 72.642 72.729 72.777 72.829 72.872 72.912 72.942 72.992 72.974 72.987 72.992 73.017 73.072 73.119 73.174 73.197 73.239 73.302
139.789 139.909 140.062 140.172 140.287 140.342 140.462 140.832 140.912 144.609 144.752 144.607 144.472 144.367 144.194 143.879 143.639 143.692 141.632 140.589 140.597 140.652 140.679 140.684 140.687 140.627 140.412 140.392 140.342 140.317 140.279 140.249 140.237 140.252 140.232 140.212 140.192 140.434 141.404 141.492 141.687 142.382 141.934 141.714 141.432 141.232 140.914 140.472 140.079 139.862 139.752 139.672 139.627 140.944 143.274 144.354 144.434 145.007 142.232 142.999 143.682 144.049 144.594 144.327 144.159 144.024 144.542 144.099 143.447 143.299 143.487 143.944 143.477 143.412 143.354 142.622 142.437 143.154 142.897 141.659 142.044 140.867 141.884 142.554 141.407 141.627 141.627 141.517 141.519 141.667 141.259 140.184 140.912 139.887 140.202 139.252 138.039 137.837 139.584 139.077 138.044 137.829 137.602 138.387 138.032 137.282 136.899 136.274 135.299 132.069 129.157 128.887 128.557 128.289 127.979 127.714 127.429 127.192 126.934 126.702 126.437 126.159 125.867 125.617 125.362 125.114 124.832 124.559 124.264 123.969 123.632 123.319 123.019 122.719 122.404 122.047 121.694 121.282 120.869 121.627 124.117 124.914 124.834 124.182 124.777 123.322 123.269 123.014 122.014 121.659 120.899 119.844 120.327 118.614 118.537 118.039 116.982 116.044 114.999 114.944 113.182 112.154 111.662 110.304 107.799 108.027 109.322 109.132 108.097 107.179 105.814 104.277 103.847 103.654 99.154 93.987 93.672 94.254 91.839 89.759 91.437 96.257 95.859 93.744 90.264 90.617 89.997 88.609 88.277 85.739 86.394 85.897 83.769 82.812 82.267 80.619 77.212 78.954 79.597 78.484 77.707 77.679 77.464 74.912 75.479 72.869 73.739 73.579 74.379 73.262 72.617 71.377 72.722 71.507 70.822 67.067 61.727 61.269 60.752 60.242 59.822 60.142 59.834 58.057 56.794 57.077 56.227 55.274 55.187 55.132 55.059 55.082 55.092 55.147 55.237 54.889 54.814 54.889 54.927 54.844 54.854 54.917 55.079 55.192 55.369 55.427 55.482 55.502 55.507 55.569 55.557 55.564 55.514 55.517 55.552 55.559 55.569 55.582 55.639 55.679 55.717 55.742 55.787 55.822 55.904 55.967 56.017 56.037 56.094 56.052 58.214 56.377 56.597 56.167 56.182 56.199 56.334 56.879 57.372 60.387 60.829 60.699 60.514 60.917 60.962 59.687 58.992 59.144 59.337 59.509 59.739 59.974 60.224 60.459 60.697 60.924 61.144 61.399 61.664 61.924 62.149 62.339 62.527 62.727 62.899 63.077 63.222 63.349 63.532 63.719 63.852 63.964 64.059 64.117 64.157 64.204 64.342 64.899 65.004 64.439 64.954 64.204 63.119 62.474 62.052 61.887 61.737 61.624 61.659 61.854 62.379 61.962 62.857 63.857 64.384 65.827 66.844 68.134 67.154 67.254 67.369 67.419 67.519 67.649 67.729 67.824 67.912 67.979 68.072 68.169 68.284 68.404 68.554 68.704 68.857 68.997 69.167 69.357 69.569 69.747 69.977 70.159 70.354 70.527 70.657 70.827 70.922 71.009 71.074 71.139 71.202 71.257 71.312 71.347 71.404 71.454 71.474 71.484 71.534 71.564 71.607 71.664 71.769 71.884 72.004 72.172 72.312 72.452 72.562 72.662 72.752 72.797 72.827 72.854 72.899 72.912 72.954 72.952 72.982 72.989 73.004 73.039 73.087 73.137 73.159 73.212 73.257
139.737 139.857 139.919 140.097 140.197 140.262 140.367 140.779 140.844 144.947 145.547 145.444 145.317 145.174 145.012 144.877 144.747 144.637 141.259 140.509 140.544 140.617 140.612 140.652 140.592 140.397 140.279 140.309 140.319 140.302 140.262 140.279 140.214 140.182 140.184 140.199 140.134 140.994 143.249 142.197 141.777 142.224 141.779 141.482 141.249 141.067 140.822 140.399 139.959 139.759 139.659 139.572 139.489 139.967 143.089 143.652 143.994 143.789 144.082 143.599 144.434 144.452 144.432 144.524 144.269 143.749 143.994 143.644 143.349 143.164 143.494 143.292 142.882 142.192 142.142 142.829 143.042 142.434 143.684 142.547 142.572 142.679 142.112 142.179 141.479 140.829 140.397 140.782 140.274 140.287 140.837 140.464 140.417 139.367 139.352 139.764 139.312 139.657 139.129 139.524 138.302 138.029 138.142 137.667 137.142 136.434 135.849 136.247 134.909 130.802 129.157 128.869 128.592 128.282 127.979 127.699 127.459 127.212 126.964 126.719 126.452 126.137 125.857 125.587 125.354 125.087 124.842 124.574 124.282 123.974 123.679 123.367 123.034 122.732 122.407 122.092 121.772 121.402 121.097 122.999 125.842 125.689 124.817 125.007 124.837 123.809 123.667 122.522 122.272 121.044 121.537 121.854 120.634 120.119 119.259 117.457 116.864 116.004 115.002 113.979 111.294 112.267 110.977 110.872 107.949 107.859 109.559 106.457 107.812 106.544 106.737 104.534 104.977 103.822 101.064 95.114 92.997 92.672 90.724 90.742 90.694 95.214 94.742 93.752 90.807 90.867 89.714 89.324 88.547 87.359 86.112 84.742 85.394 82.817 79.499 80.177 81.644 81.092 80.067 79.552 77.624 77.442 76.787 75.554 75.459 73.959 75.249 74.464 74.232 73.042 72.394 72.844 72.194 71.489 71.274 68.969 62.959 61.272 60.734 60.572 59.882 59.854 59.817 58.157 56.809 57.147 56.299 55.207 55.144 55.112 55.099 55.064 55.074 55.012 54.844 54.757 54.824 55.032 55.097 55.072 55.029 54.934 54.952 55.819 56.972 55.357 55.479 55.392 55.309 55.549 55.744 55.574 55.522 55.554 55.554 55.582 55.612 55.627 55.634 55.677 55.704 55.742 55.792 55.842 55.937 56.077 56.179 55.907 57.757 60.394 57.842 56.334 56.042 56.004 56.059 56.174 56.219 56.697 57.254 60.074 61.087 61.314 60.699 60.857 61.622 60.622 59.192 59.314 59.472 59.682 59.864 60.132 60.382 60.609 60.837 61.062 61.299 61.582 61.847 62.072 62.282 62.482 62.667 62.844 63.027 63.184 63.324 63.497 63.664 63.834 63.952 64.024 64.117 64.182 64.269 64.399 64.647 65.182 64.737 64.407 64.574 64.709 63.274 62.314 61.954 61.842 61.707 61.637 61.714 62.134 62.292 62.604 63.132 63.992 65.289 66.582 67.582 67.422 67.232 67.367 67.442 67.512 67.654 67.739 67.839 67.904 68.017 68.092 68.172 68.262 68.372 68.482 68.619 68.767 68.919 69.059 69.224 69.442 69.632 69.824 70.019 70.224 70.424 70.577 70.754 70.862 70.962 71.044 71.109 71.192 71.224 71.289 71.339 71.372 71.414 71.444 71.477 71.492 71.527 71.572 71.587 71.662 71.742 71.862 72.007 72.174 72.307 72.457 72.587 72.669 72.757 72.794 72.814 72.857 72.899 72.929 72.922 72.934 72.957 72.979 72.984 73.019 73.044 73.094 73.107 73.142 73.217
139.662 139.742 139.819 139.917 140.047 140.149 140.339 141.132 141.684 145.069 145.229 145.362 145.482 145.547 145.612 145.602 145.554 145.432 141.139 140.499 140.539 140.537 140.557 140.557 140.332 140.222 140.187 140.219 140.247 140.259 140.262 140.229 140.204 140.157 140.089 140.092 140.054 141.834 143.472 142.384 141.899 142.027 141.524 141.319 141.194 141.002 140.702 140.397 139.912 139.664 139.577 139.477 139.412 141.109 142.734 143.742 144.317 143.217 144.004 144.124 143.737 144.272 144.447 143.912 143.507 143.912 143.967 142.782 143.187 142.924 143.442 142.822 143.217 142.584 142.917 142.624 142.362 143.199 142.399 142.444 142.724 141.794 141.637 142.029 141.839 141.577 141.292 140.847 140.209 140.747 141.339 140.449 140.457 140.784 140.112 139.117 140.399 138.432 138.729 139.319 138.779 137.067 137.227 137.739 137.542 136.449 137.047 136.482 134.844 130.977 129.134 128.844 128.562 128.269 127.984 127.722 127.444 127.199 126.964 126.724 126.437 126.159 125.862 125.599 125.304 125.049 124.829 124.564 124.299 123.979 123.682 123.372 123.057 122.727 122.447 122.124 121.804 121.434 121.047 122.662 125.202 124.689 125.074 125.532 124.634 123.279 124.144 123.724 122.737 122.284 121.117 121.609 120.844 119.419 118.774 118.477 117.477 116.454 114.907 114.899 112.442 112.444 110.842 110.609 110.687 110.174 109.894 107.687 106.962 105.017 105.877 104.119 103.779 103.144 100.477 95.627 94.697 93.217 94.422 96.342 93.604 93.387 95.654 92.482 92.469 91.932 90.212 89.979 87.982 86.787 86.392 84.722 84.424 83.672 83.909 82.062 81.922 80.619 79.757 80.024 78.262 77.717 76.757 76.207 75.909 74.684 74.634 74.884 73.507 72.687 71.364 72.594 70.642 71.304 70.019 66.194 61.792 61.244 60.739 60.309 59.929 61.557 59.304 57.899 57.122 57.342 56.277 55.217 55.114 55.112 55.099 55.049 55.112 55.099 54.757 54.727 54.844 55.054 55.097 55.197 55.252 55.204 55.197 56.624 59.319 57.069 55.154 55.164 55.142 55.397 55.442 55.537 55.567 55.602 55.607 55.579 55.642 55.622 55.637 55.637 55.682 55.737 55.817 55.949 56.114 56.579 56.392 56.332 58.157 59.584 56.292 56.194 55.972 55.997 56.107 56.154 56.152 56.542 56.977 57.782 59.642 62.579 60.724 60.822 61.907 60.414 59.389 59.444 59.639 59.822 60.024 60.267 60.529 60.749 61.007 61.234 61.489 61.739 62.004 62.229 62.424 62.599 62.792 62.962 63.127 63.259 63.417 63.594 63.772 63.952 64.037 64.114 64.214 64.284 64.384 64.547 64.777 65.617 64.632 64.517 64.294 63.764 64.172 62.457 61.924 61.784 61.662 61.694 61.954 62.927 62.484 62.554 63.692 64.717 66.179 67.647 67.562 67.222 67.359 67.499 67.559 67.657 67.762 67.839 67.917 67.992 68.069 68.192 68.237 68.362 68.459 68.567 68.687 68.834 68.974 69.112 69.294 69.489 69.679 69.892 70.067 70.284 70.469 70.632 70.787 70.909 70.994 71.102 71.162 71.229 71.267 71.297 71.332 71.372 71.394 71.417 71.452 71.469 71.487 71.522 71.574 71.637 71.752 71.847 71.982 72.117 72.294 72.449 72.582 72.659 72.732 72.782 72.824 72.862 72.869 72.902 72.924 72.912 72.929 72.939 72.967 72.999 73.014 73.019 73.064 73.107 73.142
139.599 139.624 139.722 139.859 140.067 140.074 140.349 140.517 142.174 144.257 144.409 144.524 144.677 144.822 144.937 145.059 145.224 143.812 140.364 140.464 140.442 140.439 140.432 140.219 140.099 140.104 140.094 140.107 140.152 140.159 140.159 140.134 140.104 140.119 140.037 140.004 140.624 143.139 143.879 142.252 141.922 141.897 141.409 141.242 141.172 140.944 140.584 140.297 139.879 139.582 139.442 139.377 139.307 139.302 142.009 143.674 143.114 142.347 142.914 143.187 143.709 144.462 143.974 142.902 143.642 143.667 143.772 142.422 142.462 143.317 143.269 143.577 143.859 142.634 143.232 142.804 142.537 143.139 142.149 141.957 141.769 141.424 141.902 140.789 140.809 140.917 141.494 141.387 140.347 140.679 141.109 141.217 140.454 140.532 139.922 139.047 140.259 140.072 139.289 138.672 137.917 138.029 137.237 136.827 137.549 136.797 136.602 136.384 134.464 130.507 129.157 128.902 128.597 128.304 127.992 127.707 127.457 127.217 126.932 126.682 126.432 126.142 125.852 125.589 125.274 125.034 124.784 124.534 124.269 123.964 123.682 123.394 123.059 122.762 122.469 122.174 121.862 121.522 121.154 122.357 125.849 126.244 125.089 124.899 124.407 123.314 123.639 123.332 122.759 123.134 121.757 120.847 121.077 119.542 118.702 118.202 116.619 116.479 115.109 114.924 114.124 112.797 112.999 110.564 111.124 109.974 109.752 108.349 106.914 105.072 106.234 104.847 103.267 102.742 101.072 99.049 96.979 98.014 96.717 95.529 92.299 92.109 94.659 93.039 92.564 92.172 91.679 90.392 88.637 87.062 86.934 85.789 84.089 83.907 83.569 82.244 81.217 81.027 79.664 79.744 79.372 78.349 76.872 76.447 74.979 75.309 73.982 73.954 73.459 71.282 72.504 73.512 71.527 70.672 69.804 64.629 61.774 61.294 60.794 60.397 60.082 61.467 60.184 57.914 56.897 57.484 57.069 55.322 55.164 55.084 55.057 55.052 55.092 54.977 54.717 54.729 54.889 55.027 55.207 55.354 55.359 55.342 55.264 56.379 55.834 57.197 56.287 55.114 55.132 55.149 55.267 55.242 55.234 55.342 55.574 55.634 55.672 55.664 55.677 55.689 55.724 55.809 55.857 55.989 58.024 57.514 58.817 56.084 57.629 56.454 55.939 56.032 55.972 56.089 56.199 56.259 56.284 56.392 56.767 57.397 59.139 60.512 61.114 60.879 61.107 61.294 59.872 59.654 59.794 59.987 60.187 60.414 60.667 60.922 61.152 61.402 61.644 61.879 62.132 62.347 62.552 62.757 62.914 63.029 63.174 63.357 63.522 63.709 63.864 64.037 64.094 64.192 64.279 64.402 64.522 64.689 65.199 66.017 64.559 65.019 66.199 65.002 63.622 61.989 61.839 61.744 61.609 61.692 62.139 63.099 62.937 62.944 64.269 65.392 66.734 67.649 67.274 67.337 67.492 67.579 67.669 67.769 67.854 67.944 68.024 68.082 68.149 68.247 68.319 68.424 68.524 68.644 68.747 68.887 69.032 69.177 69.334 69.514 69.727 69.942 70.137 70.327 70.494 70.649 70.789 70.909 71.027 71.119 71.172 71.222 71.257 71.284 71.334 71.349 71.367 71.387 71.397 71.417 71.434 71.502 71.527 71.592 71.672 71.789 71.944 72.092 72.224 72.402 72.579 72.647 72.707 72.744 72.799 72.829 72.862 72.867 72.907 72.899 72.914 72.907 72.949 72.934 72.954 72.962 72.982 73.039 73.084
139.517 139.644 139.782 140.004 140.087 140.184 140.572 140.582 141.899 143.322 143.624 142.802 143.257 143.989 144.139 144.097 143.299 142.309 140.342 140.339 140.357 140.364 140.199 140.009 139.987 139.969 139.997 139.957 140.054 140.054 140.067 139.994 139.932 139.984 139.997 139.944 140.442 142.844 142.809 141.074 141.849 141.727 141.299 141.174 141.002 140.767 140.394 140.112 139.752 139.477 139.352 139.292 139.237 139.372 141.739 142.399 143.037 142.924 143.909 144.094 144.389 143.479 143.789 143.712 143.629 143.887 143.284 142.744 142.899 143.994 143.992 143.349 143.219 143.397 142.862 143.299 142.619 143.239 141.907 142.427 142.254 142.399 141.699 141.364 141.399 140.704 141.304 141.314 140.817 140.974 141.649 140.342 139.839 140.264 139.864 139.724 139.882 138.544 138.002 138.062 138.947 138.609 138.222 138.207 137.669 136.954 137.447 136.517 135.482 131.414 129.264 129.014 128.694 128.369 128.072 127.762 127.497 127.204 126.932 126.647 126.382 126.092 125.817 125.532 125.247 124.997 124.729 124.469 124.219 123.969 123.674 123.387 123.082 122.792 122.517 122.219 121.942 121.607 121.284 121.609 125.707 124.899 124.889 125.337 125.197 123.629 123.262 123.082 123.022 121.767 121.734 121.594 120.787 119.849 119.022 118.609 116.849 117.069 116.887 115.612 114.952 112.589 111.347 111.237 109.837 110.089 109.402 108.847 107.902 105.989 106.052 104.324 103.854 103.694 102.424 99.412 94.687 93.902 97.447 95.074 96.459 94.714 94.824 94.114 92.339 91.662 91.962 89.844 88.737 87.432 86.987 86.867 83.307 83.214 82.359 83.539 82.107 81.044 80.934 79.047 78.429 77.232 76.379 76.154 74.979 75.034 74.437 74.062 73.779 72.352 72.992 72.597 71.794 71.017 70.774 64.949 61.802 61.344 60.997 60.437 60.302 59.969 59.819 61.047 56.932 57.569 57.157 55.387 55.124 55.087 55.062 55.069 55.069 54.819 54.682 54.772 54.964 55.124 55.239 55.349 55.402 55.399 55.349 55.417 55.389 57.112 56.414 55.317 55.217 55.394 55.559 55.519 55.514 55.419 55.462 55.664 55.709 55.757 55.744 55.779 55.817 55.852 55.707 55.624 57.114 58.819 56.962 56.154 55.907 55.952 55.892 55.924 55.982 56.054 56.257 57.089 56.559 56.284 56.692 57.072 58.747 60.349 61.644 60.969 61.054 62.029 60.414 59.812 59.977 60.142 60.374 60.584 60.784 61.067 61.277 61.512 61.787 61.997 62.237 62.457 62.652 62.839 62.992 63.107 63.244 63.434 63.614 63.804 63.949 64.092 64.174 64.277 64.399 64.507 64.644 64.744 65.329 65.922 65.199 64.847 64.322 64.387 62.842 61.947 61.827 61.662 61.679 61.829 62.397 61.972 62.632 63.727 64.792 66.022 67.042 67.349 67.282 67.454 67.597 67.659 67.784 67.864 67.927 68.014 68.087 68.144 68.239 68.314 68.409 68.502 68.609 68.702 68.824 68.947 69.082 69.222 69.372 69.514 69.739 69.944 70.167 70.334 70.512 70.662 70.792 70.904 70.999 71.094 71.157 71.194 71.214 71.239 71.282 71.304 71.334 71.309 71.362 71.354 71.379 71.417 71.462 71.532 71.612 71.732 71.864 72.012 72.184 72.372 72.504 72.599 72.672 72.717 72.759 72.779 72.812 72.847 72.872 72.867 72.894 72.882 72.899 72.902 72.899 72.897 72.937 72.967 73.027
139.524 139.577 139.747 139.959 139.999 140.107 140.529 140.734 142.932 143.462 143.482 142.139 143.082 143.554 143.554 140.609 140.357 141.229 140.279 140.274 140.224 140.094 139.964 139.927 139.852 139.844 139.854 139.812 139.892 139.922 139.899 139.854 139.814 139.864 139.904 139.852 140.512 142.527 142.099 141.037 141.724 141.547 141.172 141.069 140.817 140.577 140.212 139.894 139.602 139.419 139.262 139.189 139.159 139.369 143.072 142.714 143.717 144.039 143.747 144.384 144.224 143.929 144.189 143.497 144.429 143.314 143.874 143.079 143.814 143.064 143.212 143.449 143.152 143.047 142.182 142.324 142.257 143.174 142.374 142.774 142.587 141.699 140.762 141.042 140.849 140.179 140.814 141.309 140.587 140.217 141.194 140.202 140.027 139.579 140.597 138.159 138.979 139.294 138.754 138.579 138.622 138.884 137.334 137.644 137.414 137.309 137.639 136.832 135.832 134.752 129.527 129.154 128.839 128.527 128.217 127.897 127.587 127.254 126.959 126.662 126.367 126.077 125.777 125.482 125.194 124.904 124.644 124.417 124.142 123.919 123.617 123.364 123.079 122.789 122.554 122.289 122.047 121.759 121.442 122.074 124.927 125.987 125.562 125.107 124.564 123.914 124.899 123.927 123.004 122.637 122.192 121.739 120.682 119.957 119.524 118.552 117.767 116.957 116.679 116.534 114.139 113.004 112.442 111.444 109.907 110.492 108.632 108.944 107.889 107.354 106.024 103.829 103.134 103.339 102.262 99.464 97.159 100.217 99.284 97.332 96.242 95.439 94.147 93.049 91.979 91.712 90.537 88.799 89.834 87.892 87.232 87.267 85.232 84.082 82.634 82.854 82.487 80.684 80.837 78.744 79.119 78.182 76.512 77.139 75.142 74.749 76.204 74.322 74.524 73.889 73.049 72.487 72.357 72.192 70.614 63.579 61.777 61.452 61.217 60.264 60.122 59.864 63.432 63.127 58.882 57.492 57.962 57.044 55.162 55.099 55.149 55.082 54.879 54.824 54.712 54.882 55.027 55.257 55.347 55.422 55.402 55.364 55.307 55.252 55.132 55.164 55.404 55.402 55.377 55.387 55.544 55.587 55.552 55.669 56.037 56.357 55.627 55.729 55.784 55.777 55.744 55.532 55.672 55.757 56.807 57.597 56.794 55.929 55.937 55.817 55.862 55.909 55.974 56.072 56.144 56.399 56.424 56.269 56.644 56.909 57.979 60.004 61.409 61.147 61.122 61.689 62.204 60.062 60.222 60.379 60.609 60.762 60.989 61.202 61.414 61.662 61.899 62.119 62.337 62.544 62.752 62.929 63.054 63.157 63.322 63.492 63.664 63.842 63.997 64.134 64.242 64.342 64.477 64.607 64.727 64.794 66.617 66.259 65.144 64.147 63.137 62.894 62.049 61.859 61.762 61.652 61.714 61.967 62.242 62.262 63.264 64.234 65.587 66.522 67.629 67.344 67.314 67.522 67.637 67.739 67.854 67.939 68.007 68.062 68.149 68.224 68.304 68.387 68.474 68.572 68.669 68.759 68.864 68.989 69.127 69.249 69.387 69.547 69.717 69.942 70.144 70.309 70.519 70.662 70.782 70.874 70.982 71.042 71.112 71.147 71.184 71.209 71.219 71.259 71.269 71.252 71.282 71.274 71.307 71.339 71.384 71.439 71.539 71.652 71.769 71.929 72.117 72.274 72.412 72.547 72.609 72.669 72.727 72.722 72.762 72.809 72.814 72.827 72.814 72.837 72.834 72.824 72.817 72.847 72.862 72.922 72.972
