ncols 453
nrows 31
xllcorner    249048
yllcorner    135184
cellsize     2
NODATA_value -9999
8.558 8.636 8.641 8.688 8.748 8.818 8.698 8.818 8.868 8.913 8.876 8.908 8.911 8.956 8.968 9.008 8.983 8.961 9.018 9.016 8.486 7.951 7.943 7.913 7.883 7.971 8.343 8.266 8.093 8.086 8.381 8.693 9.358 9.268 10.028 11.208 10.303 8.968 9.038 9.058 9.221 9.163 9.193 9.206 10.941 9.478 9.876 10.946 12.003 10.016 9.388 9.326 9.348 9.366 9.346 10.633 9.361 9.401 9.458 9.536 9.618 11.471 10.208 12.028 12.396 12.146 12.486 12.011 12.178 12.118 11.781 11.213 10.653 10.428 10.281 10.331 10.278 10.273 10.263 10.308 10.338 10.368 10.436 10.503 10.476 10.851 10.751 10.293 10.441 10.788 10.338 10.306 10.136 9.663 9.316 10.036 9.311 9.313 9.323 9.341 13.546 13.751 13.956 14.176 14.391 14.611 14.823 15.026 15.238 15.451 15.651 15.861 8.986 8.988 8.996 8.998 9.013 9.026 9.033 9.043 9.051 9.091 10.951 11.016 10.258 9.371 9.316 9.458 10.306 10.066 10.011 10.163 10.028 10.493 10.771 9.823 9.166 9.181 9.171 9.128 9.103 10.061 9.273 14.776 9.958 14.278 11.141 14.381 14.661 14.641 14.631 14.543 13.091 14.293 14.288 14.291 14.288 10.233 12.446 10.196 12.636 10.166 10.191 10.211 10.198 10.208 10.801 10.198 11.283 10.811 10.206 10.183 10.098 10.118 10.126 10.138 10.181 10.274 13.084 10.541 16.644 15.106 10.326 10.231 10.369 10.326 10.319 10.329 10.366 10.346 13.161 13.149 13.146 10.349 10.349 10.359 10.364 10.386 10.384 10.396 10.414 10.401 10.404 10.419 10.419 10.424 10.231 9.916 9.959 9.944 9.926 10.384 10.439 11.169 11.886 10.406 10.409 10.276 10.786 10.276 10.394 10.394 10.429 10.489 10.511 10.506 10.496 10.454 10.486 10.499 10.466 10.479 10.489 10.496 10.504 10.519 10.531 10.546 10.579 10.594 10.624 10.654 10.669 10.689 10.706 10.724 10.729 10.756 10.786 10.779 10.796 10.796 10.811 10.791 10.794 10.796 10.821 10.816 10.831 10.844 10.841 10.854 10.874 10.869 10.869 10.871 10.896 10.916 10.919 10.929 10.939 10.946 10.954 10.969 10.959 10.974 10.971 10.986 10.994 10.986 11.014 11.006 11.011 11.019 11.011 10.999 10.999 10.999 10.984 10.969 10.959 10.951 10.951 10.944 10.959 10.946 10.934 10.929 10.934 10.919 10.894 10.879 10.871 10.859 10.829 10.821 10.836 10.829 10.844 10.861 10.859 10.869 10.896 10.931 10.954 10.976 11.009 11.029 11.049 11.056 11.059 11.074 11.071 11.081 11.071 11.074 11.061 11.064 11.071 11.064 11.069 11.079 11.074 11.081 11.089 11.106 11.116 11.131 11.129 11.126 11.139 11.151 11.151 11.144 11.141 11.151 11.131 11.144 11.149 11.146 11.151 11.164 11.174 11.181 11.194 11.219 11.219 11.241 11.246 11.244 11.221 11.214 11.201 11.189 11.146 11.104 11.081 11.036 11.009 11.264 12.134 12.616 11.199 11.249 11.314 11.334 11.341 11.401 11.394 11.349 11.369 11.419 11.471 11.406 11.399 11.399 11.404 11.414 11.404 11.339 11.305 11.164 12.248 13.302 11.141 12.443 12.884 13.186 13.528 13.662 13.731 12.524 11.909 12.219 12.613 12.249 11.794 11.702 11.636 11.637 11.679 11.774 11.933 12.076 12.239 12.678 12.873 12.925 12.866 12.854 12.861 12.894 13.177 14.089 13.595 12.744 13.02 12.689 13.145 15.022 14.051 12.712 11.761 11.912 11.755 11.854 11.715 11.831 11.751 11.695 12.651 12.443 12.127 12.972 12.143 12.207 12.333 12.544 12.688 12.849 12.769 12.991 12.343
8.668 8.738 8.741 8.691 8.673 8.606 8.598 8.633 8.633 8.631 8.628 8.591 8.548 8.508 8.441 8.351 8.373 8.458 8.561 8.456 8.023 7.948 7.943 7.923 7.883 8.003 9.116 9.331 8.331 8.136 8.133 8.191 8.523 9.358 9.588 10.716 9.748 8.988 8.958 9.056 9.066 9.238 9.203 9.191 9.213 9.541 10.803 11.043 10.403 9.263 9.963 9.381 9.336 9.328 9.371 11.256 9.351 9.311 9.408 9.503 9.603 9.601 9.646 9.758 10.741 11.801 11.971 12.268 12.956 12.041 12.071 11.733 11.218 10.731 10.413 10.248 10.256 10.273 10.228 10.251 10.276 10.398 10.538 10.511 10.483 11.053 10.563 10.288 10.408 10.603 10.381 10.668 11.016 9.668 9.308 9.148 9.143 9.153 9.156 9.171 9.173 9.786 12.436 12.366 13.491 14.633 14.833 15.043 15.246 15.456 15.661 15.858 8.976 8.983 8.991 9.001 9.011 9.023 9.021 9.043 9.053 9.086 10.248 10.698 11.306 9.203 9.226 9.286 9.391 9.846 9.576 9.763 9.463 9.193 9.188 9.198 10.636 10.496 11.611 11.603 11.248 9.096 9.083 9.073 9.066 9.058 9.071 14.873 14.843 14.846 14.836 13.686 13.643 14.321 14.321 14.323 14.321 10.148 10.186 10.141 10.156 10.138 10.228 10.173 10.186 10.276 11.153 20.556 11.313 11.401 11.261 10.396 10.181 10.908 14.666 10.943 10.274 10.356 12.726 10.329 14.744 13.544 10.321 10.374 10.879 10.511 10.284 10.289 10.339 10.351 13.164 13.169 13.154 10.301 10.344 10.326 10.336 10.354 10.361 10.371 10.376 10.381 10.506 10.421 10.411 10.404 10.056 9.921 9.959 9.971 9.926 10.419 10.454 11.016 11.171 10.411 10.414 10.449 10.474 10.236 10.376 10.366 10.434 10.511 10.506 10.496 10.464 10.416 10.401 10.416 10.414 10.446 10.481 10.504 10.514 10.524 10.529 10.531 10.541 10.539 10.559 10.574 10.579 10.614 10.634 10.656 10.666 10.694 10.709 10.721 10.746 10.761 10.791 10.781 10.776 10.771 10.796 10.771 10.819 10.821 10.844 10.849 10.839 10.856 10.861 10.869 10.881 10.876 10.899 10.911 10.924 10.909 10.914 10.914 10.924 10.929 10.956 10.954 10.956 10.944 10.959 10.961 10.951 10.964 10.966 10.961 10.969 10.969 10.969 10.961 10.944 10.931 10.919 10.924 10.924 10.916 10.914 10.921 10.904 10.904 10.886 10.874 10.869 10.849 10.839 10.821 10.806 10.824 10.841 10.834 10.846 10.851 10.886 10.916 10.934 10.966 10.989 11.021 11.024 11.046 11.039 11.061 11.079 11.059 11.064 11.059 11.061 11.071 11.056 11.054 11.059 11.051 11.054 11.064 11.074 11.076 11.076 11.076 11.081 11.101 11.106 11.089 11.096 11.111 11.114 11.114 11.111 11.114 11.124 11.119 11.114 11.121 11.131 11.139 11.161 11.171 11.191 11.209 11.229 11.211 11.221 11.216 11.204 11.194 11.151 11.129 11.091 11.066 11.051 10.989 11.096 12.146 12.106 11.069 11.264 11.309 11.336 11.336 11.399 11.376 11.391 11.414 11.436 11.439 11.409 11.399 11.374 11.356 11.349 11.317 11.244 11.014 12.305 12.018 13.102 12.838 12.984 13.373 13.725 13.808 13.876 12.772 11.903 12.168 12.643 12.179 11.838 11.806 11.668 11.638 11.659 11.68 11.864 12.003 12.191 12.504 12.683 12.841 12.844 12.741 12.731 12.913 13.257 13.333 13.296 13.211 12.624 12.531 12.828 13.191 13.337 13.536 14.458 11.709 11.932 11.649 11.621 11.6 11.732 11.795 12.485 12.369 12.689 12.736 12.155 12.886 12.19 12.192 13.075 13.673 12.73 12.616 12.171
8.783 8.771 8.768 8.771 8.766 8.741 8.731 8.716 8.713 8.696 8.683 8.673 8.636 8.581 8.511 8.416 8.341 8.246 8.141 8.078 8.013 7.963 7.948 7.936 7.893 7.888 7.953 8.776 8.301 8.098 8.131 8.143 8.093 8.408 9.398 9.403 9.456 9.498 9.028 8.961 9.056 9.126 10.018 9.246 9.206 9.228 9.403 10.001 10.513 12.156 10.418 9.801 9.403 9.376 9.308 9.356 9.416 9.388 9.308 9.406 9.493 9.538 9.581 9.671 9.738 10.703 11.783 11.988 12.078 12.101 12.143 12.131 11.816 11.268 10.718 10.293 10.233 10.211 10.208 10.188 10.221 10.423 10.441 10.451 10.938 11.141 10.888 10.298 10.348 10.363 10.363 11.033 10.676 10.941 9.703 9.241 9.106 9.063 9.073 9.098 9.086 9.111 12.151 9.133 9.136 11.013 14.831 15.038 15.243 15.461 8.996 9.391 8.963 8.966 8.971 8.988 8.998 9.006 9.011 9.036 9.053 9.088 9.118 9.148 9.181 9.216 9.236 9.238 9.236 9.218 9.196 9.183 9.146 9.141 9.128 9.498 9.681 9.066 9.073 9.078 9.078 9.066 9.038 9.046 9.041 9.031 9.083 15.063 15.048 15.046 15.033 14.871 14.311 14.173 14.901 13.591 14.853 10.266 13.551 13.546 13.543 13.541 13.538 10.088 11.943 13.481 13.458 10.876 10.551 10.998 11.061 12.791 10.233 11.083 13.478 10.343 10.269 10.381 10.351 11.319 10.424 10.326 10.309 10.184 10.189 10.174 10.259 10.269 10.296 10.324 13.129 13.144 13.124 10.286 10.284 10.299 10.309 10.301 10.329 10.344 10.354 10.359 10.996 10.441 10.364 10.331 9.851 9.921 9.966 9.949 9.939 10.411 10.389 11.676 11.061 10.416 10.419 10.409 10.514 10.161 10.356 10.349 10.414 10.486 10.514 10.491 10.491 10.441 10.404 10.434 10.456 10.461 10.466 10.446 10.461 10.486 10.464 10.479 10.504 10.541 10.549 10.566 10.574 10.581 10.591 10.594 10.624 10.641 10.661 10.681 10.691 10.711 10.729 10.744 10.736 10.766 10.779 10.789 10.801 10.814 10.816 10.814 10.824 10.854 10.866 10.869 10.866 10.864 10.886 10.904 10.911 10.916 10.936 10.929 10.944 10.949 10.959 10.951 10.954 10.969 10.949 10.951 10.946 10.951 10.959 10.954 10.954 10.941 10.939 10.946 10.941 10.926 10.921 10.919 10.909 10.921 10.911 10.904 10.899 10.886 10.871 10.861 10.849 10.834 10.824 10.796 10.789 10.789 10.784 10.799 10.796 10.816 10.829 10.856 10.901 10.906 10.936 10.969 11.001 11.016 11.036 11.044 11.034 11.031 11.039 11.046 11.036 11.039 11.034 11.021 11.029 11.026 11.021 11.029 11.031 11.049 11.066 11.074 11.071 11.074 11.071 11.094 11.094 11.106 11.104 11.109 11.096 11.101 11.104 11.101 11.101 11.111 11.129 11.141 11.154 11.144 11.161 11.189 11.179 11.204 11.234 11.226 11.189 11.161 11.149 11.144 11.126 11.084 11.069 11.036 10.961 10.874 12.039 12.239 11.114 11.214 11.274 11.319 11.321 11.376 11.394 11.396 11.446 11.419 11.401 11.384 11.369 11.326 11.339 11.244 11.192 11.868 12.349 11.154 11.6 12.698 13.13 13.514 13.799 13.936 14.135 14.204 13.588 11.724 11.798 11.875 11.654 11.785 11.589 11.639 11.673 11.709 11.794 11.924 12.069 12.249 12.459 12.626 12.687 12.684 12.566 12.979 13.144 13.281 13.156 12.768 12.523 12.79 12.947 13.283 13.19 13.591 14.749 13.249 11.891 11.635 11.587 11.602 11.544 11.651 11.795 12.18 12.926 12.916 12.266 15.873 12.861 12.333 12.291 12.821 12.563 12.408 12.131
8.773 8.806 8.813 8.823 8.816 8.798 8.773 8.756 8.743 8.723 8.696 8.683 8.651 8.601 8.546 8.456 8.368 8.288 8.208 8.126 8.051 7.993 7.951 7.933 7.908 7.881 8.116 8.413 8.136 8.046 8.078 8.168 8.138 8.138 8.276 9.278 9.431 9.331 9.381 9.213 8.963 9.043 9.158 9.173 9.231 9.223 9.253 9.296 9.366 11.606 12.241 12.346 9.643 9.416 9.391 9.293 9.413 9.436 9.413 9.326 9.438 9.461 9.496 9.616 9.661 9.761 9.833 11.038 11.023 11.873 11.781 13.138 12.398 11.803 11.358 10.783 10.256 10.111 10.123 10.171 10.298 10.393 10.418 10.383 10.531 11.693 11.348 10.321 10.336 10.348 10.363 10.373 10.426 10.591 10.571 9.861 9.203 9.056 8.988 9.013 9.026 9.046 12.153 9.086 9.826 11.621 14.836 15.036 15.251 15.461 8.983 8.943 8.941 8.951 8.951 8.951 8.963 8.976 8.998 9.021 9.058 9.091 9.118 9.176 9.206 9.236 9.261 9.263 9.266 9.241 9.216 9.183 9.148 9.128 9.116 9.073 9.041 9.031 9.053 9.048 9.033 9.018 9.023 9.013 9.021 9.026 9.033 8.998 9.048 8.998 12.423 12.793 14.991 15.476 15.466 15.431 15.418 11.563 13.518 13.513 13.516 13.513 13.518 9.906 12.991 13.526 13.448 11.866 14.533 10.208 10.611 12.793 10.233 10.703 12.708 10.806 10.241 10.616 12.766 10.396 14.439 10.339 10.336 10.339 10.331 10.339 10.499 10.251 10.299 10.309 13.114 13.124 13.119 10.271 10.286 10.284 10.289 10.309 10.314 10.336 10.334 10.359 10.364 10.361 10.334 10.136 9.866 9.921 9.939 9.914 10.141 10.391 10.386 11.081 10.596 10.431 10.434 10.574 10.591 10.141 10.344 10.349 10.401 10.469 10.479 10.471 10.479 10.469 10.444 10.429 10.436 10.441 10.444 10.464 10.481 10.484 10.484 10.504 10.514 10.504 10.519 10.531 10.526 10.544 10.559 10.571 10.589 10.591 10.596 10.594 10.609 10.636 10.656 10.666 10.669 10.684 10.699 10.729 10.741 10.774 10.801 10.791 10.786 10.816 10.824 10.834 10.849 10.859 10.864 10.874 10.881 10.886 10.889 10.904 10.909 10.904 10.924 10.946 10.941 10.941 10.951 10.954 10.959 10.974 10.956 10.946 10.941 10.936 10.939 10.929 10.919 10.921 10.924 10.919 10.906 10.921 10.911 10.914 10.906 10.906 10.881 10.876 10.856 10.844 10.841 10.821 10.801 10.771 10.774 10.774 10.796 10.794 10.829 10.841 10.851 10.884 10.911 10.916 10.966 10.969 10.999 11.024 11.029 11.026 11.019 11.011 11.016 11.016 11.006 11.009 10.986 10.984 10.986 10.974 10.994 10.996 11.021 11.026 11.021 11.046 11.054 11.049 11.059 11.079 11.061 11.069 11.084 11.079 11.071 11.076 11.089 11.084 11.099 11.124 11.136 11.141 11.149 11.166 11.164 11.189 11.199 11.181 11.161 11.156 11.159 11.151 11.129 11.116 11.109 11.079 11.041 10.984 10.959 12.419 12.329 11.919 11.206 11.224 11.271 11.286 11.316 11.391 11.429 11.371 11.349 11.396 11.409 11.359 11.344 11.255 11.168 13.035 12.283 11.253 11.467 11.809 12.632 13.284 13.36 13.993 14.17 14.353 14.203 11.947 11.815 11.739 11.679 11.631 11.605 11.568 11.596 11.735 11.803 11.873 11.995 12.121 12.259 12.404 12.534 12.58 12.557 12.537 13.015 13.315 13.034 12.792 12.354 12.703 13.053 13.051 12.461 12.113 12.921 14.011 13.201 11.886 11.536 11.666 11.596 11.553 11.628 11.763 11.636 12.213 14.206 17.556 16.641 15.286 13.253 12.176 12.341 12.408 12.028
8.781 8.788 8.801 8.801 8.786 8.748 8.721 8.701 8.693 8.676 8.653 8.631 8.611 8.576 8.501 8.428 8.343 8.271 8.193 8.123 8.061 8.016 7.968 7.943 7.933 7.933 7.913 7.973 8.018 8.081 8.111 8.168 8.166 8.171 8.181 8.293 9.033 9.453 9.358 9.413 9.341 8.956 9.028 9.121 9.108 9.248 9.253 9.276 9.328 9.243 9.493 10.253 11.081 10.648 9.411 9.443 9.328 9.368 9.448 9.401 9.363 9.343 9.458 9.506 9.666 9.696 14.736 9.728 9.748 10.966 11.726 11.863 12.731 12.046 12.898 11.208 10.556 10.171 10.116 10.236 10.383 10.388 10.431 10.433 10.601 12.078 11.198 10.418 10.303 10.323 10.343 10.361 10.321 10.281 10.911 10.341 9.778 9.021 8.901 8.933 8.953 8.981 8.998 9.031 9.466 12.863 14.851 15.048 15.261 15.478 8.981 8.948 8.953 8.956 8.951 8.953 8.953 8.958 8.991 9.023 9.053 9.091 9.136 9.176 9.218 9.253 9.601 9.256 9.258 9.251 9.213 9.176 9.146 9.118 9.103 9.063 9.028 9.001 9.016 8.983 8.943 8.958 8.966 8.988 8.991 9.118 9.786 9.003 8.996 8.988 8.983 9.123 13.396 12.703 13.513 14.246 15.036 11.628 13.473 13.478 13.486 13.481 13.496 9.718 12.946 13.458 13.446 10.763 10.391 11.658 10.338 12.788 10.211 10.886 10.533 12.903 10.161 10.349 12.616 10.311 17.076 14.326 12.439 12.606 12.661 12.846 12.151 10.254 10.254 10.279 10.261 10.264 10.254 10.274 10.261 10.271 10.281 10.284 10.301 10.311 10.334 10.331 10.331 10.289 10.184 9.816 9.886 9.909 9.916 9.896 10.311 10.384 10.181 12.231 10.369 10.431 10.426 10.519 11.326 10.131 10.359 10.381 10.434 10.466 10.439 10.454 10.424 10.409 10.394 10.396 10.406 10.426 10.449 10.464 10.471 10.464 10.479 10.474 10.484 10.504 10.516 10.536 10.549 10.556 10.574 10.606 10.609 10.614 10.621 10.629 10.631 10.629 10.621 10.636 10.641 10.646 10.646 10.666 10.661 10.681 10.699 10.719 10.716 10.711 10.751 10.771 10.791 10.796 10.816 10.836 10.841 10.851 10.864 10.869 10.871 10.889 10.894 10.904 10.909 10.934 10.936 10.936 10.936 10.944 10.946 10.951 10.951 10.934 10.934 10.926 10.921 10.916 10.924 10.889 10.894 10.891 10.879 10.876 10.864 10.856 10.849 10.841 10.824 10.821 10.806 10.779 10.771 10.751 10.754 10.751 10.756 10.771 10.776 10.789 10.811 10.839 10.876 10.896 10.921 10.956 10.979 10.989 11.001 11.014 11.026 11.031 11.029 11.011 10.996 10.981 10.986 10.974 10.961 10.979 10.966 10.981 10.984 10.996 11.006 11.039 11.031 11.036 11.046 11.051 11.049 11.059 11.069 11.069 11.069 11.091 11.084 11.074 11.074 11.089 11.096 11.101 11.111 11.106 11.119 11.146 11.161 11.146 11.194 11.174 11.119 11.141 11.109 11.121 11.119 11.091 11.029 11.014 10.999 10.979 11.641 12.346 12.539 11.084 11.204 11.249 11.314 11.284 11.354 11.401 11.379 11.379 11.374 11.389 11.314 11.246 11.083 12.496 11.746 11.32 11.643 11.346 11.825 12.212 12.658 13.063 13.733 14.43 13.283 11.842 11.687 11.638 11.655 11.646 11.563 11.565 11.605 11.674 11.778 11.874 11.886 11.971 12.149 12.266 12.341 12.399 12.449 12.401 12.524 13.151 12.976 12.551 12.158 11.936 12.216 12.491 12.013 11.783 11.721 12.113 13.236 13.331 13.538 12.126 11.683 11.613 11.568 11.518 11.703 11.631 12.131 14.431 15.826 15.438 12.393 14.041 12.016 12.141 12.173
8.746 8.746 8.743 8.711 8.658 8.678 8.643 8.643 8.713 8.678 8.718 8.708 8.643 8.598 8.488 8.403 8.296 8.208 8.136 8.078 8.013 7.986 7.956 7.958 7.968 7.963 7.958 7.958 8.023 8.046 8.051 8.143 8.168 8.216 8.156 8.288 8.391 8.908 9.443 9.413 9.676 9.533 8.996 8.993 9.091 9.073 9.283 9.266 9.303 9.338 9.288 9.348 10.991 12.648 9.323 9.408 9.456 9.388 9.358 9.406 9.431 9.403 9.341 9.438 9.541 9.583 9.741 9.741 9.751 9.751 10.536 11.431 11.858 12.501 12.026 11.751 10.958 10.543 10.116 10.341 10.408 10.418 10.386 10.403 11.098 11.576 10.781 10.786 10.261 10.273 10.343 10.296 10.268 10.238 10.221 10.243 9.978 9.048 8.841 8.846 8.881 8.901 8.936 8.956 8.993 9.243 9.656 9.211 9.038 9.018 8.991 8.978 8.971 8.978 8.988 8.973 8.983 8.988 8.998 9.038 9.063 9.746 9.278 9.321 9.436 9.271 12.601 12.781 12.938 13.101 13.273 9.296 9.146 9.118 9.103 9.063 9.026 9.008 9.006 8.963 8.931 8.936 8.946 8.946 8.948 8.963 9.446 10.388 9.851 9.008 9.293 9.286 9.096 9.126 9.131 9.166 9.203 10.828 10.626 9.526 10.403 12.061 12.408 9.521 12.858 12.921 13.831 13.823 13.116 11.011 10.631 13.541 13.741 13.581 11.888 10.031 9.914 10.144 10.164 10.159 10.249 10.259 10.196 10.156 10.129 10.231 10.251 10.214 10.209 10.256 10.269 10.246 10.236 10.246 10.251 10.264 10.269 10.261 10.286 10.296 10.286 10.319 10.271 10.131 9.786 9.846 9.886 9.894 9.881 10.036 10.366 10.351 9.869 12.066 10.419 10.424 10.446 10.481 11.114 10.289 10.401 10.379 10.391 10.381 10.401 10.401 10.369 10.386 10.366 10.341 10.326 10.326 10.349 10.364 10.376 10.411 10.416 10.461 10.489 10.506 10.509 10.504 10.524 10.551 10.569 10.581 10.594 10.601 10.596 10.606 10.599 10.626 10.641 10.639 10.646 10.636 10.636 10.626 10.626 10.641 10.631 10.666 10.684 10.674 10.686 10.709 10.741 10.759 10.791 10.814 10.824 10.834 10.836 10.841 10.874 10.869 10.884 10.896 10.896 10.891 10.911 10.896 10.894 10.896 10.901 10.906 10.906 10.901 10.894 10.889 10.884 10.876 10.866 10.859 10.841 10.836 10.816 10.816 10.816 10.811 10.804 10.761 10.739 10.734 10.714 10.711 10.701 10.709 10.711 10.704 10.704 10.704 10.716 10.724 10.749 10.786 10.826 10.829 10.884 10.901 10.921 10.956 10.974 11.006 11.006 11.006 10.989 10.979 10.974 10.969 10.964 10.959 10.946 10.974 10.966 10.969 10.964 10.971 10.966 10.971 10.979 10.991 11.006 11.006 11.029 11.039 11.034 11.024 11.041 11.034 11.049 11.059 11.054 11.066 11.069 11.066 11.066 11.081 11.096 11.106 11.124 11.124 11.121 11.139 11.126 11.079 11.106 11.094 11.101 11.081 11.076 10.999 11.021 10.999 10.961 11.099 12.546 12.536 11.031 11.141 11.221 11.241 11.274 11.361 11.404 11.419 11.389 11.389 11.321 11.251 10.908 13.112 11.286 11.237 11.618 11.357 11.541 11.963 11.81 11.772 11.871 12.035 12.171 11.926 11.634 11.604 11.561 11.621 11.596 11.581 11.569 11.659 11.776 11.891 11.921 11.894 12.016 12.154 12.241 12.314 12.341 12.291 12.291 12.941 13.101 12.584 11.951 11.746 11.831 12.148 12.063 11.903 11.746 11.758 12.068 12.666 13.658 12.618 11.581 11.591 11.653 11.481 11.501 11.656 11.656 11.946 13.913 15.726 14.601 14.071 11.923 11.886 11.981
8.656 8.631 9.181 8.698 8.791 8.878 9.003 8.908 8.921 8.811 8.766 8.696 8.643 8.656 8.636 8.568 8.508 8.396 8.248 8.193 8.118 7.966 7.918 7.923 7.946 7.976 7.983 8.016 8.071 8.033 8.078 8.051 8.143 8.293 8.336 8.338 8.413 8.471 8.776 9.446 9.436 9.553 9.778 9.108 8.993 9.101 9.101 9.273 9.276 9.313 9.351 9.786 9.671 10.411 9.346 10.361 10.026 9.446 9.433 9.318 9.418 9.456 9.443 10.376 9.421 9.506 9.733 9.753 15.128 9.748 9.738 10.138 11.163 11.736 12.313 11.713 11.643 10.811 10.686 10.728 10.528 10.396 10.441 10.371 11.068 10.863 10.668 10.483 10.243 10.326 10.311 10.348 10.278 10.221 10.186 10.156 9.898 8.996 8.768 8.766 8.798 8.818 8.861 8.896 8.928 8.963 8.993 9.018 9.038 9.026 9.003 8.996 8.998 8.998 9.011 9.008 9.011 9.016 9.041 9.058 9.068 9.508 12.528 12.381 9.461 9.543 12.603 12.763 12.936 13.106 13.278 9.423 9.146 9.121 9.101 9.091 9.041 9.016 8.993 8.998 8.996 9.003 8.983 8.981 8.958 8.958 8.973 8.961 8.971 9.023 9.056 9.773 9.151 9.201 9.226 9.243 10.528 9.876 9.326 9.348 9.366 9.423 9.438 9.428 9.451 9.451 13.678 13.716 13.723 11.951 10.883 13.748 13.771 13.791 12.496 9.486 9.574 9.554 9.554 9.829 9.929 9.984 9.951 9.949 9.941 10.046 10.066 10.081 10.116 10.166 10.199 10.209 10.186 10.119 10.196 10.204 10.226 10.231 10.259 10.241 10.216 10.109 9.954 9.741 9.806 9.841 9.881 9.879 9.889 10.226 10.356 10.324 9.664 12.146 10.391 10.394 10.436 10.454 10.521 10.404 10.419 10.419 10.394 10.359 10.349 10.354 10.339 10.326 10.304 10.299 10.304 10.316 10.336 10.349 10.341 10.349 10.381 10.401 10.396 10.426 10.439 10.456 10.496 10.516 10.539 10.551 10.564 10.576 10.609 10.594 10.616 10.641 10.634 10.604 10.634 10.609 10.629 10.609 10.629 10.649 10.631 10.634 10.626 10.639 10.644 10.649 10.666 10.679 10.694 10.721 10.739 10.756 10.761 10.771 10.791 10.821 10.844 10.846 10.846 10.861 10.859 10.854 10.866 10.866 10.859 10.849 10.841 10.826 10.854 10.839 10.836 10.831 10.809 10.801 10.789 10.789 10.776 10.771 10.754 10.759 10.726 10.709 10.701 10.679 10.694 10.686 10.686 10.691 10.676 10.669 10.664 10.659 10.666 10.689 10.721 10.739 10.741 10.789 10.791 10.836 10.896 10.909 10.919 10.976 10.974 10.974 10.971 10.959 10.959 10.936 10.929 10.929 10.934 10.926 10.929 10.936 10.939 10.959 10.966 10.966 10.991 10.981 10.986 11.009 11.019 11.026 11.034 11.024 11.031 11.036 11.054 11.054 11.069 11.079 11.081 11.096 11.099 11.089 11.089 11.096 11.099 11.101 11.096 11.096 11.119 11.119 11.079 11.094 11.094 11.071 11.074 11.064 10.989 10.986 10.971 10.921 10.801 11.641 12.224 12.081 11.111 11.169 11.224 11.306 11.366 11.414 11.394 11.361 11.254 11.214 12.195 11.737 11.137 11.215 11.335 11.225 11.274 11.356 11.468 11.63 11.609 11.601 11.65 11.634 11.599 11.529 11.504 11.609 11.691 11.596 11.579 11.594 11.731 11.849 11.934 11.911 11.936 11.994 12.099 12.181 12.214 12.234 12.244 12.741 12.301 12.001 11.753 11.714 11.956 12.493 12.426 12.026 11.736 11.738 11.823 12.023 12.466 13.366 12.991 11.589 11.546 11.573 11.516 11.483 11.636 11.666 11.813 12.851 14.306 12.381 11.756 12.516 12.353
8.628 8.678 8.713 8.761 8.793 8.838 8.811 8.846 8.921 8.938 8.953 8.946 8.971 8.966 9.048 9.091 9.048 8.953 8.791 8.583 8.346 8.218 8.076 7.958 7.951 7.953 7.983 8.051 8.088 8.081 8.106 8.141 8.208 8.223 8.413 8.488 8.526 8.593 8.571 8.651 9.458 9.458 9.451 9.851 9.411 9.016 9.078 9.126 9.248 9.278 9.316 9.356 9.371 9.313 9.286 11.181 11.163 9.551 9.436 9.456 9.333 9.383 9.486 9.451 9.338 12.491 11.023 15.888 16.256 15.428 10.263 9.728 9.826 10.898 11.618 12.306 12.028 11.553 11.566 11.301 10.996 10.711 10.428 10.323 10.406 10.608 10.226 10.173 10.251 12.821 10.328 10.516 12.816 10.223 12.728 10.176 9.781 8.933 8.763 9.408 8.783 8.806 8.843 8.893 8.918 8.956 8.981 9.013 9.053 9.041 9.013 9.023 9.011 9.026 9.031 9.033 9.033 9.046 9.058 9.071 9.071 9.388 9.303 9.606 9.206 9.143 12.621 12.783 12.948 13.106 13.283 9.166 9.133 9.118 9.108 9.081 9.068 9.046 9.036 9.041 9.053 9.048 9.048 9.018 9.021 9.018 9.001 9.006 9.006 9.036 9.066 9.113 9.163 9.243 9.271 9.298 9.321 9.353 9.383 10.356 10.596 10.648 9.513 9.531 9.538 9.541 13.453 13.596 13.608 9.548 11.461 13.638 13.656 13.668 10.806 9.566 9.579 9.609 10.761 11.266 10.914 9.556 11.221 11.489 9.596 9.581 9.589 9.589 9.601 9.631 9.629 9.634 9.631 9.641 9.774 9.829 9.884 9.906 9.911 9.839 9.764 9.676 9.736 9.781 9.819 9.849 9.869 9.861 10.144 10.331 10.346 10.316 9.731 11.146 10.384 10.316 10.439 10.439 10.446 10.391 10.499 10.434 10.356 10.289 11.749 16.636 18.211 10.496 10.271 10.271 10.249 10.249 10.276 10.294 10.304 10.309 10.339 10.356 10.364 10.354 10.371 10.401 10.464 10.484 10.489 10.511 10.534 10.571 10.604 10.609 10.616 10.616 10.626 10.629 10.651 10.664 10.661 10.644 10.644 10.649 10.674 10.651 10.649 10.651 10.621 10.634 10.629 10.646 10.639 10.654 10.686 10.701 10.716 10.731 10.744 10.756 10.769 10.781 10.786 10.786 10.796 10.791 10.791 10.799 10.791 10.766 10.789 10.784 10.789 10.776 10.791 10.781 10.789 10.771 10.754 10.741 10.744 10.731 10.709 10.696 10.699 10.686 10.669 10.664 10.661 10.656 10.661 10.686 10.681 10.679 10.669 10.641 10.659 10.669 10.696 10.709 10.734 10.766 10.804 10.831 10.856 10.886 10.894 10.956 10.959 10.971 10.971 10.951 10.934 10.939 10.941 10.924 10.924 10.916 10.921 10.911 10.901 10.906 10.926 10.941 10.946 10.951 10.964 10.984 10.996 10.979 11.001 10.999 10.999 10.996 11.006 10.999 11.006 11.019 11.034 11.044 11.066 11.071 11.081 11.076 11.061 11.061 11.059 11.064 11.071 11.086 11.056 11.094 11.094 11.081 11.051 11.051 11.021 11.006 10.954 10.961 10.904 10.941 11.889 12.046 11.736 11.029 11.139 11.234 11.301 11.274 11.306 11.231 11.206 10.957 12.456 11.44 11.452 11.429 11.263 11.261 11.344 11.428 11.359 11.324 11.432 11.488 11.45 11.454 11.479 11.414 11.439 11.536 11.599 11.591 11.569 11.556 11.629 11.751 11.811 11.904 11.979 11.944 12.001 12.014 12.119 12.239 12.269 12.186 11.889 11.754 11.691 11.648 11.666 12.018 12.231 11.983 11.703 11.716 11.878 11.863 12.038 13.196 13.918 14.286 12.121 11.473 11.506 11.518 11.481 11.578 11.641 11.521 13.406 13.563 12.508 11.758 11.948
8.603 8.628 8.621 8.658 8.771 8.818 8.843 8.878 8.873 8.911 8.923 8.911 8.913 8.951 8.993 9.033 9.023 8.996 8.876 8.718 8.573 8.428 8.213 8.101 8.083 8.066 8.023 8.146 8.041 8.086 8.141 8.201 8.236 8.283 8.371 8.481 8.581 8.666 8.696 8.713 8.778 9.413 9.463 9.461 9.693 9.593 9.011 9.033 9.143 9.103 9.381 9.313 9.356 9.381 9.318 9.903 11.031 10.328 9.306 9.436 9.481 9.438 9.403 9.403 11.166 13.341 14.431 14.663 17.416 16.588 15.771 14.878 9.738 9.778 10.726 11.473 12.338 11.736 12.758 11.948 11.648 11.196 10.831 10.408 10.173 10.086 10.053 10.021 10.296 12.831 10.266 10.736 12.806 10.213 12.721 10.111 9.678 8.888 9.021 8.978 8.743 8.781 8.808 8.861 8.891 8.933 8.973 9.013 9.061 9.053 9.038 9.036 9.038 9.036 9.056 9.058 9.066 9.073 9.081 9.086 9.073 9.068 9.206 9.198 9.078 9.103 9.458 9.281 9.121 9.126 9.148 9.148 9.126 9.113 9.136 9.246 9.253 9.136 9.083 9.211 9.308 9.431 9.188 9.108 9.058 9.053 9.051 9.063 9.068 9.076 9.096 9.121 9.123 9.181 9.206 9.241 9.261 9.298 9.346 9.386 9.423 9.463 9.488 9.513 9.526 9.543 9.551 9.573 9.578 9.593 9.606 9.621 9.611 9.651 9.653 9.648 9.656 9.664 9.651 9.639 9.656 9.659 9.684 9.711 9.706 9.731 9.756 9.754 9.756 9.769 9.931 9.746 9.746 9.726 9.934 10.076 9.714 9.694 9.694 9.699 9.731 9.761 9.779 9.811 9.824 9.826 9.836 10.156 10.294 10.316 10.309 10.309 10.894 11.539 10.441 10.309 10.401 10.449 10.451 10.451 10.419 10.871 11.496 11.206 12.339 17.909 19.361 17.641 10.524 10.329 10.306 10.226 10.206 10.189 10.231 10.249 10.276 10.284 10.291 10.326 10.331 10.369 10.391 10.409 10.446 10.474 10.499 10.534 10.561 10.569 10.576 10.596 10.611 10.636 10.681 10.661 10.654 10.659 10.666 10.699 10.689 10.669 10.641 10.664 10.659 10.659 10.666 10.674 10.666 10.661 10.656 10.651 10.679 10.686 10.699 10.719 10.729 10.754 10.754 10.771 10.799 10.789 10.789 10.781 10.786 10.766 10.774 10.769 10.771 10.786 10.796 10.791 10.796 10.796 10.774 10.751 10.761 10.759 10.741 10.736 10.734 10.716 10.696 10.659 10.649 10.609 10.639 10.654 10.666 10.641 10.654 10.646 10.669 10.684 10.676 10.681 10.719 10.749 10.756 10.774 10.769 10.816 10.841 10.891 10.906 10.931 10.939 10.936 10.939 10.911 10.899 10.884 10.866 10.874 10.871 10.871 10.879 10.894 10.904 10.894 10.914 10.926 10.949 10.966 10.956 10.959 10.981 10.984 10.979 10.986 11.004 11.006 11.021 11.034 11.029 11.046 11.039 11.026 11.029 11.034 11.021 11.036 11.029 11.024 11.031 11.041 11.066 11.064 11.069 11.064 11.059 11.016 11.034 11.019 11.004 10.951 10.954 10.949 10.944 11.134 11.999 11.939 10.946 11.146 11.184 11.144 11.119 11.111 11.156 10.873 11.848 11.984 11.604 11.373 11.264 11.318 11.59 11.777 11.435 11.322 11.345 11.344 11.363 11.344 11.329 11.341 11.404 11.399 11.409 11.441 11.481 11.466 11.569 11.634 11.674 11.769 11.876 11.941 11.944 11.949 11.994 12.191 12.131 12.074 11.901 11.819 11.711 11.673 11.728 11.776 11.883 11.786 11.736 11.783 11.881 12.073 12.148 12.533 14.453 13.711 12.916 11.676 11.466 11.521 11.488 11.433 11.491 11.663 11.506 12.791 13.231 12.551 14.008
8.631 8.666 8.656 8.721 8.756 8.788 8.801 8.861 8.873 8.898 8.896 8.908 8.901 8.918 8.946 8.983 8.946 8.931 8.893 8.701 8.651 8.546 8.423 8.253 8.181 8.153 8.086 8.091 8.103 8.106 8.161 8.218 8.291 8.338 8.376 8.411 8.516 8.626 8.731 8.818 8.858 8.826 9.243 9.478 9.471 9.593 9.766 9.058 9.028 9.118 9.111 9.761 9.321 9.351 9.383 9.558 9.306 9.301 9.456 9.306 9.981 9.498 9.446 9.591 13.018 14.153 13.773 13.451 17.078 17.701 16.903 16.111 15.286 9.756 9.733 10.441 11.271 11.771 11.838 11.888 11.973 11.836 11.463 11.026 10.713 10.343 10.186 10.146 10.223 12.628 10.183 11.238 12.541 10.176 12.741 10.008 9.528 8.816 9.318 8.658 8.688 8.743 8.783 8.813 8.863 8.901 8.953 8.991 9.026 9.036 9.213 9.161 9.151 9.133 9.111 9.103 9.103 9.101 9.111 9.093 9.073 9.131 9.071 9.108 9.148 9.031 9.038 9.321 9.766 9.068 9.081 9.081 9.081 9.256 9.511 9.518 9.523 9.666 9.973 10.001 10.073 10.003 9.866 9.843 9.871 12.418 12.406 12.416 12.408 10.061 9.411 9.373 9.328 9.256 9.246 9.213 9.223 9.218 9.228 9.273 9.308 9.356 9.391 9.423 9.458 9.466 9.463 9.471 9.503 9.511 9.526 9.538 9.521 9.538 9.576 9.566 9.581 9.606 9.659 9.629 9.644 9.654 9.681 9.716 9.724 9.761 9.774 9.789 9.799 9.809 9.811 9.809 9.819 9.819 9.801 9.796 9.779 9.746 9.741 9.731 9.756 9.799 9.791 9.806 9.776 9.834 10.174 10.266 10.266 10.731 10.284 10.281 11.184 11.181 10.406 10.266 10.321 10.401 10.451 10.451 10.474 10.499 10.891 10.996 13.446 18.464 19.579 16.736 11.824 11.776 11.601 11.344 11.134 11.021 11.054 10.894 10.509 10.316 10.281 10.261 10.231 10.301 10.351 10.399 10.449 10.466 10.481 10.501 10.519 10.546 10.576 10.576 10.581 10.601 10.601 10.601 10.616 10.659 10.656 10.691 10.686 10.691 10.689 10.679 10.684 10.674 10.676 10.679 10.679 10.644 10.681 10.689 10.656 10.684 10.689 10.686 10.711 10.724 10.741 10.759 10.771 10.786 10.791 10.796 10.796 10.796 10.804 10.796 10.801 10.789 10.801 10.791 10.806 10.809 10.816 10.811 10.799 10.796 10.796 10.789 10.756 10.764 10.739 10.701 10.681 10.639 10.656 10.684 10.689 10.686 10.701 10.696 10.716 10.716 10.724 10.749 10.766 10.781 10.789 10.819 10.796 10.776 10.816 10.849 10.856 10.866 10.901 10.884 10.891 10.896 10.899 10.889 10.876 10.876 10.871 10.869 10.859 10.854 10.856 10.889 10.891 10.891 10.921 10.916 10.934 10.961 10.969 10.981 10.971 10.971 10.961 10.959 10.974 11.004 10.994 11.004 10.999 11.011 10.994 10.994 10.979 10.979 10.989 10.994 10.996 11.021 11.026 11.029 11.051 11.069 11.019 11.051 11.019 11.024 11.011 11.004 10.949 10.949 10.974 10.916 10.751 12.394 12.341 12.001 11.059 11.054 10.964 10.946 11.071 12.091 11.586 11.302 11.591 11.256 11.278 11.339 11.802 12.083 11.38 11.337 11.331 11.334 11.322 11.297 11.264 11.296 11.361 11.401 11.334 11.364 11.326 11.321 11.381 11.509 11.574 11.629 11.706 11.799 11.879 11.974 12.234 12.171 12.076 11.951 11.814 11.716 11.688 11.711 11.758 11.746 11.801 11.836 11.718 11.851 11.748 11.761 11.916 12.356 12.411 12.378 13.408 12.998 11.916 11.458 11.476 11.493 11.436 11.446 11.596 11.511 12.226 14.073 16.543
8.691 8.668 8.653 8.713 8.756 8.796 8.801 8.806 8.843 8.851 8.856 8.911 8.918 8.923 8.936 8.941 8.926 8.961 8.933 8.773 8.826 8.681 8.533 8.411 8.358 8.306 8.253 8.208 8.263 8.281 8.238 8.243 8.301 8.368 8.421 8.481 8.498 8.528 8.676 8.783 8.973 8.908 8.878 9.101 9.483 9.481 9.473 9.801 9.276 9.003 9.081 9.128 9.166 9.313 9.346 9.383 9.386 9.281 9.308 9.498 10.218 10.181 9.573 12.143 13.821 14.111 12.991 15.108 15.918 16.751 17.573 17.228 16.418 15.581 11.756 9.731 9.841 10.876 11.603 11.591 11.398 11.683 11.781 12.396 11.256 10.968 10.666 10.198 10.053 9.981 10.158 10.158 10.161 10.136 10.083 10.001 9.386 8.706 8.576 8.613 8.651 8.691 8.728 8.763 8.801 8.843 8.888 8.933 8.958 8.986 9.551 12.421 12.486 9.188 9.231 13.861 15.258 9.223 9.386 9.053 9.048 9.041 9.111 9.013 9.001 8.993 8.996 9.388 9.686 9.016 9.013 9.023 9.023 9.386 9.563 9.613 9.778 9.706 9.716 9.761 9.838 9.833 9.838 9.821 10.041 10.156 10.118 10.338 10.526 9.808 9.703 9.751 9.743 9.758 9.733 9.698 9.758 9.738 9.671 9.666 9.653 9.823 9.746 9.728 9.716 9.673 9.568 11.768 10.171 9.616 9.836 9.836 9.611 9.591 9.568 9.566 9.551 9.526 9.549 9.539 9.544 9.549 9.564 9.579 9.574 9.616 9.614 9.629 9.649 9.649 9.671 9.676 9.686 9.711 9.741 9.746 9.741 9.729 9.734 9.746 9.759 9.794 9.756 9.771 9.991 10.181 10.229 10.226 10.581 10.254 10.254 10.246 11.589 10.254 10.376 10.316 10.351 10.384 10.389 10.449 10.479 10.504 10.564 10.574 10.626 11.436 13.084 10.841 10.921 10.901 10.919 11.084 11.314 11.219 11.289 11.399 11.566 11.566 11.389 11.249 10.909 10.726 10.524 10.444 10.441 10.409 10.409 10.446 10.491 10.526 10.559 10.579 10.589 10.594 10.601 10.626 10.634 10.639 10.629 10.629 10.631 10.671 10.691 10.706 10.696 10.664 10.671 10.689 10.704 10.696 10.694 10.711 10.719 10.734 10.681 10.641 10.639 10.639 10.664 10.691 10.726 10.746 10.769 10.769 10.786 10.794 10.794 10.791 10.781 10.769 10.766 10.781 10.779 10.791 10.794 10.774 10.769 10.766 10.759 10.754 10.731 10.699 10.689 10.686 10.666 10.651 10.661 10.654 10.661 10.666 10.669 10.671 10.681 10.699 10.724 10.729 10.746 10.789 10.786 10.799 10.801 10.804 10.806 10.804 10.826 10.839 10.864 10.869 10.866 10.866 10.866 10.874 10.861 10.846 10.839 10.829 10.836 10.834 10.869 10.861 10.866 10.894 10.904 10.911 10.909 10.904 10.919 10.936 10.941 10.941 10.949 10.946 10.954 10.971 10.979 10.976 10.979 10.971 10.961 10.949 10.949 10.954 10.966 10.959 10.974 10.984 10.991 10.999 11.019 11.084 11.064 11.029 11.059 11.014 11.016 11.001 11.011 10.984 10.964 10.964 10.974 10.876 11.596 12.119 12.499 10.909 10.834 10.889 10.851 12.499 11.578 10.948 11.225 11.607 11.639 11.508 11.542 11.474 11.266 11.278 11.293 11.303 11.29 11.258 11.266 11.259 11.254 11.249 11.321 11.304 11.279 11.229 11.281 11.331 11.449 11.551 11.589 11.654 11.894 12.334 12.496 12.391 12.206 11.951 11.704 11.661 11.621 11.658 11.711 11.798 11.826 11.776 11.803 11.713 11.693 11.713 11.938 12.261 12.346 11.966 11.948 13.481 12.753 11.931 11.451 11.473 11.463 11.421 11.418 11.506 11.438 11.628 14.276
8.646 8.636 8.646 8.696 8.768 8.806 8.826 8.831 8.826 8.831 8.858 8.861 8.893 8.913 8.943 8.941 8.938 8.983 8.966 8.823 8.763 8.748 8.653 8.521 8.391 8.298 8.276 8.281 8.391 8.446 8.423 8.396 8.373 8.368 8.426 8.493 8.563 8.593 8.603 8.673 9.008 8.921 8.988 9.001 8.978 9.513 9.501 9.466 9.861 10.641 9.168 9.031 9.126 9.098 9.298 9.341 9.383 9.423 9.301 9.378 10.018 9.343 9.641 9.661 10.191 13.291 10.748 11.801 13.126 15.596 16.403 17.218 17.591 16.751 11.608 9.688 9.693 9.723 10.233 10.856 11.051 11.381 11.483 11.728 11.683 11.451 11.131 10.801 10.313 10.061 9.963 10.231 10.281 10.113 10.061 10.081 9.378 8.638 8.526 8.558 8.596 8.631 8.668 8.703 8.738 8.778 8.823 8.858 8.893 8.926 10.448 12.413 12.486 9.176 15.191 15.188 15.198 15.188 9.168 9.113 8.988 8.986 9.061 8.978 8.971 8.958 8.956 9.286 8.971 8.976 8.981 8.986 8.996 9.451 10.186 11.041 11.303 11.193 11.458 11.336 10.948 10.658 10.913 11.326 11.573 11.026 10.633 10.441 10.198 9.991 10.018 9.978 10.076 9.901 10.046 10.168 9.978 9.958 10.453 10.596 10.818 10.718 9.893 9.888 9.883 9.843 11.783 11.948 11.958 11.953 11.788 9.771 9.768 9.928 9.891 9.911 9.831 9.856 9.869 11.194 9.881 9.906 9.929 9.916 9.851 9.829 9.841 9.861 9.809 9.789 9.791 9.776 9.749 9.761 9.674 9.651 9.654 9.666 9.686 9.689 9.736 9.839 10.011 10.096 10.149 10.161 10.181 11.184 10.191 10.226 10.249 10.161 12.346 10.811 10.406 10.339 10.389 10.389 10.406 10.391 10.416 10.479 10.551 10.589 10.646 10.676 10.699 10.721 10.734 10.719 10.729 10.711 10.731 10.764 10.794 10.764 10.874 10.901 10.934 11.349 11.601 11.876 11.831 11.639 11.456 11.279 10.944 10.861 10.566 10.566 10.509 10.519 10.554 10.569 10.559 10.554 10.566 10.584 10.606 10.621 10.659 10.674 10.661 10.664 10.651 10.659 10.679 10.714 10.739 10.709 10.686 10.701 10.701 10.704 10.729 10.731 10.716 10.714 10.709 10.729 10.746 10.749 10.754 10.756 10.751 10.749 10.751 10.756 10.756 10.746 10.739 10.731 10.724 10.719 10.716 10.726 10.716 10.686 10.691 10.684 10.674 10.659 10.634 10.616 10.611 10.604 10.596 10.604 10.594 10.619 10.636 10.661 10.666 10.674 10.684 10.679 10.696 10.696 10.731 10.756 10.734 10.751 10.809 10.801 10.824 10.829 10.844 10.864 10.874 10.859 10.844 10.861 10.846 10.836 10.829 10.816 10.804 10.814 10.826 10.821 10.849 10.851 10.881 10.894 10.906 10.901 10.911 10.934 10.934 10.929 10.934 10.931 10.916 10.926 10.921 10.956 10.954 10.929 10.941 10.941 10.916 10.931 10.929 10.944 10.944 10.954 10.964 10.979 11.004 11.001 11.039 11.041 11.064 11.041 11.014 11.011 11.021 11.016 11.016 10.994 10.999 11.024 11.009 10.949 11.736 12.556 10.904 10.784 10.804 12.765 12.045 12.948 11.33 11.531 11.798 11.772 11.576 11.229 11.195 11.21 11.238 11.239 11.248 11.254 11.259 11.244 11.256 11.209 11.176 11.216 11.256 11.226 11.216 11.256 11.294 11.404 11.459 11.521 11.751 12.434 12.789 12.586 12.379 12.044 11.699 11.549 11.596 11.621 11.726 11.733 11.776 11.711 11.741 11.713 11.741 11.856 12.113 11.938 11.721 11.391 11.381 11.596 12.301 12.583 12.331 11.476 11.423 11.443 11.428 11.386 11.436 11.521 11.406
8.603 8.623 8.641 8.678 8.696 8.746 8.783 8.811 8.821 8.831 8.836 8.836 8.861 8.901 8.893 8.968 8.953 9.006 9.011 8.926 8.896 8.803 8.666 8.498 8.461 8.378 8.361 8.346 8.448 8.521 8.528 8.541 8.558 8.523 8.483 8.488 8.558 8.616 8.668 8.713 8.723 8.823 8.968 9.001 9.003 8.948 9.366 9.503 9.466 9.721 11.876 9.043 9.001 9.098 9.088 9.491 9.341 9.391 9.438 9.443 9.328 9.593 9.608 9.643 9.663 9.678 10.213 10.711 12.783 16.001 15.336 16.113 16.933 16.218 9.726 9.718 9.718 9.718 9.721 9.928 10.206 11.351 11.711 11.588 12.058 11.733 11.691 11.041 10.781 10.448 10.068 9.943 10.146 10.116 10.046 10.053 9.306 8.628 8.488 8.521 8.558 8.598 8.631 8.663 8.701 8.738 8.763 8.813 8.846 8.903 10.796 12.431 12.493 9.508 15.191 15.191 15.191 15.193 13.911 11.406 8.931 8.941 8.978 8.963 9.083 8.926 8.928 9.178 8.946 8.941 8.948 8.951 8.966 9.523 9.613 9.361 9.323 9.383 9.488 9.508 9.498 9.516 9.471 9.518 9.731 9.613 9.858 9.991 10.128 10.653 10.471 10.823 10.831 11.188 11.286 11.173 11.321 11.098 11.286 11.321 11.233 11.343 11.031 10.793 11.173 11.013 10.291 10.426 10.411 10.803 9.973 9.958 9.898 9.881 9.973 9.836 9.881 9.869 9.866 9.851 9.829 9.934 9.894 9.914 9.896 9.964 10.124 9.956 9.966 9.951 9.969 9.951 9.934 10.084 9.934 9.949 10.001 10.361 10.494 10.046 10.061 10.064 10.071 10.064 10.086 10.141 10.119 10.144 10.146 10.186 10.214 10.459 11.321 11.056 10.429 10.341 10.399 10.376 10.504 10.566 10.856 10.546 11.281 16.974 17.054 17.331 12.334 16.886 17.491 12.474 10.681 10.674 10.664 10.669 10.681 10.681 10.679 10.691 10.721 10.769 10.889 10.969 10.979 11.289 11.454 11.749 11.811 12.101 11.956 11.716 11.439 11.221 11.114 11.021 10.669 10.501 10.511 10.589 10.596 10.614 10.639 10.641 10.634 10.639 10.624 10.636 10.659 10.661 10.651 10.674 10.679 10.699 10.724 10.736 10.721 10.726 10.739 10.749 10.756 10.746 10.744 10.741 10.764 10.746 10.744 10.749 10.756 10.739 10.734 10.716 10.726 10.711 10.689 10.689 10.686 10.689 10.689 10.671 10.661 10.646 10.631 10.624 10.611 10.574 10.576 10.576 10.589 10.551 10.564 10.591 10.599 10.599 10.601 10.621 10.631 10.621 10.644 10.649 10.634 10.644 10.674 10.681 10.704 10.716 10.764 10.756 10.774 10.816 10.829 10.826 10.829 10.814 10.824 10.816 10.806 10.791 10.796 10.789 10.794 10.806 10.809 10.824 10.844 10.879 10.884 10.904 10.894 10.924 10.914 10.916 10.919 10.924 10.924 10.914 10.939 10.929 10.911 10.899 10.904 10.909 10.896 10.914 10.904 10.929 10.921 10.931 10.931 10.959 10.969 10.989 10.999 11.036 11.029 11.041 11.009 10.999 10.999 11.041 11.024 11.031 10.979 10.986 10.984 11.001 10.744 11.554 12.124 10.706 11.239 11.404 11.043 11.32 11.444 11.547 11.616 11.624 11.387 11.131 11.16 11.177 11.172 11.157 11.163 11.205 11.239 11.229 11.246 11.216 11.171 11.136 11.126 11.191 11.216 11.224 11.219 11.264 11.334 11.381 11.511 11.836 12.334 12.526 12.259 12.076 11.709 11.586 11.598 11.628 11.648 11.673 11.811 11.748 11.751 11.738 11.781 12.143 12.588 11.596 11.433 11.353 11.356 11.383 11.538 12.051 13.776 12.933 11.466 11.406 11.448 11.443 11.383 11.436 11.581
8.631 8.641 8.658 8.673 8.688 8.733 8.768 8.773 8.791 8.788 8.791 8.803 8.843 8.863 8.831 8.858 8.941 8.993 9.031 9.091 9.076 8.886 8.778 8.638 8.541 8.456 8.388 8.426 8.481 8.538 8.586 8.606 8.648 8.678 8.676 8.688 8.616 8.623 8.683 8.746 8.788 8.823 8.836 8.953 9.041 9.016 8.978 9.153 9.531 9.503 9.546 10.263 10.341 8.956 9.058 9.108 9.086 9.341 9.396 9.453 9.513 10.296 9.586 9.618 9.651 9.681 9.686 9.706 9.841 9.878 9.756 14.956 15.803 9.723 9.748 9.751 9.736 9.738 9.726 9.731 9.728 10.433 11.186 11.906 11.731 11.718 11.801 11.653 11.336 10.918 10.588 10.148 9.763 9.888 10.001 10.153 9.188 8.591 8.456 8.481 8.518 8.561 8.603 8.636 8.668 8.701 8.733 8.773 8.803 8.838 9.198 9.168 9.151 9.543 15.201 15.196 15.198 15.196 10.721 11.663 8.888 8.886 8.898 8.901 8.893 8.896 8.908 8.908 8.908 8.916 8.916 8.911 9.213 9.461 9.411 9.373 9.361 9.431 9.523 9.576 9.576 9.556 9.548 9.558 9.558 9.548 9.558 9.568 9.576 9.571 9.556 9.541 9.543 9.546 9.543 9.563 9.541 9.546 9.591 9.691 9.993 10.328 10.906 11.086 10.541 11.296 10.446 10.661 10.936 10.996 10.761 11.141 11.263 11.323 11.388 11.553 11.244 11.384 11.281 11.579 11.429 11.549 11.149 11.141 11.499 11.059 11.511 11.141 11.544 11.024 11.494 10.761 10.149 10.054 10.079 10.046 10.081 10.029 10.076 10.051 10.044 10.259 10.034 10.026 10.026 10.046 10.076 10.079 10.066 10.096 10.224 10.921 12.976 10.814 10.374 10.294 10.349 10.361 10.569 10.839 11.161 11.394 13.144 17.636 18.566 19.024 17.389 19.249 20.471 19.686 10.184 10.209 10.454 10.566 16.779 17.776 11.444 10.659 10.679 10.714 10.724 10.724 10.726 10.729 10.764 10.844 10.929 11.056 11.239 11.579 11.716 11.829 12.091 12.324 12.006 11.609 11.399 11.256 10.824 10.609 10.546 10.601 10.616 10.616 10.616 10.636 10.619 10.606 10.624 10.639 10.629 10.634 10.644 10.661 10.646 10.669 10.679 10.699 10.699 10.676 10.686 10.671 10.691 10.676 10.694 10.714 10.701 10.679 10.689 10.694 10.691 10.689 10.674 10.659 10.634 10.621 10.641 10.624 10.601 10.589 10.576 10.561 10.536 10.499 10.504 10.514 10.491 10.474 10.494 10.501 10.514 10.504 10.504 10.536 10.544 10.546 10.564 10.571 10.584 10.616 10.626 10.651 10.681 10.684 10.716 10.716 10.736 10.761 10.806 10.831 10.809 10.799 10.806 10.811 10.781 10.761 10.761 10.754 10.766 10.781 10.771 10.786 10.804 10.824 10.849 10.871 10.891 10.874 10.889 10.886 10.886 10.874 10.901 10.899 10.884 10.874 10.891 10.874 10.866 10.871 10.866 10.864 10.879 10.886 10.889 10.904 10.899 10.929 10.944 10.954 10.966 10.981 11.016 11.051 11.016 10.974 10.999 11.014 11.026 11.036 11.029 10.961 10.936 10.886 10.834 10.809 10.856 10.971 11.864 11.551 11.747 11.824 12.473 12.575 11.966 11.518 11.447 11.1 11.134 11.138 11.142 11.112 11.105 11.14 11.154 11.236 11.259 11.211 11.181 11.131 11.076 11.036 11.084 11.136 11.201 11.169 11.204 11.229 11.296 11.359 11.589 11.739 11.694 11.739 11.504 11.484 11.593 11.611 11.633 11.656 11.671 11.686 11.718 11.816 11.996 12.681 12.168 11.488 11.408 11.393 11.416 11.381 11.396 11.446 11.643 14.546 13.636 11.541 11.461 11.463 11.421 11.408 11.386
8.613 8.613 8.633 8.651 8.668 8.701 8.758 8.776 8.773 8.788 8.798 8.791 8.816 8.821 8.766 8.791 8.868 8.971 9.036 9.261 9.388 9.026 8.876 8.841 8.711 8.596 8.553 8.543 8.556 8.636 8.673 8.706 8.791 8.846 8.906 8.953 8.956 8.806 8.746 8.756 8.821 8.866 8.908 8.943 8.966 9.071 9.068 9.098 9.138 9.531 9.528 9.641 9.863 9.753 8.908 9.033 9.118 9.101 9.266 9.408 9.463 9.508 9.566 9.838 9.653 9.678 9.686 9.696 9.743 9.706 9.731 9.761 9.743 9.708 9.726 9.751 9.731 11.613 13.888 15.206 9.731 9.728 10.068 10.961 11.711 11.908 11.791 11.796 11.741 11.501 11.051 10.666 10.316 9.973 9.868 9.796 8.986 8.578 8.403 8.443 8.483 8.531 8.576 8.601 8.633 8.673 8.698 8.728 8.771 8.903 9.176 9.176 9.153 9.168 13.348 15.198 15.203 15.198 9.138 9.813 8.841 8.841 8.846 8.851 8.853 8.858 8.863 8.866 8.866 8.868 8.871 8.876 9.883 9.528 9.388 9.378 9.431 9.518 9.558 9.563 9.558 9.543 9.543 9.548 9.551 9.531 9.533 9.538 9.546 9.561 9.568 9.558 9.573 9.571 9.573 9.568 9.553 9.553 9.571 9.588 9.593 9.606 9.618 9.608 9.638 9.653 9.651 9.671 9.678 9.691 9.701 9.693 9.723 9.746 9.743 9.761 9.739 9.774 9.859 9.999 10.081 10.179 10.346 10.264 10.384 10.481 10.756 11.219 11.256 11.561 11.719 11.609 11.784 11.231 11.344 11.281 11.421 11.414 11.371 11.049 11.121 11.376 11.326 11.504 11.094 11.389 11.656 11.321 11.319 11.506 11.361 11.341 12.159 10.421 10.211 10.216 10.226 10.211 10.319 10.309 10.434 10.299 10.369 15.014 16.414 18.079 18.336 19.761 20.679 19.616 13.744 10.974 11.056 17.884 19.391 20.129 19.861 18.556 10.379 10.574 10.619 10.661 10.704 10.704 10.711 10.736 10.756 10.761 10.744 10.739 10.796 10.844 11.054 11.194 11.389 11.781 11.894 12.046 12.016 11.921 11.441 11.096 10.779 10.581 10.624 10.644 10.644 10.636 10.634 10.646 10.621 10.624 10.654 10.646 10.619 10.631 10.644 10.659 10.666 10.671 10.666 10.654 10.656 10.654 10.671 10.686 10.661 10.634 10.609 10.624 10.631 10.634 10.654 10.651 10.646 10.641 10.606 10.584 10.576 10.566 10.539 10.534 10.516 10.504 10.481 10.476 10.464 10.449 10.489 10.581 10.856 11.249 11.546 10.621 10.571 10.561 10.546 10.536 10.544 10.576 10.599 10.609 10.636 10.641 10.681 10.709 10.699 10.724 10.736 10.759 10.789 10.779 10.774 10.764 10.766 10.759 10.746 10.739 10.736 10.734 10.744 10.764 10.771 10.784 10.821 10.831 10.829 10.859 10.871 10.866 10.874 10.874 10.861 10.874 10.866 10.854 10.851 10.844 10.821 10.829 10.824 10.826 10.844 10.841 10.851 10.861 10.866 10.886 10.911 10.929 10.949 10.954 10.966 10.986 10.991 10.991 10.981 11.006 11.034 11.039 11.036 10.989 10.926 10.836 10.764 10.774 10.874 10.956 10.546 11.266 12.973 12.419 12.316 12.528 12.394 11.519 11.078 11.104 11.104 11.097 11.101 11.075 11.076 11.101 11.139 11.181 11.196 11.191 11.159 11.121 11.084 11.046 11.021 11.021 11.119 11.141 11.136 11.116 11.166 11.254 11.431 11.631 11.509 11.394 11.416 11.451 11.523 11.598 11.601 11.613 11.668 11.616 11.586 11.758 12.096 12.718 11.868 11.438 11.393 11.403 11.363 11.376 11.376 11.361 11.343 11.486 12.743 13.653 11.626 11.411 11.418 11.423 11.393
8.613 8.623 8.648 8.676 8.701 8.743 8.771 8.766 8.778 8.813 8.808 8.823 8.816 8.818 8.813 8.808 8.868 8.958 8.998 8.998 9.078 8.978 8.906 8.938 8.886 8.768 8.686 8.666 8.693 8.738 8.816 8.896 8.986 9.916 9.158 9.216 9.211 9.211 9.101 8.891 8.811 8.876 8.941 8.988 9.031 9.031 9.071 9.198 9.168 9.343 9.351 9.588 9.526 9.651 9.823 9.563 8.958 9.088 9.113 9.066 9.381 9.466 9.513 9.563 9.673 9.693 9.696 9.718 9.691 9.678 9.708 9.741 9.721 9.733 9.726 9.861 12.961 13.671 15.866 16.351 15.531 12.678 9.736 9.778 10.673 11.546 12.033 11.701 11.788 13.061 11.621 11.188 10.746 10.576 9.976 9.713 9.101 8.586 8.411 8.391 8.428 8.483 8.533 8.573 8.613 8.648 8.673 8.696 8.728 8.746 8.773 9.108 9.161 9.138 9.153 9.168 9.188 9.161 9.168 8.923 8.793 8.801 8.803 8.801 8.811 8.813 8.816 8.808 8.831 8.828 8.833 8.836 9.721 9.478 9.426 9.493 9.516 9.631 9.666 9.648 9.601 9.616 9.601 9.621 9.606 9.601 9.593 9.586 9.598 9.606 9.608 9.608 9.613 9.611 9.626 9.628 9.613 9.628 9.646 9.646 9.673 9.691 9.696 9.713 9.723 9.713 9.718 9.731 9.731 9.721 9.746 9.743 9.768 9.771 9.786 9.791 9.796 9.796 9.824 9.809 9.821 9.806 9.821 9.831 9.856 9.864 9.869 9.879 9.876 9.856 9.854 9.866 9.891 9.921 9.926 9.906 9.919 9.904 9.869 9.851 9.826 9.831 9.816 9.874 9.839 9.889 9.904 10.061 9.989 10.119 9.974 9.979 10.031 10.036 10.054 10.054 10.081 10.069 10.056 10.091 10.074 10.096 10.141 10.181 10.216 10.811 12.804 19.154 18.999 17.234 10.886 11.304 13.834 17.521 19.491 20.716 20.616 20.249 11.181 10.499 10.166 9.936 14.969 16.739 11.139 10.601 14.236 17.364 16.974 10.709 10.724 10.734 10.751 10.761 10.749 10.776 10.856 11.061 11.251 11.646 12.034 12.181 12.091 11.814 11.376 10.801 11.336 16.491 16.306 13.221 10.611 10.601 10.609 10.614 10.629 10.614 10.614 10.619 10.614 10.614 10.599 10.576 10.571 10.566 10.569 10.571 10.564 10.564 10.551 10.551 10.531 10.519 10.536 10.539 10.561 10.534 10.521 10.501 10.536 10.509 10.491 10.489 10.496 10.524 10.529 10.594 14.659 11.366 11.814 11.121 11.246 10.934 10.574 10.481 10.476 10.499 11.326 10.509 10.526 10.546 10.571 10.574 10.561 10.639 10.616 10.686 10.654 10.679 10.699 10.734 10.746 10.741 10.739 10.729 10.724 10.729 10.719 10.729 10.699 10.716 10.724 10.729 10.749 10.774 10.806 10.814 10.836 10.851 10.854 10.871 10.859 10.854 10.851 10.856 10.846 10.836 10.841 10.819 10.799 10.816 10.826 10.814 10.816 10.819 10.841 10.846 10.861 10.869 10.889 10.909 10.931 10.931 10.941 10.944 10.964 11.014 10.989 10.994 11.016 11.041 11.016 11.009 10.956 10.819 10.769 10.734 10.806 12.879 11.106 13.806 11.537 12.422 12.545 12.532 12.053 11.265 11.08 11.096 11.076 11.067 11.052 11.038 11.055 11.063 11.094 11.131 11.131 11.111 11.121 11.109 11.079 11.069 11.041 11.009 11.014 11.031 11.101 11.139 11.194 11.134 11.224 11.416 11.531 11.414 11.409 11.429 11.446 11.513 11.586 11.616 11.598 11.608 11.593 11.573 11.466 11.608 11.396 11.326 11.333 11.371 11.331 11.316 11.303 11.323 11.288 11.286 11.333 12.666 13.358 11.988 11.373 11.423 11.438
8.648 8.638 8.643 8.678 8.693 8.716 8.781 8.798 8.831 8.843 8.823 8.798 8.823 8.811 8.773 8.796 8.836 8.926 8.918 8.883 8.931 8.873 8.888 8.976 8.996 8.893 8.818 8.781 8.811 8.911 9.003 9.143 9.258 9.346 9.438 9.493 9.491 9.451 9.386 9.298 8.931 8.923 8.943 9.001 9.046 9.083 9.113 9.113 9.143 9.266 9.263 9.273 9.573 9.581 9.536 10.131 9.538 9.188 9.016 9.093 9.053 9.198 9.383 9.513 9.558 9.593 9.798 9.738 9.718 9.716 9.731 9.731 9.743 9.761 9.721 12.673 13.811 14.076 14.278 17.486 16.673 15.838 15.031 9.738 9.733 10.368 11.118 11.848 11.838 11.743 11.843 11.958 11.958 11.023 10.148 9.873 9.068 8.696 8.918 8.631 8.383 8.443 8.496 8.541 8.586 8.631 8.648 8.661 8.671 8.693 8.716 8.738 8.748 8.741 8.743 8.746 8.731 8.733 8.918 8.741 8.746 8.746 8.758 8.758 8.763 8.771 8.781 8.778 8.786 8.793 8.798 8.808 8.961 9.491 9.458 9.556 9.581 9.643 9.723 9.671 9.641 9.643 9.651 9.631 9.628 9.638 9.651 9.643 9.633 9.618 9.626 9.641 9.648 9.618 9.606 9.621 9.633 9.623 9.646 9.641 9.653 9.651 9.661 9.683 9.696 9.706 9.708 9.731 9.741 9.723 9.746 9.756 9.781 9.776 9.783 9.806 9.834 9.861 9.846 9.871 9.884 9.889 9.896 9.899 9.909 9.899 9.891 9.906 9.919 9.914 9.909 9.921 9.919 9.906 9.909 9.926 9.919 9.891 9.904 9.889 9.891 9.871 9.856 9.866 9.869 9.859 9.856 9.869 9.869 9.866 9.899 9.919 9.961 10.016 10.036 10.064 10.069 10.051 10.056 10.064 10.076 10.096 10.111 10.134 10.154 10.169 10.181 10.189 11.021 10.251 10.294 10.304 10.381 14.266 18.356 19.109 19.911 19.719 15.754 11.184 11.279 11.009 16.339 18.904 16.549 10.689 17.996 20.259 19.936 18.089 10.456 16.059 16.741 11.329 10.736 10.749 10.769 10.746 10.731 10.749 10.789 11.031 11.296 11.784 12.081 11.961 17.066 19.339 20.101 18.109 11.464 10.626 10.561 10.526 10.519 10.511 10.526 10.526 10.516 10.516 10.504 10.474 10.466 10.504 10.576 10.634 10.761 11.019 11.364 11.969 11.941 11.546 11.289 11.274 11.456 11.704 11.116 11.339 11.131 10.854 10.749 10.874 11.384 12.744 11.834 11.374 14.434 10.729 11.739 10.469 10.466 10.484 10.476 10.474 10.436 10.429 11.544 11.644 10.436 10.496 10.541 10.536 10.561 10.594 10.619 10.629 10.631 10.651 10.661 10.676 10.704 10.714 10.719 10.714 10.699 10.691 10.689 10.701 10.704 10.686 10.696 10.711 10.739 10.744 10.751 10.774 10.791 10.796 10.806 10.816 10.824 10.829 10.819 10.809 10.816 10.809 10.791 10.794 10.794 10.786 10.794 10.786 10.791 10.799 10.801 10.809 10.846 10.856 10.866 10.894 10.896 10.929 10.934 10.954 10.959 10.964 10.961 10.959 11.001 11.009 11.001 11.041 10.949 10.859 10.789 10.799 10.576 11.584 10.789 11.364 11.392 11.248 12.376 12.388 11.367 11.065 11.078 11.072 11.067 11.033 11.023 11.015 11.027 11.046 11.068 11.076 11.066 11.054 11.061 11.059 11.096 11.074 11.054 11.036 11.024 10.994 11.019 11.086 11.129 11.179 11.139 11.224 11.361 11.456 11.444 11.406 11.413 11.453 11.471 11.508 11.563 11.526 11.691 11.968 12.438 12.358 11.288 11.268 11.283 11.261 11.271 11.281 11.253 11.263 11.226 11.211 11.208 11.291 11.813 13.203 12.436 11.458 11.398
8.691 8.676 8.656 8.678 8.711 8.736 8.753 8.801 8.818 8.853 8.808 8.776 8.813 8.791 8.758 8.773 8.778 8.898 8.913 8.813 8.838 8.848 8.868 8.976 8.971 8.933 8.886 8.871 8.938 9.093 9.251 9.381 9.488 9.613 9.713 9.801 9.818 9.766 9.676 9.176 9.888 9.026 9.011 9.003 9.048 9.091 9.141 9.158 9.178 9.173 9.208 9.313 9.313 9.471 9.571 9.521 10.371 12.851 11.161 8.916 9.033 9.063 9.031 9.318 9.521 9.551 9.581 9.616 10.078 9.718 9.733 9.756 9.756 9.768 12.326 13.493 14.358 13.251 16.121 16.941 17.686 16.978 16.156 15.336 9.786 9.743 9.923 10.741 11.553 11.901 13.823 12.531 11.853 12.773 10.526 9.996 9.188 8.721 9.151 9.428 8.968 8.516 8.753 8.503 8.558 8.601 8.618 8.626 8.628 8.633 8.653 8.646 8.656 8.663 8.673 8.683 8.696 8.698 8.703 8.698 8.701 8.701 8.706 8.708 8.708 8.731 8.731 8.743 8.751 8.748 8.868 8.786 9.026 9.481 9.548 9.643 9.638 9.721 9.768 9.731 9.701 9.711 9.686 9.651 9.646 9.636 9.656 9.646 9.621 9.623 9.636 9.651 9.661 9.678 9.666 9.668 9.681 9.666 9.671 9.671 9.681 9.686 9.708 9.708 9.706 9.713 9.723 9.726 9.753 9.781 9.783 9.783 9.791 9.771 9.783 9.783 9.796 9.796 9.824 9.831 9.839 9.859 9.876 9.891 9.874 9.869 9.866 9.881 9.876 9.894 9.891 9.899 9.901 9.916 9.906 9.916 9.926 9.934 9.944 9.924 9.931 9.919 9.924 9.919 9.929 9.904 9.896 9.894 9.891 9.891 9.909 9.916 9.944 9.981 9.989 10.011 9.999 10.006 10.009 10.006 10.009 10.004 10.014 10.029 10.061 10.099 10.144 10.179 10.209 10.231 10.281 10.294 10.311 10.314 10.316 10.379 15.629 14.599 10.241 10.491 10.414 10.641 14.116 17.564 14.984 13.491 17.454 19.886 20.914 17.599 15.664 18.584 19.954 18.889 19.036 17.726 18.706 14.029 10.689 10.689 10.684 10.704 10.689 10.731 10.969 11.351 12.639 15.844 19.474 15.799 18.879 12.066 10.749 10.616 10.594 10.666 10.904 10.941 10.874 11.119 11.371 11.509 11.434 11.254 11.709 12.271 11.846 11.784 11.989 11.369 12.154 10.569 10.654 11.014 10.969 10.704 10.806 10.941 11.364 13.686 10.961 12.216 11.229 10.894 12.491 10.354 11.506 10.389 10.434 10.481 10.521 10.501 10.474 10.436 10.401 10.381 10.351 11.516 10.654 10.454 10.489 10.489 10.501 10.519 10.586 10.574 10.581 10.614 10.636 10.654 10.674 10.714 10.714 10.721 10.711 10.696 10.689 10.696 10.704 10.679 10.706 10.714 10.726 10.716 10.739 10.761 10.769 10.794 10.804 10.816 10.809 10.829 10.824 10.819 10.781 10.786 10.764 10.779 10.771 10.766 10.766 10.781 10.761 10.789 10.789 10.801 10.804 10.836 10.856 10.869 10.861 10.884 10.904 10.911 10.896 10.889 10.894 10.936 10.964 10.954 10.984 10.984 10.929 10.899 10.821 10.786 11.184 12.256 11.266 12.099 11.443 11.14 11.535 11.255 11.104 11.029 11.054 11.029 11.031 11.003 10.991 11.014 11.02 11.042 11.049 11.069 11.024 11.004 11.011 11.014 11.046 11.089 11.074 11.051 11.021 11.016 11.001 10.999 11.056 11.076 11.151 11.146 11.241 11.419 11.444 11.409 11.376 11.353 11.421 11.456 11.511 11.486 11.701 12.081 13.511 12.216 11.238 11.191 11.176 11.166 11.186 11.186 11.211 11.198 11.173 11.191 11.188 11.186 11.223 11.781 12.908 12.753 11.528
8.661 8.651 8.676 8.693 8.713 8.711 8.736 8.783 8.801 8.801 8.788 8.778 8.761 8.781 8.766 8.773 8.816 8.868 8.898 8.788 8.821 8.791 8.878 8.966 8.991 8.961 8.916 8.966 9.096 9.273 9.418 9.596 9.751 9.893 9.998 10.103 10.116 10.066 9.803 9.203 9.163 9.126 9.096 9.088 9.081 9.076 9.121 9.171 9.193 9.218 9.208 9.201 9.281 9.323 9.346 9.461 9.508 9.563 9.898 9.568 8.941 8.961 9.061 9.066 9.033 9.408 9.546 9.578 9.623 9.648 9.813 9.778 9.773 9.683 9.698 14.323 13.551 12.408 14.878 15.836 16.633 17.426 17.298 16.458 15.656 12.031 9.711 9.971 10.533 11.353 11.938 11.646 11.756 12.193 10.898 10.001 9.266 8.798 9.228 9.803 9.916 9.103 8.773 8.443 8.631 10.356 8.556 8.573 8.573 8.583 8.593 8.593 8.598 8.606 8.618 8.623 8.631 8.646 8.653 8.648 8.648 8.658 8.663 8.668 8.671 8.681 8.698 8.701 8.703 8.713 8.811 8.731 8.918 9.526 9.586 9.648 9.646 9.721 9.756 9.763 9.746 9.718 9.691 9.663 9.648 9.641 9.636 9.643 9.633 9.661 9.663 9.678 9.698 9.711 9.718 9.718 9.736 9.743 9.743 9.743 9.741 9.746 9.781 9.778 9.756 9.743 9.753 9.753 9.778 9.823 9.828 9.806 9.783 9.803 9.806 9.826 9.804 9.801 9.826 9.851 9.874 9.879 9.874 9.904 9.911 9.906 9.906 9.901 9.901 9.921 9.914 9.909 9.926 9.961 9.956 9.924 9.899 9.916 9.924 9.946 9.921 9.901 9.864 9.856 9.904 9.921 9.926 9.906 9.889 9.876 9.891 9.911 9.934 9.954 9.971 9.996 10.024 10.041 10.044 10.061 10.076 10.076 10.091 10.129 10.114 10.119 10.134 10.181 10.191 10.211 10.226 10.266 10.266 10.294 10.299 10.281 10.254 10.231 10.189 10.156 10.114 10.069 10.001 12.131 10.166 10.291 11.469 16.596 18.259 15.314 13.606 18.794 19.486 17.676 19.929 20.981 20.256 18.694 11.019 15.299 18.941 18.774 12.131 10.651 10.639 10.601 10.681 16.986 19.291 19.166 17.354 11.599 11.611 11.504 11.211 11.331 11.179 11.436 11.081 10.871 10.719 10.974 10.931 11.059 11.206 10.691 10.456 10.549 10.944 10.819 10.574 11.189 10.614 10.469 10.411 10.356 10.404 10.434 10.501 10.546 10.299 10.229 10.249 10.274 10.311 10.366 10.399 10.419 10.456 10.496 10.521 10.506 10.539 10.484 10.404 10.379 10.291 10.689 11.619 10.426 10.411 10.464 10.486 10.504 10.541 10.574 10.551 10.574 10.594 10.619 10.644 10.656 10.661 10.681 10.681 10.691 10.674 10.671 10.661 10.666 10.676 10.684 10.709 10.701 10.711 10.716 10.744 10.756 10.771 10.794 10.784 10.796 10.804 10.796 10.794 10.796 10.771 10.766 10.761 10.749 10.736 10.746 10.759 10.746 10.749 10.774 10.796 10.791 10.806 10.809 10.824 10.851 10.854 10.859 10.849 10.856 10.874 10.876 10.926 10.926 10.904 10.924 10.859 10.911 10.819 10.541 11.449 11.649 12.746 10.989 11.256 11.321 11.172 11.083 10.981 11.012 11.011 10.987 10.984 10.974 10.964 10.987 11.024 11.044 11.044 11.024 10.994 10.986 10.961 10.974 11.016 11.056 11.071 11.069 11.061 11.046 11.014 11.011 10.991 11.001 11.054 11.091 11.221 11.424 11.484 11.396 11.378 11.381 11.391 11.441 11.491 11.433 11.518 11.741 11.411 11.383 11.161 11.138 11.106 11.101 11.118 11.116 11.128 11.128 11.163 11.148 11.161 11.178 11.188 11.138 11.328 13.183 12.926
8.648 8.648 8.686 8.708 8.696 8.701 8.763 8.756 8.761 8.773 8.763 8.761 8.806 8.801 8.748 8.791 8.816 8.868 8.903 8.796 8.696 8.813 8.898 8.981 8.981 8.968 9.016 9.081 9.258 9.441 9.653 9.851 10.018 10.148 10.283 10.363 10.361 10.298 9.698 9.316 9.248 9.216 9.173 9.163 9.151 9.148 9.143 9.151 9.173 9.208 9.226 9.238 9.228 9.216 9.291 9.333 9.416 9.441 9.478 9.491 9.766 9.216 8.926 9.018 9.058 9.003 8.988 9.563 9.588 9.626 9.623 9.611 9.628 9.658 9.681 9.698 11.451 9.711 10.501 13.101 15.616 16.291 17.106 17.631 16.813 9.738 9.811 9.826 9.818 10.001 11.338 11.433 11.616 11.711 10.621 9.908 9.241 8.853 9.578 10.583 10.421 9.593 10.203 9.001 8.603 12.258 12.588 8.511 8.513 8.531 8.533 8.546 8.548 8.548 8.566 8.578 8.586 8.588 8.596 8.608 8.608 8.621 8.628 8.631 8.638 8.651 8.663 8.673 8.678 8.681 8.691 10.393 8.963 9.568 9.601 9.646 9.673 9.693 9.726 9.761 9.728 9.726 9.716 9.713 9.678 9.648 9.643 9.658 9.653 9.661 9.661 9.678 9.681 9.721 9.723 9.718 9.743 9.758 9.748 9.748 9.741 9.751 9.746 9.738 9.753 9.741 9.743 9.746 9.753 9.758 9.776 9.776 9.791 9.796 9.786 9.801 9.801 9.811 9.834 9.851 9.874 9.909 9.911 9.926 9.959 9.946 9.929 9.941 9.931 9.931 9.924 9.934 9.939 9.944 9.946 9.956 9.961 9.946 9.969 9.974 9.974 9.956 9.926 9.914 9.936 9.961 9.949 9.894 9.871 9.899 9.924 9.936 9.941 9.946 9.966 9.996 10.006 10.041 10.069 10.064 10.059 10.084 10.071 10.141 10.149 10.144 10.144 10.169 10.186 10.209 10.231 10.236 10.266 10.281 10.286 10.281 10.266 10.244 10.226 10.206 10.174 10.141 10.119 10.099 10.094 10.106 10.099 10.079 10.064 10.054 10.089 16.681 16.129 15.746 17.759 20.221 20.594 19.549 18.094 19.259 20.166 20.654 18.451 18.231 17.614 10.581 10.576 10.579 13.256 12.201 10.884 11.011 11.034 11.124 11.336 11.154 11.034 10.846 10.636 10.514 10.371 10.444 10.486 10.721 10.379 10.394 10.404 10.619 11.061 10.921 10.756 10.711 10.376 10.386 10.341 10.334 10.351 10.344 10.371 10.284 10.239 10.256 10.294 10.301 10.311 10.344 10.381 10.401 10.461 10.504 10.539 10.569 10.559 10.531 10.459 10.391 10.361 10.391 11.176 11.006 10.369 10.419 10.456 10.469 10.504 10.546 10.521 10.564 10.586 10.599 10.624 10.649 10.671 10.676 10.669 10.654 10.656 10.654 10.656 10.664 10.674 10.684 10.661 10.669 10.664 10.691 10.701 10.724 10.724 10.731 10.726 10.736 10.759 10.774 10.741 10.761 10.739 10.744 10.744 10.739 10.721 10.741 10.724 10.741 10.734 10.746 10.744 10.761 10.784 10.791 10.806 10.834 10.834 10.854 10.866 10.854 10.856 10.861 10.876 10.886 10.859 10.874 10.831 10.866 10.774 10.729 12.751 10.446 13.121 10.996 10.99 11.054 11.067 10.949 10.969 10.989 10.978 10.963 10.956 10.938 10.944 10.979 10.995 11.002 11.017 11.031 10.981 10.981 10.951 10.979 10.964 11.019 11.034 11.031 11.071 11.061 11.039 11.039 11.021 11.006 10.994 11.021 11.061 11.261 11.421 11.404 11.308 11.358 11.378 11.388 11.413 11.361 11.361 11.236 11.093 11.103 11.093 11.078 11.061 11.086 11.091 11.066 11.071 11.081 11.098 11.133 11.146 11.138 11.156 11.176 11.083 11.128 12.306
8.613 8.666 8.686 8.706 8.683 8.721 8.743 8.766 8.743 8.716 8.741 8.753 8.766 8.776 8.776 8.778 8.798 8.863 8.876 8.806 8.818 8.861 8.861 8.938 9.006 9.026 9.061 9.223 9.398 9.608 9.851 10.043 10.196 10.373 10.501 10.588 10.588 10.508 10.276 9.813 9.478 9.303 9.268 9.236 9.231 9.206 9.188 9.178 9.168 9.176 9.208 9.248 9.251 9.256 9.243 9.236 9.278 9.318 9.436 9.471 9.451 9.571 9.691 9.141 8.918 9.006 9.021 8.988 9.031 9.626 9.611 9.621 9.633 9.658 9.681 9.678 9.693 10.281 9.713 12.571 15.821 15.178 15.983 16.828 9.741 9.711 9.698 9.743 9.818 9.816 10.921 11.586 11.593 11.668 10.458 9.878 9.238 8.891 9.606 11.516 10.203 11.496 10.791 9.713 9.176 8.848 11.043 12.513 11.316 8.516 8.521 8.523 9.628 9.453 8.533 8.543 8.543 8.553 8.551 8.561 8.568 8.573 8.593 8.601 8.611 8.623 8.628 8.638 8.641 8.648 8.668 11.111 8.973 9.623 9.593 9.651 9.711 9.703 9.736 9.751 9.748 9.771 9.763 9.746 9.758 9.703 9.656 9.688 9.696 9.698 9.696 9.688 9.726 9.748 9.751 9.756 9.773 9.768 9.776 9.778 9.776 9.788 9.781 9.781 9.768 9.773 9.756 9.758 9.773 9.761 9.763 9.751 9.798 9.813 9.803 9.808 9.776 9.819 9.854 9.854 9.864 9.891 9.871 9.871 9.864 9.866 9.856 9.876 9.856 9.889 9.901 9.904 9.924 9.924 9.916 9.946 9.964 9.969 9.971 9.981 9.984 9.971 9.964 9.949 9.959 9.969 9.966 9.951 9.921 9.931 9.936 9.946 9.944 9.964 9.979 9.991 9.989 10.014 10.019 10.009 10.036 10.064 10.099 10.111 10.124 10.161 10.146 10.151 10.189 10.214 10.254 10.261 10.279 10.264 10.291 10.264 10.246 10.236 10.194 10.156 10.136 10.111 10.084 10.094 10.109 10.101 10.111 10.131 10.114 10.091 10.081 10.069 10.059 10.034 14.831 15.824 18.604 14.966 16.649 20.419 20.024 19.984 18.791 20.286 20.509 15.401 10.651 10.551 10.524 10.506 10.509 10.529 10.471 10.409 10.446 10.391 10.394 10.386 10.391 10.426 10.326 10.339 10.334 10.399 10.349 10.321 10.479 10.376 10.646 11.121 10.604 11.146 10.481 10.544 10.454 10.484 10.394 10.381 10.454 10.221 10.219 10.279 10.344 10.339 10.326 10.339 10.389 10.409 10.441 10.474 10.511 10.509 10.511 10.496 10.486 10.404 10.384 10.349 10.524 11.371 10.376 10.351 10.426 10.451 10.489 10.511 10.556 10.544 10.544 10.549 10.574 10.599 10.614 10.636 10.649 10.644 10.639 10.654 10.649 10.659 10.659 10.654 10.669 10.671 10.681 10.686 10.684 10.686 10.704 10.711 10.714 10.724 10.741 10.729 10.749 10.746 10.736 10.744 10.739 10.729 10.729 10.726 10.726 10.726 10.721 10.741 10.731 10.744 10.736 10.766 10.764 10.784 10.811 10.816 10.816 10.801 10.816 10.789 10.809 10.839 10.846 10.834 10.824 10.814 10.764 11.176 11.694 13.226 12.009 10.966 11.136 11.009 10.92 10.925 10.952 10.933 10.935 10.918 10.919 10.89 10.924 10.938 10.993 11.009 10.989 10.991 10.974 10.951 10.926 10.974 10.966 11.001 11.011 11.021 11.046 11.064 11.044 11.056 11.051 11.059 11.009 10.986 10.961 10.989 11.076 11.181 11.218 11.223 11.266 11.241 11.196 11.151 11.081 11.071 11.061 11.043 11.056 11.033 11.036 11.041 11.058 11.046 11.016 11.038 11.071 11.083 11.086 11.121 11.138 11.148 11.103 11.053 11.118
8.631 8.663 8.701 8.703 8.728 8.728 8.766 8.763 8.726 8.703 8.723 8.731 8.746 8.771 8.768 8.801 8.821 8.836 8.826 8.818 8.898 8.863 8.741 8.846 9.001 9.076 9.173 9.331 9.533 9.733 9.976 10.191 10.368 10.508 10.663 10.698 10.788 10.791 10.626 10.411 10.073 9.663 9.478 9.313 9.298 9.263 9.248 9.223 9.211 9.201 9.198 9.206 9.231 9.253 9.258 9.263 9.243 9.236 9.336 9.383 9.436 9.486 9.488 9.473 9.443 9.018 8.958 8.978 8.983 8.956 9.126 9.653 9.641 9.643 9.661 10.686 11.308 9.743 9.713 9.826 10.046 9.768 12.563 14.786 9.713 9.728 9.721 9.716 9.718 10.401 11.323 11.318 11.168 11.308 10.183 9.818 9.216 8.968 10.881 9.913 10.448 11.028 10.291 10.573 10.008 9.781 9.023 8.676 12.338 12.391 8.541 8.548 8.556 8.936 9.108 8.563 9.201 9.028 8.696 10.826 8.586 8.603 8.611 8.608 8.626 8.638 8.633 8.638 8.643 8.651 8.661 10.703 8.963 9.688 9.633 9.668 9.713 9.706 9.726 9.713 9.776 9.781 9.736 9.721 9.701 9.688 9.653 9.676 9.698 9.696 9.698 9.711 9.723 9.736 9.768 9.773 9.773 9.778 9.798 9.806 9.823 9.806 9.813 9.823 9.821 9.808 9.793 9.818 9.801 9.833 9.836 9.821 9.791 9.781 9.821 9.838 9.831 9.839 9.836 9.849 9.879 9.896 9.886 9.891 9.884 9.879 9.879 9.851 9.851 9.864 9.866 9.881 9.901 9.926 9.934 9.956 9.954 9.961 9.941 9.961 9.929 9.931 9.949 9.926 9.924 9.919 9.919 9.899 9.894 9.874 9.879 9.889 9.916 9.921 9.964 9.974 9.994 10.001 10.009 10.024 10.031 10.051 10.081 10.104 10.101 10.144 10.146 10.194 10.204 10.224 10.244 10.256 10.281 10.311 10.309 10.299 10.276 10.264 10.229 10.184 10.151 10.134 10.094 10.064 10.064 10.056 10.046 10.041 10.039 10.054 10.061 10.059 10.061 10.049 10.059 10.044 10.031 10.024 10.519 13.176 16.429 17.544 16.771 18.924 20.016 17.111 11.454 11.276 10.641 10.459 10.454 10.434 10.424 10.406 10.371 10.394 10.389 10.301 10.379 10.529 10.451 10.469 10.499 10.474 10.536 10.441 10.509 10.449 10.454 10.454 10.464 10.454 10.454 10.456 10.454 10.461 10.394 10.481 11.106 10.209 10.241 10.314 10.396 10.386 10.389 10.411 10.421 10.464 10.489 10.544 10.531 10.526 10.481 10.459 10.459 10.389 10.381 10.416 10.384 11.181 10.901 10.281 10.369 10.411 10.426 10.461 10.509 10.509 10.501 10.511 10.524 10.559 10.564 10.614 10.629 10.626 10.639 10.636 10.639 10.641 10.644 10.646 10.654 10.664 10.681 10.674 10.664 10.666 10.671 10.666 10.694 10.689 10.686 10.704 10.696 10.716 10.729 10.716 10.719 10.714 10.716 10.706 10.716 10.709 10.704 10.724 10.716 10.721 10.734 10.721 10.751 10.769 10.771 10.799 10.799 10.791 10.789 10.769 10.809 10.811 10.844 10.799 10.799 10.769 10.624 11.521 10.976 13.589 10.844 11.259 10.924 10.87 10.859 10.907 10.897 10.888 10.892 10.89 10.904 10.913 10.909 10.923 10.945 10.95 10.98 10.984 10.961 10.956 10.976 10.959 10.964 10.986 10.959 10.964 10.996 10.989 11.004 11.024 11.059 11.056 11.051 10.996 10.939 10.934 10.941 10.939 10.988 10.996 10.996 11.011 11.003 11.003 11.011 11.013 11.021 11.008 11.003 11.008 10.991 11.038 10.998 10.966 10.958 10.986 11.013 11.026 11.063 11.086 11.083 11.088 11.101 11.093 11.016
8.623 8.673 8.676 8.721 8.731 8.713 8.746 8.758 8.723 8.721 8.716 8.723 8.738 8.763 8.748 8.791 8.818 8.883 8.876 8.761 8.838 8.831 8.741 8.818 9.013 9.106 9.218 9.391 9.633 9.831 10.058 10.226 10.358 10.538 10.668 10.741 10.826 10.868 10.851 10.791 10.598 10.406 10.033 9.611 9.451 9.326 9.308 10.721 9.258 9.248 9.243 9.233 9.216 9.223 9.241 9.263 9.276 9.266 9.246 9.251 9.351 9.421 9.441 9.423 9.388 9.313 9.486 9.171 8.943 8.971 8.988 8.936 9.058 9.656 9.653 9.663 9.676 9.701 9.711 9.833 9.766 9.766 9.771 9.733 9.733 9.733 9.738 9.733 9.856 11.156 12.861 10.081 10.236 10.331 10.101 9.793 9.208 9.028 9.798 10.111 13.123 12.626 11.478 10.816 9.726 9.543 9.858 9.421 8.888 10.868 8.561 8.576 8.593 9.228 8.583 8.991 9.106 9.458 10.868 8.603 8.823 8.621 8.626 8.633 8.636 8.651 11.211 8.731 8.666 8.678 8.688 11.446 9.118 9.708 9.661 9.693 9.721 9.696 9.731 9.726 9.736 9.743 9.733 9.728 9.671 9.668 9.678 9.656 9.686 9.658 9.693 9.716 9.703 9.731 9.761 9.776 9.781 9.771 9.771 9.771 9.761 9.771 9.786 9.791 9.808 9.796 9.796 9.776 9.733 9.766 9.728 9.776 9.763 9.758 9.733 9.758 9.811 9.819 9.819 9.819 9.844 9.884 9.906 9.911 9.911 9.909 9.919 9.921 9.916 9.921 9.911 9.921 9.949 9.946 9.969 9.974 9.956 9.956 9.974 9.974 9.974 9.954 9.949 9.951 9.956 9.954 9.954 9.921 9.914 9.941 9.926 9.911 9.911 9.911 9.934 9.964 10.006 10.016 10.049 10.014 10.044 10.069 10.109 10.134 10.116 10.094 10.124 10.154 10.176 10.194 10.184 10.189 10.184 10.191 10.256 10.256 10.256 10.254 10.246 10.214 10.171 10.146 10.144 10.126 10.069 10.076 10.074 10.041 9.999 10.024 10.064 10.054 10.026 10.019 10.034 10.011 10.016 10.014 10.019 10.016 10.014 10.006 12.354 17.996 17.489 11.164 11.774 12.011 11.319 10.721 10.404 10.364 10.349 10.381 10.371 10.369 10.366 10.396 10.376 10.411 10.491 10.479 10.454 10.446 10.441 10.436 10.456 10.464 10.454 10.456 10.454 10.456 10.469 10.491 10.471 10.471 10.436 10.681 11.489 10.179 10.226 10.314 10.366 10.384 10.404 10.431 10.451 10.456 10.466 10.464 10.474 10.451 10.424 10.419 10.434 10.414 10.376 10.391 10.379 10.404 11.249 10.386 10.281 10.384 10.404 10.419 10.444 10.481 10.481 10.506 10.511 10.529 10.541 10.589 10.624 10.626 10.641 10.639 10.636 10.639 10.641 10.646 10.659 10.659 10.649 10.654 10.649 10.651 10.651 10.664 10.649 10.649 10.669 10.689 10.686 10.694 10.691 10.681 10.701 10.704 10.711 10.701 10.704 10.711 10.719 10.714 10.696 10.714 10.726 10.734 10.729 10.736 10.729 10.729 10.729 10.751 10.769 10.769 10.796 10.791 10.799 10.781 10.769 10.749 10.391 11.669 12.496 11.529 11.441 10.849 10.871 10.782 10.836 10.867 10.847 10.842 10.859 10.871 10.868 10.872 10.882 10.891 10.919 10.945 10.961 10.942 10.921 10.936 10.971 10.981 10.984 10.951 10.951 10.946 10.936 10.941 10.951 10.986 11.026 11.081 11.019 10.974 10.956 10.906 10.856 10.904 10.921 10.923 10.933 10.926 10.941 10.936 10.948 10.966 10.991 10.971 10.958 10.936 10.948 10.938 10.916 10.918 10.913 10.933 10.948 10.971 11.016 11.051 11.053 11.071 11.038 11.046 11.063
8.641 8.649 8.686 8.686 8.726 8.724 8.724 8.736 8.734 8.719 8.698 8.681 8.703 8.721 8.706 8.766 8.821 8.889 8.881 8.909 8.861 8.753 8.786 8.849 9.036 9.189 9.278 9.448 9.653 9.858 10.053 10.153 10.321 10.488 10.613 10.736 10.783 10.888 10.906 10.896 10.838 10.751 10.561 10.353 9.976 9.606 9.556 9.428 9.676 9.303 9.288 9.261 9.251 9.248 9.288 9.238 9.258 9.268 9.276 9.256 9.226 9.283 9.381 9.376 9.368 9.411 9.383 9.396 9.476 9.153 8.961 8.973 8.976 8.928 9.251 9.698 9.703 10.201 9.723 9.741 9.723 9.753 9.758 9.758 9.741 9.723 9.713 9.756 10.758 13.266 11.541 9.001 9.531 9.556 9.988 9.653 9.141 9.036 9.921 9.803 11.358 11.956 11.626 10.441 9.663 10.443 9.878 9.426 9.511 9.048 8.753 8.593 8.606 8.608 8.606 8.616 8.618 8.676 8.623 11.166 9.956 8.646 10.706 9.598 8.758 9.056 10.981 8.693 8.693 8.706 8.716 8.756 9.121 9.716 9.668 9.693 9.698 9.696 9.738 9.743 9.723 9.741 9.716 9.696 9.706 9.691 9.658 9.656 9.666 9.656 9.686 9.721 9.713 9.733 9.766 9.756 9.803 9.778 9.781 9.761 9.776 9.793 9.786 9.788 9.811 9.791 9.788 9.801 9.771 9.788 9.743 9.766 9.753 9.768 9.783 9.778 9.773 9.793 9.816 9.813 9.813 9.833 9.858 9.861 9.858 9.848 9.871 9.863 9.868 9.851 9.846 9.861 9.871 9.866 9.898 9.886 9.918 9.918 9.916 9.923 9.948 9.941 9.953 9.941 9.963 9.958 9.953 9.956 9.938 9.953 9.981 9.968 9.926 9.941 9.946 9.973 9.998 9.941 10.003 9.958 9.993 10.056 10.068 10.068 10.076 10.076 10.104 10.151 10.169 10.191 10.201 10.194 10.186 10.174 10.221 10.224 10.241 10.234 10.194 10.141 10.131 10.119 10.119 10.114 10.104 10.094 10.086 10.101 10.099 10.066 10.076 10.076 10.056 10.024 10.026 10.031 10.049 10.011 10.014 10.014 10.009 10.034 10.041 10.056 10.066 10.229 11.071 11.556 11.541 11.564 10.449 10.334 10.341 10.344 10.354 10.356 10.361 10.371 10.384 10.394 10.481 10.479 10.474 10.454 10.459 10.441 10.446 10.459 10.466 10.469 10.466 10.464 10.461 10.481 10.476 10.481 10.399 10.489 11.371 10.194 10.219 10.321 10.371 10.376 10.389 10.436 10.454 10.429 10.449 10.449 10.466 10.431 10.404 10.404 10.429 10.404 10.379 10.406 10.411 10.334 11.439 11.971 10.264 10.321 10.366 10.384 10.419 10.459 10.464 10.474 10.484 10.514 10.526 10.554 10.596 10.626 10.636 10.646 10.654 10.649 10.649 10.641 10.656 10.649 10.651 10.654 10.649 10.651 10.651 10.664 10.651 10.641 10.649 10.644 10.664 10.681 10.701 10.681 10.699 10.694 10.694 10.696 10.699 10.701 10.699 10.706 10.701 10.699 10.709 10.714 10.724 10.724 10.734 10.719 10.709 10.726 10.744 10.761 10.771 10.764 10.736 10.719 10.726 10.696 10.654 12.034 11.544 12.411 10.939 10.836 10.736 10.758 10.82 10.84 10.844 10.835 10.84 10.827 10.82 10.815 10.851 10.853 10.892 10.915 10.924 10.905 10.914 10.939 10.959 10.984 10.954 10.944 10.961 10.919 10.896 10.864 10.896 10.921 10.959 10.994 10.994 10.949 10.934 10.864 10.861 10.849 10.866 10.869 10.846 10.844 10.839 10.861 10.866 10.886 10.914 10.881 10.894 10.876 10.884 10.896 10.866 10.881 10.901 10.914 10.921 10.941 10.956 10.981 11.006 11.024 11.034 11.019 11.044
8.611 8.659 8.679 8.711 8.726 8.743 8.753 8.743 8.736 8.731 8.711 8.698 8.706 8.714 8.711 8.751 8.854 8.866 8.878 8.921 8.901 8.836 8.804 8.874 9.049 9.216 9.318 9.466 9.641 9.823 9.971 10.088 10.228 10.378 10.518 10.643 10.678 10.801 10.936 11.921 10.901 10.883 10.841 10.768 10.618 10.356 10.023 9.646 9.408 9.346 9.331 11.033 9.283 9.368 9.336 9.348 9.288 9.238 9.263 9.266 9.263 9.251 9.216 9.301 9.308 9.331 9.356 9.391 9.376 9.461 9.576 9.371 9.011 8.973 8.971 8.926 9.161 9.726 12.323 11.743 9.808 9.711 9.726 9.748 9.738 9.718 9.706 10.811 11.398 10.611 8.703 8.833 9.181 9.343 9.671 9.903 9.228 8.996 12.213 9.701 11.153 12.253 11.658 11.836 11.223 9.926 9.611 9.468 9.353 9.283 9.236 8.978 8.636 8.628 8.638 8.648 8.651 8.656 11.171 9.926 8.681 8.681 10.406 9.873 8.698 10.666 8.976 8.718 8.731 8.736 8.743 8.746 9.186 9.713 9.648 9.723 9.696 9.696 9.743 9.753 9.738 9.766 9.718 9.663 9.661 9.718 9.681 9.686 9.656 9.651 9.676 9.696 9.701 9.753 9.761 9.783 9.746 9.756 9.793 9.798 9.796 9.803 9.788 9.811 9.816 9.806 9.781 9.766 9.793 9.758 9.786 9.761 9.718 9.773 9.763 9.766 9.773 9.778 9.791 9.821 9.823 9.831 9.823 9.853 9.866 9.848 9.846 9.858 9.851 9.866 9.856 9.863 9.863 9.888 9.898 9.913 9.918 9.933 9.923 9.931 9.931 9.928 9.933 9.928 9.926 9.938 9.913 9.913 9.903 9.896 9.888 9.893 9.883 9.878 9.856 9.893 9.931 9.933 9.961 9.951 10.016 9.988 10.056 10.071 10.088 10.101 10.131 10.134 10.149 10.199 10.239 10.221 10.219 10.261 10.241 10.204 10.241 10.234 10.199 10.159 10.104 10.086 10.071 10.064 10.066 10.044 10.036 10.076 10.079 10.044 10.044 10.066 10.064 10.064 10.064 10.099 10.106 10.059 10.019 9.989 10.004 10.024 10.051 10.051 10.106 10.126 10.279 11.059 11.689 11.666 10.771 10.339 10.344 10.341 10.364 10.359 10.366 10.391 10.389 10.394 10.469 10.459 10.459 10.451 10.461 10.451 10.464 10.464 10.466 10.461 10.469 10.474 10.476 10.476 10.474 10.474 10.481 10.516 11.424 10.201 10.221 10.331 10.341 10.364 10.346 10.341 10.374 10.404 10.414 10.424 10.429 10.409 10.389 10.384 10.401 10.384 10.409 10.396 10.391 10.374 10.319 12.089 10.446 10.236 10.326 10.359 10.359 10.426 10.449 10.436 10.461 10.489 10.494 10.524 10.566 10.594 10.611 10.619 10.631 10.631 10.639 10.631 10.649 10.634 10.641 10.636 10.621 10.619 10.606 10.614 10.599 10.611 10.606 10.611 10.621 10.631 10.626 10.654 10.656 10.656 10.664 10.676 10.684 10.679 10.681 10.684 10.676 10.686 10.681 10.681 10.676 10.676 10.701 10.686 10.681 10.719 10.751 10.739 10.726 10.764 10.714 10.696 10.664 10.684 11.054 11.966 11.739 11.329 10.739 10.769 10.741 10.778 10.811 10.823 10.806 10.812 10.795 10.786 10.791 10.804 10.803 10.854 10.884 10.898 10.897 10.91 10.899 10.919 10.959 10.954 10.966 10.939 10.931 10.891 10.886 10.846 10.844 10.874 10.936 10.919 10.901 10.911 10.854 10.809 10.789 10.809 10.796 10.806 10.809 10.804 10.781 10.801 10.849 10.841 10.861 10.839 10.834 10.829 10.836 10.834 10.824 10.826 10.854 10.869 10.886 10.881 10.899 10.914 10.946 10.989 10.989 11.009 11.006
8.618 8.663 8.679 8.719 8.726 8.734 8.748 8.756 8.766 8.743 8.738 8.724 8.736 8.753 8.769 8.811 8.871 8.844 8.801 8.844 8.856 8.809 8.829 8.891 9.036 9.176 9.308 9.433 9.581 9.751 9.891 10.023 10.168 10.336 10.431 10.553 10.623 10.728 10.841 10.851 10.881 10.871 10.893 10.916 10.873 10.761 10.591 10.253 9.828 9.596 9.398 9.593 10.306 9.396 9.403 9.448 9.406 9.363 9.278 9.248 9.263 9.266 9.256 9.231 9.208 9.306 9.246 9.298 9.371 9.368 9.328 9.536 13.043 9.356 9.056 8.968 8.973 8.926 9.081 9.791 9.728 9.728 9.753 9.736 9.713 9.736 10.308 11.356 10.548 9.891 8.708 8.868 8.631 9.013 9.128 10.583 9.926 12.476 12.923 10.343 11.873 12.558 12.706 11.641 10.726 10.901 10.403 9.518 9.448 9.431 9.333 9.296 9.123 8.873 8.683 8.693 8.683 8.688 8.696 8.701 8.708 8.716 8.721 8.718 8.733 8.736 8.738 8.753 8.753 8.763 8.768 8.903 9.221 9.658 9.668 9.733 9.688 9.738 9.793 9.751 9.718 9.753 9.723 9.688 9.656 9.651 9.678 9.681 9.668 9.676 9.668 9.698 9.691 9.728 9.743 9.751 9.766 9.786 9.766 9.788 9.781 9.791 9.811 9.781 9.778 9.801 9.778 9.786 9.773 9.758 9.773 9.738 9.771 9.723 9.733 9.751 9.778 9.788 9.786 9.796 9.831 9.846 9.833 9.853 9.853 9.871 9.851 9.841 9.868 9.856 9.858 9.868 9.893 9.903 9.898 9.898 9.901 9.911 9.908 9.926 9.923 9.916 9.926 9.911 9.928 9.963 9.926 9.923 9.938 9.926 9.918 9.896 9.886 9.898 9.908 9.901 9.893 9.943 9.966 9.981 10.008 9.988 10.033 10.038 10.078 10.103 10.124 10.126 10.139 10.151 10.161 10.171 10.181 10.181 10.176 10.186 10.191 10.181 10.189 10.176 10.146 10.121 10.096 10.071 10.051 10.049 10.049 10.071 10.039 10.049 10.036 10.029 10.049 10.051 10.051 10.059 10.074 10.064 10.091 10.064 10.069 10.051 10.061 10.101 10.109 10.154 10.144 10.506 11.404 11.606 10.799 10.321 10.334 10.344 10.359 10.364 10.376 10.384 10.389 10.399 10.391 10.461 10.451 10.446 10.446 10.446 10.459 10.471 10.459 10.469 10.479 10.479 10.484 10.486 10.494 10.474 10.501 10.371 11.381 10.299 10.204 10.286 10.294 10.324 10.301 10.274 10.351 10.409 10.404 10.401 10.409 10.399 10.424 10.381 10.361 10.386 10.389 10.404 10.411 10.371 10.271 10.606 11.434 10.224 10.261 10.311 10.341 10.374 10.409 10.446 10.449 10.459 10.479 10.499 10.529 10.576 10.606 10.619 10.629 10.644 10.626 10.634 10.646 10.654 10.651 10.639 10.616 10.619 10.604 10.586 10.579 10.564 10.579 10.581 10.586 10.604 10.616 10.631 10.644 10.656 10.674 10.681 10.701 10.704 10.704 10.696 10.689 10.694 10.691 10.679 10.676 10.676 10.661 10.661 10.676 10.666 10.669 10.681 10.689 10.721 10.689 10.684 10.644 10.519 11.419 11.429 13.266 11.086 10.751 10.664 10.734 10.775 10.786 10.782 10.784 10.771 10.752 10.759 10.745 10.78 10.789 10.839 10.864 10.865 10.876 10.892 10.891 10.911 10.944 10.946 10.926 10.906 10.891 10.856 10.846 10.841 10.851 10.881 10.884 10.871 10.859 10.816 10.751 10.699 10.699 10.716 10.719 10.701 10.701 10.716 10.739 10.754 10.794 10.831 10.806 10.794 10.779 10.784 10.776 10.761 10.756 10.799 10.824 10.849 10.876 10.856 10.869 10.874 10.904 10.914 10.939 10.956 10.991
8.604 8.659 8.668 8.696 8.739 8.741 8.748 8.759 8.753 8.731 8.719 8.711 8.706 8.761 8.771 8.796 8.876 8.849 8.746 8.771 8.801 8.786 8.786 8.896 9.031 9.146 9.283 9.388 9.521 9.671 9.808 9.953 10.086 10.218 10.356 10.471 10.583 10.618 10.696 10.773 10.806 10.893 10.958 10.966 10.953 10.951 10.888 10.656 10.318 9.993 9.663 9.571 9.461 9.456 9.583 10.381 9.493 9.451 9.426 9.391 9.231 9.243 9.251 9.246 9.236 9.223 9.211 9.251 9.298 9.333 9.383 9.346 9.321 9.511 12.526 12.703 9.061 8.968 8.943 8.898 8.921 9.676 9.848 9.728 9.708 9.926 11.113 10.321 9.331 9.396 8.761 8.706 8.678 9.746 8.966 9.428 8.903 9.316 11.118 10.076 11.941 12.636 11.806 11.758 11.181 10.826 11.351 10.793 10.528 9.751 9.443 9.293 9.213 9.206 9.023 8.746 8.721 8.728 8.736 8.748 8.743 8.753 8.758 8.763 8.768 8.778 8.776 9.121 8.786 11.363 11.368 11.381 9.258 9.651 9.658 9.713 9.681 9.693 9.776 9.751 9.733 9.743 9.703 9.706 9.703 9.666 9.646 9.663 9.686 9.666 9.676 9.661 9.681 9.701 9.723 9.716 9.746 9.751 9.771 9.758 9.751 9.776 9.791 9.776 9.793 9.761 9.776 9.756 9.768 9.763 9.711 9.741 9.736 9.738 9.763 9.696 9.766 9.761 9.783 9.816 9.813 9.823 9.851 9.841 9.853 9.848 9.848 9.871 9.861 9.878 9.873 9.883 9.896 9.886 9.908 9.908 9.893 9.906 9.891 9.923 9.896 9.936 9.923 9.926 9.941 9.948 9.956 9.953 9.933 9.933 9.931 9.923 9.911 9.901 9.888 9.913 9.911 9.916 9.963 9.983 9.998 10.031 10.031 10.018 10.043 10.033 10.086 10.134 10.119 10.129 10.131 10.131 10.161 10.189 10.194 10.179 10.169 10.176 10.159 10.144 10.116 10.096 10.046 10.034 10.021 9.991 10.024 10.046 10.051 10.086 10.064 10.071 10.064 10.046 10.049 10.031 10.036 10.044 10.061 10.084 10.104 10.094 10.116 10.136 10.144 10.169 10.176 10.234 10.754 11.169 10.616 10.316 10.329 10.341 10.346 10.356 10.371 10.381 10.389 10.389 10.431 10.431 10.429 10.439 10.444 10.451 10.459 10.461 10.464 10.484 10.481 10.489 10.484 10.484 10.499 10.484 10.446 10.424 11.294 10.529 10.179 10.234 10.254 10.246 10.284 10.264 10.311 10.394 10.389 10.384 10.406 10.379 10.411 10.396 10.356 10.361 10.389 10.419 10.381 10.391 10.354 10.329 11.244 10.616 10.171 10.269 10.316 10.321 10.361 10.399 10.381 10.436 10.459 10.464 10.489 10.519 10.579 10.606 10.654 10.654 10.654 10.656 10.659 10.641 10.634 10.629 10.629 10.624 10.594 10.596 10.581 10.566 10.564 10.554 10.554 10.584 10.579 10.584 10.609 10.621 10.631 10.654 10.669 10.684 10.689 10.674 10.674 10.654 10.656 10.656 10.651 10.634 10.639 10.616 10.639 10.651 10.654 10.631 10.651 10.649 10.649 10.654 10.609 10.249 11.614 10.664 13.014 10.711 10.644 10.681 10.746 10.756 10.764 10.764 10.733 10.725 10.74 10.73 10.737 10.75 10.76 10.819 10.84 10.85 10.83 10.849 10.839 10.904 10.906 10.894 10.889 10.884 10.861 10.839 10.841 10.821 10.846 10.899 10.869 10.831 10.786 10.734 10.681 10.651 10.641 10.649 10.641 10.606 10.656 10.676 10.706 10.744 10.751 10.781 10.754 10.721 10.751 10.751 10.734 10.706 10.729 10.754 10.796 10.826 10.836 10.864 10.836 10.866 10.856 10.864 10.891 10.909 10.949
8.621 8.646 8.668 8.703 8.729 8.764 8.761 8.769 8.751 8.731 8.714 8.714 8.746 8.751 8.734 8.784 8.846 8.796 8.686 8.739 8.746 8.741 8.769 8.939 9.029 9.106 9.253 9.346 9.488 9.601 9.718 9.868 9.988 10.128 10.258 10.361 10.501 10.591 10.668 10.761 10.801 10.863 10.903 10.923 10.926 10.933 10.898 10.746 10.538 10.206 9.843 9.581 9.521 9.553 9.538 10.426 9.493 9.461 9.488 9.453 9.416 9.371 9.233 9.241 9.246 9.241 9.238 9.216 9.203 9.241 9.233 9.298 9.311 9.318 9.283 9.193 8.986 8.941 9.001 8.906 8.898 8.888 8.951 9.966 9.921 9.811 10.003 9.411 9.433 9.818 8.806 8.783 8.823 8.756 9.386 10.288 9.006 10.738 11.988 13.118 11.173 11.713 12.033 12.131 12.693 11.683 11.906 12.223 11.021 10.538 9.466 9.351 9.788 9.271 9.286 9.193 9.018 8.803 9.266 9.253 8.823 8.958 11.856 9.061 9.716 8.868 9.198 9.393 8.828 11.711 11.413 11.428 9.358 9.593 9.661 9.708 9.681 9.693 9.746 9.746 9.731 9.748 9.693 9.656 9.681 9.708 9.691 9.678 9.661 9.681 9.701 9.688 9.696 9.693 9.708 9.711 9.713 9.738 9.746 9.748 9.781 9.753 9.768 9.763 9.756 9.778 9.763 9.763 9.756 9.731 9.731 9.711 9.718 9.743 9.703 9.723 9.738 9.746 9.761 9.783 9.813 9.846 9.831 9.856 9.876 9.858 9.881 9.866 9.873 9.881 9.858 9.903 9.896 9.883 9.888 9.873 9.921 9.918 9.893 9.908 9.903 9.911 9.921 9.946 9.941 9.948 9.948 9.938 9.953 9.948 9.933 9.928 9.918 9.881 9.901 9.888 9.878 9.928 9.918 9.946 9.986 9.991 10.026 10.051 10.081 10.076 10.091 10.104 10.114 10.151 10.146 10.146 10.159 10.141 10.144 10.176 10.171 10.149 10.136 10.136 10.099 10.081 10.051 10.039 10.024 10.046 10.036 10.036 10.046 10.046 10.001 10.029 10.001 10.021 10.051 10.061 10.059 10.071 10.074 10.044 10.056 10.091 10.119 10.129 10.189 10.204 10.171 10.159 10.254 10.446 10.381 10.304 10.319 10.329 10.339 10.354 10.361 10.374 10.389 10.404 10.436 10.436 10.429 10.431 10.439 10.461 10.459 10.474 10.474 10.479 10.466 10.476 10.481 10.476 10.506 10.486 10.571 10.374 10.689 10.841 10.171 10.211 10.169 10.209 10.239 10.241 10.284 10.389 10.396 10.391 10.401 10.374 10.386 10.386 10.334 10.331 10.381 10.411 10.384 10.361 10.324 10.274 10.449 11.141 10.256 10.199 10.289 10.304 10.334 10.381 10.396 10.431 10.426 10.446 10.459 10.481 10.516 10.581 10.616 10.634 10.651 10.644 10.636 10.634 10.634 10.631 10.609 10.614 10.586 10.571 10.566 10.544 10.544 10.516 10.534 10.539 10.554 10.551 10.574 10.574 10.596 10.611 10.624 10.651 10.656 10.666 10.664 10.651 10.639 10.646 10.631 10.629 10.604 10.611 10.631 10.631 10.636 10.626 10.646 10.614 10.614 10.624 10.554 10.449 11.644 12.431 10.964 10.629 10.579 10.679 10.719 10.714 10.723 10.735 10.718 10.706 10.694 10.7 10.711 10.736 10.752 10.798 10.809 10.849 10.81 10.812 10.859 10.874 10.854 10.874 10.874 10.841 10.839 10.836 10.806 10.804 10.844 10.841 10.816 10.784 10.726 10.661 10.651 10.596 10.599 10.574 10.609 10.606 10.611 10.649 10.701 10.716 10.759 10.769 10.761 10.714 10.706 10.691 10.721 10.701 10.726 10.734 10.779 10.799 10.826 10.814 10.839 10.846 10.834 10.861 10.844 10.864 10.876
8.609 8.634 8.656 8.694 8.748 8.764 8.781 8.771 8.771 8.746 8.729 8.736 8.774 8.756 8.748 8.816 8.809 8.781 8.711 8.731 8.748 8.839 8.819 8.934 8.981 9.029 9.163 9.291 9.408 9.533 9.648 9.771 9.886 10.011 10.151 10.263 10.371 10.516 10.598 10.668 10.748 10.808 10.856 10.876 10.868 10.888 10.858 10.736 10.561 10.211 9.821 9.556 9.528 9.563 9.753 9.533 9.521 9.478 9.458 10.983 9.473 9.443 9.396 9.316 9.213 9.236 9.233 9.226 9.216 9.208 9.213 9.266 9.221 9.298 9.321 9.298 9.226 8.958 8.676 8.921 8.981 8.901 8.938 8.933 8.951 9.003 10.661 11.481 10.056 10.051 8.951 8.916 8.916 8.851 8.868 8.803 8.803 10.013 8.991 11.516 9.333 10.036 11.271 11.086 11.926 11.831 12.186 11.973 11.778 11.596 10.838 9.778 9.971 10.416 9.321 9.293 9.306 9.203 9.108 9.056 9.051 9.066 9.033 9.011 8.961 9.096 8.958 9.083 8.983 11.538 11.448 11.466 9.498 9.593 9.633 9.678 9.676 9.721 9.748 9.746 9.721 9.728 9.743 9.691 9.691 9.673 9.713 9.691 9.678 9.683 9.673 9.701 9.696 9.713 9.708 9.706 9.691 9.736 9.706 9.746 9.738 9.751 9.761 9.756 9.758 9.763 9.743 9.753 9.733 9.723 9.723 9.696 9.718 9.701 9.726 9.748 9.743 9.776 9.746 9.786 9.793 9.808 9.838 9.838 9.851 9.871 9.858 9.848 9.868 9.848 9.878 9.861 9.873 9.903 9.876 9.876 9.896 9.871 9.908 9.906 9.883 9.916 9.931 9.906 9.948 9.936 9.936 9.938 9.921 9.938 9.958 9.936 9.913 9.898 9.903 9.891 9.893 9.886 9.891 9.926 9.921 9.961 9.996 10.006 10.053 10.091 10.079 10.099 10.099 10.106 10.131 10.166 10.141 10.154 10.151 10.149 10.149 10.151 10.131 10.106 10.116 10.106 10.064 10.049 10.041 10.039 10.054 10.041 10.034 10.046 10.064 10.046 10.029 10.046 10.006 10.039 10.034 10.026 10.041 10.046 10.074 10.084 10.094 10.096 10.171 10.174 10.169 10.171 10.184 10.394 10.439 10.301 10.314 10.311 10.334 10.346 10.364 10.371 10.396 10.394 10.389 10.436 10.439 10.451 10.459 10.454 10.461 10.466 10.481 10.484 10.481 10.471 10.471 10.474 10.491 10.496 10.621 10.416 10.561 11.304 10.136 10.171 10.156 10.196 10.196 10.241 10.254 10.346 10.369 10.376 10.384 10.356 10.344 10.351 10.344 10.319 10.341 10.359 10.389 10.356 10.344 10.316 10.209 11.201 11.424 10.149 10.224 10.276 10.289 10.351 10.396 10.384 10.426 10.441 10.449 10.454 10.499 10.541 10.606 10.644 10.636 10.654 10.649 10.636 10.626 10.624 10.629 10.589 10.579 10.569 10.534 10.536 10.509 10.491 10.486 10.486 10.491 10.514 10.529 10.554 10.559 10.574 10.606 10.626 10.644 10.639 10.649 10.661 10.651 10.639 10.634 10.621 10.621 10.621 10.619 10.626 10.591 10.569 10.611 10.556 10.604 10.564 10.531 10.999 13.036 10.299 10.671 10.566 10.631 10.671 10.661 10.694 10.68 10.665 10.672 10.678 10.687 10.69 10.697 10.717 10.764 10.792 10.809 10.782 10.791 10.765 10.806 10.836 10.824 10.834 10.821 10.806 10.789 10.781 10.786 10.799 10.819 10.801 10.766 10.729 10.686 10.614 10.581 10.576 10.589 10.544 10.561 10.564 10.604 10.644 10.696 10.744 10.751 10.751 10.711 10.711 10.701 10.686 10.674 10.674 10.686 10.704 10.776 10.789 10.789 10.781 10.799 10.814 10.821 10.814 10.824 10.824 10.869
8.604 8.626 8.666 8.708 8.739 8.774 8.799 8.801 8.793 8.786 8.771 8.739 8.784 8.753 8.776 8.788 8.801 8.801 8.804 8.793 8.873 8.876 8.926 8.951 8.946 8.981 9.058 9.196 9.328 9.466 9.561 9.678 9.786 9.941 10.056 10.173 10.296 10.428 10.531 10.593 10.663 10.716 10.756 10.773 10.781 10.793 10.786 10.691 10.478 10.086 9.748 9.533 9.601 9.531 9.536 9.541 9.526 9.508 9.491 10.688 10.873 9.451 9.453 9.386 9.331 9.198 9.203 9.211 9.216 9.223 9.213 9.216 9.226 9.316 9.236 9.283 9.298 9.278 9.231 9.093 8.726 9.088 9.196 8.938 8.928 8.946 8.916 8.981 9.698 9.941 8.963 9.003 9.413 9.676 9.853 8.858 8.798 9.963 8.998 9.026 9.461 11.086 10.331 11.728 11.058 11.686 11.681 11.361 11.448 11.721 10.818 10.418 10.611 9.926 9.846 9.988 9.278 9.293 9.476 9.418 9.433 9.516 9.403 9.453 9.398 9.411 9.356 9.368 9.381 9.358 9.308 9.318 9.718 9.571 9.603 9.671 9.656 9.683 9.696 9.711 9.708 9.693 9.696 9.688 9.688 9.708 9.691 9.703 9.718 9.673 9.686 9.713 9.706 9.718 9.713 9.703 9.708 9.713 9.723 9.718 9.733 9.731 9.728 9.748 9.748 9.738 9.743 9.731 9.731 9.728 9.693 9.711 9.701 9.706 9.718 9.696 9.753 9.758 9.776 9.793 9.796 9.821 9.853 9.836 9.866 9.861 9.858 9.866 9.863 9.871 9.873 9.871 9.891 9.886 9.891 9.901 9.873 9.888 9.893 9.893 9.923 9.906 9.893 9.901 9.936 9.901 9.953 9.938 9.936 9.946 9.901 9.918 9.936 9.898 9.881 9.903 9.893 9.896 9.906 9.908 9.928 9.951 9.953 9.991 10.023 10.036 10.076 10.104 10.069 10.094 10.096 10.114 10.129 10.149 10.134 10.126 10.149 10.144 10.109 10.121 10.101 10.086 10.081 10.066 10.034 10.059 10.049 10.036 10.059 10.036 10.039 10.044 10.041 10.026 9.999 10.021 10.014 10.031 10.039 10.054 10.069 10.101 10.096 10.096 10.141 10.146 10.171 10.159 10.199 10.394 10.321 10.314 10.306 10.314 10.329 10.346 10.359 10.374 10.396 10.414 10.446 10.451 10.449 10.459 10.459 10.466 10.481 10.471 10.479 10.476 10.479 10.466 10.484 10.486 10.489 10.506 10.506 10.426 10.624 11.461 10.101 10.156 10.156 10.166 10.191 10.231 10.251 10.329 10.376 10.359 10.374 10.359 10.319 10.326 10.339 10.326 10.326 10.334 10.341 10.361 10.324 10.311 10.261 10.299 11.306 10.301 10.144 10.246 10.276 10.301 10.329 10.396 10.389 10.381 10.431 10.476 10.504 10.524 10.551 10.611 10.644 10.666 10.656 10.641 10.644 10.624 10.609 10.594 10.579 10.569 10.531 10.521 10.496 10.476 10.496 10.476 10.491 10.504 10.526 10.539 10.549 10.546 10.581 10.591 10.606 10.616 10.609 10.624 10.614 10.624 10.626 10.609 10.604 10.601 10.564 10.579 10.569 10.574 10.546 10.536 10.579 10.529 10.219 11.189 11.884 13.261 10.599 10.491 10.606 10.641 10.639 10.636 10.64 10.648 10.644 10.651 10.661 10.661 10.682 10.695 10.736 10.751 10.761 10.743 10.743 10.762 10.801 10.789 10.801 10.806 10.774 10.761 10.776 10.754 10.734 10.791 10.779 10.759 10.726 10.661 10.616 10.596 10.579 10.554 10.549 10.561 10.566 10.559 10.594 10.644 10.694 10.714 10.721 10.709 10.684 10.664 10.656 10.659 10.669 10.666 10.674 10.679 10.709 10.714 10.756 10.779 10.796 10.799 10.781 10.806 10.799 10.804 10.834
8.609 8.616 8.649 8.691 8.724 8.751 8.784 8.793 8.804 8.788 8.774 8.764 8.788 8.784 8.734 8.759 8.806 8.793 8.801 8.826 8.873 8.899 8.911 8.941 8.926 8.944 8.993 9.121 9.251 9.381 9.518 9.598 9.733 9.873 9.971 10.096 10.233 10.361 10.481 10.538 10.596 10.621 10.651 10.668 10.681 10.696 10.698 10.616 10.346 9.983 9.658 9.568 9.588 9.521 9.526 9.528 9.518 9.506 9.498 9.496 10.388 9.423 9.463 9.406 9.436 9.301 9.226 9.181 9.186 9.198 9.208 9.223 9.218 9.201 9.263 9.246 9.231 9.303 9.313 9.283 9.201 9.053 9.146 9.403 9.026 8.923 8.926 8.948 8.943 8.971 9.291 9.068 9.018 9.096 9.038 9.081 8.891 8.946 11.398 9.721 9.708 9.106 9.526 10.303 11.368 10.616 11.351 11.503 11.343 11.263 11.583 11.256 11.566 9.963 9.688 9.448 9.643 9.916 9.596 9.843 9.463 9.403 9.461 9.511 9.496 9.653 9.501 9.573 9.546 9.546 9.541 9.548 9.541 9.531 9.613 9.623 9.641 9.666 9.683 9.703 9.713 9.688 9.648 9.646 9.678 9.661 9.683 9.706 9.698 9.693 9.703 9.681 9.718 9.726 9.723 9.733 9.728 9.733 9.713 9.701 9.726 9.698 9.746 9.736 9.751 9.728 9.683 9.736 9.716 9.703 9.706 9.693 9.696 9.703 9.726 9.731 9.743 9.763 9.793 9.801 9.821 9.811 9.841 9.843 9.871 9.866 9.896 9.881 9.896 9.876 9.876 9.911 9.893 9.913 9.908 9.888 9.908 9.918 9.883 9.901 9.893 9.901 9.921 9.916 9.906 9.908 9.931 9.926 9.946 9.918 9.933 9.931 9.908 9.918 9.918 9.868 9.873 9.898 9.896 9.906 9.921 9.918 9.958 9.981 9.983 10.013 10.034 10.044 10.071 10.099 10.046 10.089 10.089 10.089 10.131 10.134 10.111 10.099 10.121 10.096 10.094 10.081 10.074 10.061 10.064 10.054 10.034 10.059 10.051 10.029 10.046 10.019 10.039 10.051 10.036 10.001 10.006 10.011 10.006 10.041 10.054 10.066 10.081 10.099 10.124 10.174 10.189 10.171 10.186 10.169 10.271 11.004 10.304 10.321 10.326 10.349 10.371 10.376 10.389 10.394 10.386 10.461 10.464 10.476 10.464 10.464 10.459 10.461 10.471 10.481 10.469 10.454 10.456 10.466 10.476 10.491 10.554 10.446 10.571 11.239 10.074 10.121 10.161 10.169 10.181 10.224 10.249 10.309 10.361 10.346 10.349 10.331 10.311 10.309 10.326 10.354 10.304 10.299 10.326 10.334 10.329 10.339 10.286 10.186 11.016 11.319 10.154 10.179 10.241 10.261 10.304 10.354 10.396 10.399 10.429 10.439 10.471 10.499 10.536 10.581 10.604 10.629 10.626 10.606 10.616 10.611 10.591 10.571 10.554 10.544 10.524 10.519 10.504 10.479 10.466 10.459 10.476 10.484 10.481 10.499 10.476 10.511 10.524 10.549 10.569 10.556 10.581 10.599 10.601 10.601 10.604 10.591 10.594 10.609 10.586 10.589 10.539 10.559 10.511 10.514 10.524 10.449 10.194 11.484 10.751 11.059 10.441 10.529 10.589 10.601 10.609 10.596 10.601 10.609 10.631 10.629 10.639 10.636 10.669 10.708 10.734 10.734 10.715 10.695 10.728 10.748 10.775 10.776 10.764 10.761 10.739 10.724 10.721 10.729 10.744 10.749 10.736 10.706 10.666 10.636 10.589 10.561 10.544 10.556 10.574 10.554 10.551 10.544 10.606 10.654 10.684 10.686 10.696 10.679 10.649 10.644 10.614 10.634 10.649 10.636 10.654 10.679 10.676 10.701 10.719 10.754 10.751 10.776 10.776 10.769 10.786 10.779 10.784
