ncols 418
nrows 31
xllcorner    249138
yllcorner    136552
cellsize     2
NODATA_value -9999
47.748 47.178 47.111 47.163 47.188 47.311 47.451 47.533 47.541 47.536 53.501 58.131 59.438 59.758 57.981 49.686 49.028 51.841 50.158 50.338 50.553 51.431 51.886 51.156 51.296 51.546 53.341 52.178 52.381 52.411 53.268 54.158 56.223 57.751 58.158 55.346 54.923 54.593 60.876 62.126 61.473 61.841 62.166 62.561 61.411 55.468 60.656 63.481 64.878 64.908 64.766 64.248 63.343 58.568 57.181 57.093 58.638 58.703 64.866 65.211 65.573 65.591 65.251 64.901 62.173 58.696 65.611 66.648 66.806 66.703 66.203 65.826 65.478 62.861 59.008 62.686 63.696 61.623 62.861 63.068 61.276 61.281 62.028 61.521 61.571 62.338 61.638 61.586 61.196 61.251 61.538 62.538 62.961 62.063 62.103 62.158 62.228 62.256 62.353 62.446 62.543 62.646 62.731 62.841 63.016 63.238 63.481 63.701 63.866 63.921 63.986 64.053 64.153 64.276 64.441 64.608 64.803 64.956 65.058 65.136 65.258 65.401 65.506 65.626 65.728 65.818 67.281 69.208 70.041 68.586 68.581 70.438 68.436 68.283 68.281 69.318 66.496 66.563 66.596 66.786 66.968 67.191 67.411 67.611 67.791 67.966 68.141 68.361 68.623 68.883 69.081 69.178 69.258 69.441 69.321 69.371 69.446 69.576 69.653 69.728 69.841 69.948 70.041 70.086 70.121 70.186 70.296 70.356 70.446 70.581 70.711 70.821 70.923 71.066 71.148 71.888 72.621 72.998 72.943 73.053 73.098 73.173 73.211 73.303 73.408 73.521 73.686 73.823 73.973 74.111 74.256 74.396 74.551 74.716 74.878 75.028 75.203 75.308 75.431 75.533 75.648 75.758 75.856 75.928 75.998 76.663 77.463 77.458 77.468 77.463 77.458 77.478 77.508 77.566 77.636 77.726 77.826 77.906 77.988 78.101 78.206 78.298 78.408 78.501 78.618 78.738 78.841 78.941 79.071 79.181 79.306 79.443 79.558 79.688 79.798 79.938 80.051 80.178 80.278 80.383 80.501 80.578 80.673 80.768 80.851 80.943 81.038 81.103 81.173 81.261 81.343 81.431 81.496 81.553 81.631 81.668 81.726 81.793 81.833 81.878 81.931 81.991 82.048 82.136 82.181 82.696 82.743 83.168 83.671 82.728 82.821 82.816 82.813 82.818 82.898 82.961 83.018 83.113 83.171 83.271 83.373 83.446 83.513 83.611 83.688 83.766 83.823 83.881 83.966 84.018 84.073 84.111 84.133 84.183 84.238 84.263 84.318 84.336 84.383 84.418 84.468 84.506 84.543 84.588 84.618 84.658 84.711 84.756 84.803 84.843 84.891 84.978 85.003 85.091 85.128 85.203 85.283 85.378 85.458 85.543 85.586 85.693 85.773 85.831 85.908 85.958 86.043 86.116 86.178 86.221 86.291 86.338 86.393 86.451 86.508 86.588 86.611 86.658 86.693 86.746 86.786 86.808 86.866 86.858 86.883 86.908 86.958 87.008 87.093 87.206 87.081 88.808 87.636 87.533 87.543 87.503 87.478 87.516 87.483 87.443 87.488 87.463 87.426 87.496 87.493 87.456 87.403 87.386 87.376 87.361 87.328 87.291 87.231 87.156 87.148 87.073 86.973 86.903 86.776 86.658 86.491 86.341 86.181 85.991 85.796 85.581 85.373 85.188 84.973 84.708 84.493 84.268 84.063 82.828 83.921 80.653 80.036 79.411 78.731 77.973 77.278 76.553 75.893 75.316 74.681 74.083 73.486 72.976 72.468 72.011 71.543 71.261 70.896 70.586 70.313 70.106 69.888 69.636
47.541 47.066 47.078 47.128 47.878 47.293 47.386 47.468 47.531 47.541 49.678 57.163 58.293 55.216 57.441 53.161 48.893 50.278 49.936 50.091 50.251 50.431 50.588 50.593 50.733 51.608 51.666 52.126 52.263 52.368 52.378 53.246 55.256 55.923 58.138 56.736 53.681 54.418 59.996 62.436 62.888 63.258 63.493 63.181 61.751 55.281 55.296 63.143 63.778 63.731 63.241 62.881 62.558 59.183 56.161 56.896 56.943 58.156 65.208 64.863 64.528 64.203 63.851 63.528 63.206 58.348 59.233 66.621 66.603 65.796 64.816 64.471 63.258 62.033 60.378 61.103 61.238 64.091 62.588 61.276 60.848 60.798 60.773 62.151 61.001 61.008 61.188 61.008 60.933 60.826 61.468 63.368 62.583 61.711 61.748 61.826 61.881 61.926 61.991 62.068 62.166 62.266 62.356 62.456 62.593 62.788 63.028 63.276 63.426 63.533 63.556 63.636 63.723 63.818 63.996 64.156 64.341 64.506 64.633 64.713 64.828 64.956 65.088 65.213 65.318 65.413 67.033 67.918 68.036 68.023 67.971 68.006 67.963 67.906 68.523 68.038 66.018 66.828 66.793 66.618 66.833 67.036 67.236 67.466 68.018 67.863 68.291 68.456 68.618 68.721 68.786 68.818 68.826 68.803 68.901 68.966 69.053 69.183 69.296 69.391 69.511 69.638 69.691 69.738 69.791 69.848 69.946 69.996 70.106 70.218 70.333 70.468 70.603 70.736 70.843 70.926 71.251 72.966 72.673 72.743 72.833 72.876 72.921 73.008 73.086 73.188 73.311 73.451 73.598 73.736 73.858 74.008 74.138 74.316 74.486 74.628 74.778 74.941 75.038 75.131 75.246 75.346 75.448 75.541 75.608 75.641 77.541 76.953 77.036 77.058 77.053 77.051 77.091 77.143 77.203 77.283 77.386 77.453 77.548 77.658 77.751 77.838 77.938 78.046 78.153 78.268 78.391 78.486 78.606 78.733 78.871 78.993 79.126 79.236 79.376 79.496 79.611 79.731 79.843 79.956 80.053 80.133 80.221 80.328 80.416 80.508 80.588 80.671 80.748 80.818 80.906 80.991 81.068 81.133 81.186 81.238 81.303 81.346 81.376 81.413 81.476 81.538 81.593 81.663 81.671 82.781 82.501 82.866 83.071 82.128 82.243 82.258 82.248 82.273 82.333 82.406 82.461 82.556 82.643 82.738 82.828 82.923 82.971 83.076 83.153 83.238 83.306 83.371 83.448 83.501 83.556 83.591 83.613 83.651 83.706 83.738 83.781 83.816 83.851 83.881 83.921 83.968 84.016 84.053 84.073 84.171 84.183 84.231 84.271 84.321 84.376 84.456 84.516 84.561 84.646 84.698 84.778 84.861 84.946 85.023 85.118 85.218 85.301 85.366 85.413 85.508 85.573 85.656 85.706 85.771 85.813 85.863 85.918 85.976 86.021 86.103 86.123 86.191 86.221 86.246 86.298 86.333 86.366 86.388 86.393 86.448 86.491 86.558 86.641 86.751 86.678 88.383 87.148 87.071 87.046 87.023 86.978 87.046 86.993 86.938 86.998 86.963 86.966 87.023 87.048 87.011 86.978 86.946 86.936 86.871 86.868 86.806 86.748 86.681 86.671 86.586 86.508 86.446 86.308 86.206 86.036 85.896 85.711 85.551 85.378 85.158 84.936 84.736 84.493 84.261 84.011 83.776 83.536 82.533 81.463 80.213 79.713 79.061 78.363 77.686 77.011 76.278 75.596 74.923 74.358 73.771 73.216 72.633 72.141 71.718 71.276 70.866 70.603 70.258 69.968 69.706 69.528 69.328
46.646 47.933 46.798 47.033 47.153 47.361 47.361 48.706 47.498 47.566 47.528 51.616 57.218 56.648 56.176 49.666 48.686 48.693 50.171 49.881 50.088 50.231 50.148 50.031 50.491 52.473 51.266 51.506 51.988 52.261 52.323 52.341 53.061 53.096 56.028 53.283 53.313 54.293 58.766 62.051 63.521 63.531 63.193 62.841 62.141 56.736 55.686 62.713 62.403 62.121 59.886 59.608 59.423 56.861 56.408 56.753 56.718 58.388 63.838 63.503 63.176 58.751 60.998 60.871 60.741 57.891 58.573 64.446 64.116 62.806 59.321 60.681 61.123 58.888 58.928 59.911 60.831 61.221 61.343 61.276 60.491 60.346 60.753 62.211 60.708 60.538 60.446 60.448 60.443 60.561 62.096 61.726 62.511 61.358 61.361 61.486 61.553 61.566 61.633 61.706 61.786 61.886 61.976 62.073 62.193 62.391 62.601 62.838 63.003 63.123 63.191 63.248 63.328 63.418 63.556 63.718 63.898 64.081 64.221 64.328 64.443 64.583 64.681 64.828 64.946 65.088 65.708 66.853 67.088 67.271 67.223 67.176 67.081 67.638 66.671 65.586 65.818 66.046 66.233 66.426 66.711 67.843 68.411 68.761 70.391 65.978 67.851 66.088 68.331 68.373 68.711 68.606 68.536 68.421 68.566 68.701 68.763 68.846 68.933 69.053 69.186 69.298 69.333 69.406 69.461 69.511 69.581 69.636 69.748 69.843 69.966 70.111 70.258 70.386 70.518 70.646 70.718 73.678 72.596 72.473 72.543 72.601 72.646 72.693 72.768 72.863 72.963 73.091 73.193 73.348 73.476 73.606 73.743 73.908 74.083 74.216 74.366 74.496 74.616 74.731 74.818 74.926 75.031 75.131 75.233 75.271 77.258 76.483 76.613 76.648 76.651 76.626 76.651 76.691 76.756 76.841 76.941 77.011 77.096 77.198 77.286 77.381 77.483 77.598 77.698 77.816 77.918 78.051 78.168 78.281 78.413 78.541 78.668 78.803 78.918 79.038 79.166 79.276 79.386 79.508 79.623 79.706 79.796 79.901 79.986 80.071 80.156 80.233 80.316 80.396 80.466 80.553 80.628 80.683 80.753 80.781 80.853 80.888 80.923 80.961 81.026 81.078 81.113 81.178 81.138 82.706 81.381 82.766 82.291 81.638 81.676 81.666 81.668 81.711 81.786 81.843 81.926 81.996 82.091 82.213 82.306 82.393 82.446 82.536 82.641 82.723 82.801 82.863 82.936 83.003 83.036 83.078 83.128 83.158 83.196 83.216 83.258 83.286 83.318 83.341 83.381 83.418 83.448 83.493 83.531 83.593 83.633 83.681 83.736 83.786 83.841 83.913 83.973 84.048 84.121 84.201 84.266 84.356 84.438 84.508 84.601 84.723 84.833 84.891 84.956 85.031 85.106 85.181 85.233 85.281 85.356 85.413 85.453 85.503 85.561 85.603 85.646 85.708 85.741 85.751 85.818 85.873 85.896 85.921 85.936 85.991 86.021 86.088 86.181 86.286 86.196 87.866 86.683 86.571 86.586 86.531 86.493 86.566 86.511 86.493 86.503 86.458 86.466 86.536 86.613 86.546 86.506 86.501 86.461 86.421 86.381 86.343 86.296 86.198 86.218 86.138 86.056 85.986 85.861 85.746 85.591 85.433 85.281 85.128 84.931 84.703 84.503 84.268 84.006 83.768 83.536 83.298 83.096 82.488 80.301 79.816 79.318 78.711 78.031 77.361 76.691 76.016 75.318 74.606 73.998 73.411 72.886 72.391 71.906 71.401 71.038 70.588 70.258 69.938 69.626 69.351 69.136 68.948
42.911 43.173 45.963 47.946 48.271 47.221 47.343 49.033 47.446 47.476 47.483 47.521 48.971 47.706 51.128 48.461 48.896 48.508 51.876 49.708 49.881 49.998 49.456 49.433 50.886 50.853 51.066 51.308 51.643 51.931 52.291 52.281 52.863 53.128 54.063 55.213 52.803 54.613 54.206 61.621 62.528 62.193 61.801 61.431 61.108 58.651 56.823 55.996 56.821 59.273 57.748 56.373 59.253 57.713 56.501 56.243 56.583 57.346 57.726 57.716 57.693 57.821 59.553 58.301 58.048 57.628 58.448 58.496 59.543 62.128 58.768 58.541 58.546 58.523 58.738 58.916 59.873 59.858 60.813 60.966 60.368 60.063 60.006 62.381 60.128 60.146 60.181 60.188 60.226 60.221 60.258 61.041 61.973 61.033 61.088 61.133 61.243 61.288 61.278 61.358 61.451 61.546 61.613 61.718 61.828 61.988 62.191 62.418 62.601 62.726 62.806 62.868 62.951 63.051 63.171 63.326 63.496 63.676 63.846 63.961 64.086 64.271 64.411 64.563 64.691 64.833 65.006 66.003 66.091 66.031 65.491 65.678 64.926 65.018 65.256 65.478 65.701 65.981 67.826 68.933 68.311 67.038 67.838 72.626 71.816 70.741 71.263 72.328 65.561 69.208 70.676 68.298 68.391 68.258 68.148 69.946 70.583 68.566 68.618 68.721 68.853 68.943 68.996 69.053 69.116 69.208 69.278 69.298 69.388 69.523 69.681 69.811 69.938 70.091 70.206 70.336 70.416 70.473 70.841 72.536 72.241 72.326 72.373 72.411 72.466 72.543 72.631 72.723 72.861 72.948 73.081 73.211 73.373 73.498 73.651 73.786 73.926 74.051 74.198 74.306 74.408 74.528 74.608 74.698 74.798 74.866 75.121 76.283 76.166 76.218 76.216 76.203 76.231 76.271 76.328 76.403 76.488 76.571 76.658 76.736 76.836 76.936 77.046 77.146 77.256 77.356 77.483 77.606 77.721 77.838 77.971 78.101 78.238 78.353 78.481 78.606 78.728 78.841 78.951 79.068 79.171 79.268 79.368 79.466 79.543 79.633 79.721 79.793 79.853 79.936 80.021 80.103 80.196 80.241 80.301 80.343 80.403 80.436 80.471 80.516 80.561 80.603 80.646 80.698 80.653 82.063 81.191 81.988 81.331 81.101 81.106 81.096 81.106 81.148 81.223 81.291 81.358 81.443 81.516 81.646 81.726 81.808 81.911 82.021 82.116 82.211 82.266 82.351 82.426 82.481 82.526 82.573 82.626 82.648 82.693 82.711 82.736 82.751 82.788 82.808 82.841 82.863 82.901 82.933 82.991 83.036 83.086 83.133 83.203 83.248 83.316 83.401 83.433 83.531 83.598 83.668 83.743 83.826 83.916 84.013 84.093 84.216 84.328 84.401 84.473 84.543 84.613 84.691 84.736 84.813 84.873 84.936 84.981 85.036 85.088 85.146 85.176 85.231 85.256 85.288 85.353 85.413 85.423 85.441 85.458 85.526 85.541 85.628 85.716 85.818 85.718 87.448 86.148 86.046 86.088 86.026 85.996 86.078 86.018 85.998 86.033 85.973 85.968 86.076 86.108 86.096 86.038 86.043 85.991 85.956 85.893 85.863 85.801 85.721 85.738 85.681 85.588 85.531 85.368 85.268 85.133 84.968 84.846 84.681 84.493 84.263 84.016 83.783 83.523 83.308 83.091 82.923 82.501 82.741 82.441 79.443 78.933 78.326 77.658 76.991 76.363 75.713 75.033 74.343 73.696 73.073 72.523 72.056 71.548 71.113 70.731 70.316 69.936 69.596 69.233 68.988 68.766 68.556
42.808 43.083 43.348 43.593 44.128 47.913 48.131 50.568 47.473 47.438 47.498 47.481 47.511 47.953 49.621 48.593 49.041 48.318 52.021 51.571 50.046 49.763 48.843 48.866 50.216 50.601 50.883 51.056 51.236 51.458 51.853 52.238 52.256 52.301 53.271 55.283 54.618 54.753 53.736 61.231 61.133 60.403 59.111 56.321 55.301 59.726 56.418 55.231 56.513 56.646 56.248 56.078 56.326 57.041 56.333 55.688 56.458 56.391 57.761 57.526 57.433 57.396 58.693 57.943 57.486 57.453 59.436 58.228 58.221 58.008 57.928 58.588 58.346 58.308 58.728 59.038 60.358 59.661 60.221 60.093 59.773 59.736 59.776 59.796 61.613 59.796 59.846 59.878 59.943 59.976 60.061 60.821 61.321 60.793 60.763 60.831 60.948 61.006 61.013 61.031 61.148 61.248 61.326 61.393 61.483 61.636 61.828 62.018 62.218 62.343 62.456 62.533 62.623 62.701 62.818 62.963 63.126 63.326 63.533 63.673 63.856 64.031 64.183 64.296 64.463 65.108 65.338 64.808 64.328 64.036 64.256 64.488 64.711 64.938 65.231 66.303 67.833 67.686 66.558 66.143 66.233 65.906 70.316 71.321 72.346 72.123 72.063 72.313 71.436 65.826 68.128 68.121 68.131 68.106 67.953 76.348 75.683 68.188 68.248 68.326 68.471 68.571 68.648 68.726 68.803 68.868 68.953 69.021 69.078 69.206 69.336 69.496 69.643 69.761 69.883 69.981 70.101 70.171 70.221 71.418 72.123 72.053 72.106 72.148 72.181 72.238 72.296 72.376 72.468 72.593 72.701 72.841 72.946 73.103 73.251 73.361 73.498 73.621 73.758 73.886 73.986 74.103 74.213 74.298 74.381 74.463 74.428 76.333 75.681 75.773 75.776 75.788 75.806 75.836 75.888 75.958 76.041 76.108 76.193 76.293 76.403 76.483 76.586 76.681 76.788 76.916 77.033 77.158 77.283 77.408 77.543 77.676 77.811 77.921 78.051 78.168 78.291 78.411 78.521 78.636 78.758 78.831 78.928 79.011 79.111 79.193 79.288 79.373 79.431 79.506 79.596 79.626 79.788 79.831 79.876 79.911 79.951 79.981 79.998 80.053 80.096 80.121 80.176 80.193 80.351 81.353 80.766 81.366 80.451 80.546 80.531 80.516 80.543 80.588 80.641 80.718 80.781 80.863 80.996 81.091 81.181 81.273 81.378 81.481 81.583 81.653 81.746 81.831 81.901 81.968 81.998 82.051 82.101 82.136 82.171 82.186 82.213 82.233 82.241 82.273 82.308 82.323 82.348 82.396 82.456 82.491 82.531 82.613 82.643 82.703 82.761 82.838 82.893 82.991 83.038 83.126 83.191 83.293 83.393 83.488 83.586 83.691 83.821 83.883 83.966 84.043 84.121 84.208 84.263 84.323 84.376 84.441 84.513 84.541 84.593 84.653 84.711 84.746 84.791 84.828 84.886 84.908 84.941 84.971 84.991 85.051 85.081 85.161 85.256 85.366 85.281 86.748 85.636 85.548 85.598 85.528 85.556 85.618 85.541 85.523 85.576 85.496 85.493 85.603 85.636 85.603 85.573 85.568 85.503 85.426 85.413 85.388 85.303 85.276 85.218 85.178 85.086 84.996 84.896 84.758 84.621 84.483 84.388 84.183 84.011 83.771 83.536 83.293 83.063 82.826 82.616 82.381 81.753 81.618 79.388 79.038 78.533 77.903 77.253 76.601 76.001 75.371 74.693 74.056 73.393 72.763 72.168 71.661 71.248 70.786 70.341 69.991 69.613 69.236 68.963 68.601 68.411 68.216
42.953 43.073 43.268 43.538 43.801 44.066 44.311 45.486 47.906 47.643 47.826 47.816 47.653 47.913 48.588 48.618 49.283 48.083 48.501 50.148 49.676 49.491 48.351 48.391 49.728 50.521 50.676 50.821 51.076 51.241 51.448 51.848 52.201 52.213 52.268 52.376 53.123 54.773 54.231 53.718 54.943 54.936 55.381 55.108 55.038 55.008 54.526 54.723 56.491 55.436 55.163 55.161 56.131 55.836 55.401 55.528 56.261 56.323 58.031 57.276 57.251 57.238 57.323 57.976 58.203 57.278 58.631 58.198 58.213 57.911 57.841 59.113 58.201 58.108 58.343 58.566 59.013 59.658 59.633 59.593 59.521 59.428 59.508 59.588 59.713 61.023 59.588 59.666 59.723 59.758 59.786 63.243 61.516 60.883 60.526 60.628 60.651 60.701 60.701 60.748 60.838 60.928 61.018 61.101 61.176 61.256 61.438 61.663 61.841 62.001 62.128 62.221 62.296 62.383 62.493 62.646 62.828 63.033 63.251 63.441 63.533 63.731 64.121 65.421 65.806 63.891 63.283 63.483 63.728 63.973 64.168 64.493 66.236 66.913 66.778 65.818 65.551 65.803 65.253 65.221 65.336 65.453 65.563 66.276 68.538 72.016 72.633 71.528 71.153 65.566 65.543 67.856 67.823 67.853 67.816 69.211 67.658 72.908 67.883 67.993 68.076 68.156 68.248 68.343 68.438 68.498 68.601 68.706 68.796 68.896 69.053 69.176 69.311 69.433 69.571 69.636 69.723 69.846 69.918 69.986 71.141 72.011 71.838 71.891 71.928 71.951 71.988 72.071 72.136 72.226 72.336 72.438 72.576 72.678 72.836 72.961 73.076 73.198 73.336 73.456 73.573 73.666 73.781 73.883 73.966 74.023 74.086 75.998 75.191 75.333 75.356 75.368 75.373 75.403 75.453 75.531 75.603 75.676 75.758 75.848 75.958 76.036 76.123 76.251 76.366 76.486 76.596 76.706 76.833 76.973 77.108 77.233 77.348 77.478 77.606 77.738 77.861 77.973 78.086 78.196 78.301 78.398 78.493 78.576 78.661 78.761 78.848 78.931 79.003 79.076 79.043 79.256 79.398 79.418 79.453 79.488 79.521 79.533 79.546 79.596 79.638 79.683 79.733 79.731 80.086 80.221 79.853 80.946 79.903 80.011 79.976 79.963 79.981 80.013 80.061 80.131 80.201 80.283 80.403 80.518 80.633 80.723 80.828 80.943 81.031 81.133 81.218 81.298 81.373 81.441 81.526 81.543 81.588 81.613 81.643 81.671 81.686 81.711 81.728 81.741 81.778 81.788 81.838 81.876 81.928 81.948 82.006 82.076 82.113 82.176 82.228 82.301 82.371 82.443 82.503 82.601 82.658 82.748 82.851 82.938 83.058 83.176 83.301 83.371 83.448 83.533 83.606 83.711 83.758 83.813 83.886 83.943 84.026 84.043 84.108 84.158 84.206 84.256 84.308 84.333 84.393 84.441 84.471 84.506 84.526 84.596 84.603 84.671 84.778 84.853 84.803 86.553 85.078 85.063 85.088 84.998 85.051 85.121 85.048 85.083 85.046 84.998 85.001 85.091 85.126 85.121 85.093 85.031 85.036 84.971 84.961 84.886 84.828 84.783 84.746 84.656 84.603 84.468 84.383 84.281 84.141 84.026 83.873 83.668 83.481 83.278 83.061 82.818 82.576 82.346 82.108 82.058 81.066 79.571 79.031 78.641 78.106 77.521 76.906 76.246 75.613 74.991 74.343 73.711 73.086 72.463 71.851 71.318 70.831 70.416 70.018 69.618 69.268 68.916 68.578 68.328 68.048 67.841
43.103 44.791 45.461 45.786 45.651 44.388 44.243 44.503 44.766 46.916 49.426 47.706 48.728 47.983 49.763 48.606 49.253 47.703 47.778 50.673 49.518 49.301 47.953 47.996 49.201 50.201 50.406 50.593 50.818 51.098 51.273 51.463 51.706 52.016 52.171 53.163 53.476 54.431 54.263 53.501 54.863 54.878 54.898 55.988 54.671 54.161 54.208 54.626 54.691 54.771 54.863 54.951 54.953 55.323 55.451 55.536 55.583 56.173 56.036 57.366 57.036 57.063 57.073 57.511 57.048 57.121 57.413 57.371 57.466 57.508 57.588 57.681 58.071 57.961 57.988 58.158 58.251 59.163 59.461 59.393 59.361 59.271 59.328 59.403 59.493 60.431 59.441 59.506 59.518 59.526 59.526 62.158 60.998 62.263 60.316 60.336 60.426 60.481 60.453 60.486 60.601 60.658 60.738 60.821 60.921 61.006 61.123 61.266 61.476 61.678 61.801 61.913 62.018 62.118 62.253 62.388 62.531 62.721 62.946 63.801 64.793 64.746 64.396 62.668 62.723 62.956 63.181 63.416 63.626 63.876 64.746 66.023 65.546 65.226 65.266 64.916 64.786 64.883 64.981 65.126 65.241 65.351 65.583 65.553 66.288 70.938 72.493 71.841 71.878 70.636 66.068 66.648 67.591 67.576 67.566 67.516 71.161 76.678 71.706 67.573 67.666 67.756 67.843 67.933 68.036 68.158 68.283 68.376 68.473 68.558 68.703 68.858 68.961 69.053 69.208 69.331 69.406 69.528 69.618 69.693 69.778 72.053 71.808 71.623 71.666 71.678 71.698 71.751 71.826 71.901 71.988 72.083 72.186 72.286 72.433 72.588 72.696 72.798 72.916 73.026 73.148 73.238 73.378 73.461 73.531 73.611 73.656 74.631 74.931 74.911 74.913 74.951 74.951 74.986 75.028 75.086 75.168 75.246 75.328 75.418 75.506 75.591 75.706 75.808 75.908 76.033 76.153 76.263 76.401 76.523 76.648 76.776 76.896 77.028 77.153 77.271 77.406 77.533 77.653 77.758 77.863 77.958 78.056 78.148 78.228 78.333 78.418 78.506 78.583 78.668 78.793 78.866 78.926 78.981 79.013 79.051 79.086 79.106 79.123 79.156 79.196 79.241 79.263 79.291 80.088 79.951 80.053 80.098 79.451 79.468 79.418 79.388 79.416 79.448 79.496 79.548 79.636 79.731 79.843 79.956 80.056 80.156 80.278 80.396 80.488 80.566 80.656 80.756 80.836 80.903 80.976 81.018 81.063 81.088 81.121 81.138 81.166 81.171 81.208 81.206 81.248 81.256 81.288 81.346 81.418 81.441 81.496 81.561 81.586 81.641 81.721 81.768 81.833 81.906 81.981 82.066 82.153 82.228 82.331 82.441 82.538 82.653 82.748 82.856 82.936 83.016 83.066 83.181 83.221 83.281 83.361 83.426 83.491 83.548 83.606 83.638 83.691 83.766 83.801 83.828 83.913 83.938 83.981 84.011 84.038 84.076 84.128 84.186 84.296 84.378 84.866 85.786 84.583 84.551 84.583 84.508 84.548 84.573 84.543 84.541 84.538 84.508 84.503 84.586 84.643 84.581 84.563 84.521 84.498 84.451 84.443 84.388 84.318 84.263 84.221 84.161 84.091 83.963 83.878 83.771 83.641 83.523 83.361 83.166 83.006 82.796 82.596 82.346 82.091 81.831 81.631 81.641 81.101 79.766 78.636 78.178 77.651 77.076 76.486 75.868 75.201 74.536 73.983 73.358 72.748 72.108 71.526 70.948 70.456 70.011 69.658 69.223 68.888 68.556 68.236 67.928 67.693 67.476
43.276 43.191 46.166 45.696 43.046 44.321 45.611 46.088 44.831 44.896 45.188 45.441 48.701 48.588 48.263 48.386 48.611 47.366 47.428 51.531 49.523 49.256 47.846 47.668 48.738 49.791 50.188 50.368 50.576 50.861 51.103 51.266 51.433 51.641 51.848 52.111 52.558 52.423 54.291 53.316 54.101 54.033 53.796 55.031 53.836 53.888 53.956 55.043 54.501 54.601 54.643 54.641 54.771 55.453 55.391 55.363 56.496 56.078 55.958 56.888 56.778 56.868 56.903 57.598 57.013 56.886 57.111 57.966 57.248 57.336 57.361 57.506 59.088 57.848 57.853 57.956 58.026 58.683 59.563 59.936 59.233 59.143 59.123 59.356 60.021 59.541 59.213 59.271 59.278 59.293 59.281 59.386 60.908 61.766 60.113 60.131 60.203 60.253 60.308 60.343 60.406 60.458 60.526 60.583 60.736 60.873 60.976 61.026 61.168 61.281 61.561 61.711 61.788 61.876 61.961 62.101 62.433 64.101 64.891 63.276 62.173 62.056 62.258 62.463 62.666 62.878 63.111 64.148 63.743 63.898 63.993 64.481 64.646 64.296 64.451 64.568 64.706 64.833 64.921 65.038 65.141 65.276 65.293 66.053 71.588 72.088 72.111 71.591 72.753 72.011 70.768 65.661 67.251 67.346 67.301 71.561 73.953 72.893 68.343 73.938 67.283 67.361 67.463 67.526 67.618 67.723 67.871 68.001 68.098 68.201 68.318 68.448 68.576 68.691 68.801 68.926 69.053 69.181 69.303 69.423 69.473 69.541 71.923 71.618 71.378 71.413 71.453 71.491 71.543 71.591 71.663 71.733 71.808 71.923 72.036 72.168 72.321 72.413 72.491 72.601 72.713 72.806 72.913 73.036 73.113 73.193 73.248 73.238 74.926 74.446 74.446 74.493 74.523 74.551 74.593 74.658 74.736 74.808 74.888 74.971 75.053 75.161 75.261 75.363 75.453 75.568 75.696 75.813 75.928 76.053 76.181 76.303 76.436 76.563 76.696 76.816 76.953 77.063 77.203 77.306 77.423 77.513 77.608 77.708 77.798 77.903 77.991 78.073 78.158 78.258 78.358 78.423 78.493 78.551 78.581 78.618 78.656 78.693 78.703 78.723 78.758 78.781 78.813 78.763 79.703 79.623 79.443 79.201 78.913 78.943 78.876 78.858 78.856 78.881 78.953 79.006 79.086 79.166 79.286 79.393 79.518 79.598 79.713 79.821 79.933 80.023 80.128 80.218 80.313 80.368 80.426 80.483 80.531 80.563 80.586 80.623 80.636 80.643 80.686 80.683 80.703 80.736 80.796 80.838 80.883 80.928 80.978 81.026 81.083 81.113 81.193 81.263 81.313 81.388 81.461 81.556 81.628 81.711 81.811 81.911 82.013 82.126 82.218 82.308 82.393 82.463 82.563 82.648 82.718 82.766 82.821 82.891 82.938 83.006 83.076 83.138 83.166 83.206 83.276 83.321 83.388 83.411 83.478 83.516 83.518 83.568 83.631 83.711 83.793 83.866 84.516 85.818 84.068 84.041 84.091 83.981 84.041 84.071 84.023 84.066 84.043 84.006 84.003 84.076 84.088 84.086 84.048 83.996 83.996 83.941 83.911 83.853 83.806 83.698 83.706 83.643 83.553 83.513 83.336 83.248 83.123 83.006 82.853 82.703 82.516 82.303 82.093 81.846 81.586 81.378 81.158 81.068 82.538 78.633 78.216 77.691 77.206 76.636 76.053 75.403 74.791 74.163 73.538 72.911 72.353 71.748 71.151 70.603 70.098 69.633 69.243 68.881 68.506 68.171 67.908 67.621 67.323 67.051
43.601 43.131 45.778 46.351 46.508 45.508 43.943 45.851 46.833 48.178 46.863 45.341 45.601 45.856 46.078 48.241 47.663 46.901 47.096 49.783 49.573 48.813 47.273 47.393 48.566 49.348 50.076 50.163 50.448 50.706 50.916 51.081 51.291 51.488 51.733 51.923 51.848 51.891 51.936 53.346 53.293 53.936 53.568 53.656 53.496 53.633 53.701 55.353 54.316 54.393 54.436 54.353 54.366 55.116 55.178 54.838 55.281 55.511 55.783 55.636 56.733 56.601 56.796 56.781 56.926 56.746 57.218 58.253 57.073 57.193 57.421 57.363 57.451 57.783 57.691 57.786 57.873 58.396 60.563 59.141 59.378 58.926 58.941 59.266 60.063 59.603 59.866 60.473 59.008 58.961 58.973 60.701 61.466 61.868 59.913 59.963 60.051 60.106 60.123 60.183 60.243 60.308 60.358 60.481 60.578 60.683 60.818 60.888 60.948 60.908 61.123 61.463 61.593 61.991 63.571 62.746 62.633 61.503 61.468 61.633 61.806 61.978 62.186 62.388 62.771 64.596 64.711 64.333 64.081 63.921 63.956 64.033 64.128 64.218 64.386 64.531 64.648 64.751 64.846 64.961 65.048 65.151 65.248 71.076 71.681 71.853 72.398 72.426 72.286 72.198 70.026 65.713 65.851 67.013 67.028 67.911 73.136 66.933 72.801 74.971 66.816 66.933 67.048 67.141 67.238 67.343 67.458 67.631 67.738 67.843 67.933 68.048 68.166 68.308 68.426 68.561 68.696 68.836 68.953 69.063 69.143 69.258 69.303 71.721 71.176 71.148 71.201 71.253 71.281 71.308 71.351 71.413 71.478 71.541 71.666 71.766 71.901 72.023 72.096 72.186 72.283 72.381 72.473 72.596 72.711 72.808 72.861 72.843 74.523 73.878 73.998 74.028 74.073 74.106 74.148 74.231 74.298 74.348 74.438 74.538 74.616 74.703 74.801 74.893 74.996 75.103 75.216 75.343 75.458 75.578 75.693 75.841 75.956 76.078 76.226 76.336 76.463 76.593 76.726 76.841 76.943 77.056 77.163 77.256 77.348 77.458 77.541 77.628 77.733 77.826 77.911 77.981 78.046 78.116 78.153 78.181 78.221 78.258 78.266 78.306 78.318 78.336 78.361 78.273 79.256 78.313 79.488 78.573 78.451 78.423 78.373 78.331 78.313 78.361 78.393 78.458 78.516 78.608 78.711 78.831 78.928 79.056 79.171 79.281 79.393 79.471 79.571 79.673 79.761 79.856 79.896 79.971 80.013 80.043 80.061 80.091 80.101 80.123 80.156 80.166 80.196 80.221 80.248 80.316 80.356 80.423 80.443 80.508 80.546 80.598 80.681 80.748 80.801 80.881 80.963 81.026 81.106 81.193 81.301 81.403 81.488 81.611 81.703 81.793 81.856 81.938 82.026 82.128 82.178 82.233 82.298 82.336 82.416 82.441 82.511 82.563 82.633 82.678 82.728 82.778 82.843 82.878 82.931 82.986 83.003 83.051 83.106 83.178 83.283 83.311 83.841 84.673 83.553 83.516 83.553 83.451 83.536 83.561 83.513 83.581 83.538 83.488 83.468 83.601 83.616 83.558 83.521 83.508 83.468 83.411 83.376 83.346 83.288 83.206 83.181 83.118 82.998 82.956 82.876 82.761 82.638 82.531 82.361 82.198 82.023 81.803 81.618 81.368 81.088 80.881 80.638 80.401 81.116 78.501 77.761 77.281 76.723 76.191 75.586 74.991 74.353 73.721 73.121 72.538 71.906 71.338 70.758 70.216 69.698 69.221 68.783 68.426 68.128 67.808 67.506 67.228 66.931 66.648
43.101 43.051 51.311 50.118 47.228 47.886 47.003 46.408 47.278 46.848 48.576 45.346 47.153 45.776 45.996 46.208 46.431 46.623 46.851 46.966 49.168 47.698 47.163 47.258 47.516 48.816 49.768 50.058 50.301 50.546 50.771 50.953 51.081 51.326 51.541 51.786 51.696 51.688 51.728 53.443 53.126 53.083 53.138 53.093 53.108 53.281 54.001 54.151 54.078 53.883 53.946 54.431 54.068 54.468 54.606 54.723 54.846 55.026 55.616 55.526 55.396 55.776 58.598 56.726 57.358 56.771 56.628 57.883 56.943 57.011 57.096 57.198 57.583 57.701 57.751 57.531 57.808 57.808 58.578 59.171 59.633 58.853 58.756 58.753 59.936 59.961 59.961 59.958 58.703 58.638 59.188 59.628 59.663 60.946 59.746 59.771 59.851 59.956 59.998 60.061 60.118 60.173 60.231 60.323 60.423 60.518 60.628 60.708 60.598 60.511 62.398 64.971 63.678 63.643 60.961 60.933 61.091 61.233 61.383 61.528 61.706 61.946 63.423 63.706 63.116 64.893 64.028 64.138 64.038 63.891 63.831 63.911 64.126 64.183 64.323 64.471 64.593 64.688 64.778 64.873 64.943 65.038 65.636 71.231 71.423 70.968 71.448 72.571 71.621 70.573 65.606 65.703 65.708 66.631 66.733 66.701 66.686 72.143 72.313 66.506 69.748 75.206 66.641 66.751 66.871 66.973 67.066 67.186 67.348 67.438 67.551 67.673 67.801 67.943 68.078 68.238 68.358 68.448 68.583 68.711 68.771 68.893 69.003 69.061 71.126 71.028 70.933 70.996 71.041 71.068 71.083 71.121 71.186 71.231 71.293 71.396 71.478 71.591 71.711 71.788 71.871 71.956 72.048 72.148 72.288 72.388 72.478 72.471 74.321 73.368 73.521 73.578 73.623 73.648 73.696 73.766 73.836 73.926 74.001 74.078 74.153 74.238 74.343 74.421 74.518 74.611 74.721 74.841 74.963 75.073 75.193 75.316 75.433 75.568 75.698 75.818 75.958 76.076 76.211 76.333 76.463 76.573 76.698 76.796 76.888 76.996 77.081 77.181 77.276 77.368 77.451 77.531 77.611 77.663 77.708 77.741 77.786 77.818 77.836 77.858 77.876 77.876 77.896 77.841 78.808 78.196 79.121 77.866 77.951 77.936 77.858 77.816 77.803 77.828 77.871 77.926 77.988 78.083 78.176 78.283 78.391 78.513 78.628 78.736 78.843 78.936 79.043 79.141 79.233 79.301 79.351 79.418 79.453 79.503 79.521 79.528 79.566 79.586 79.613 79.646 79.688 79.713 79.738 79.808 79.846 79.888 79.943 79.996 80.036 80.096 80.166 80.223 80.291 80.373 80.456 80.523 80.606 80.676 80.793 80.878 80.988 81.108 81.178 81.273 81.336 81.421 81.501 81.568 81.638 81.693 81.758 81.808 81.868 81.926 81.981 82.033 82.093 82.138 82.191 82.251 82.296 82.333 82.388 82.436 82.448 82.516 82.568 82.648 82.771 82.828 84.071 83.231 83.028 82.998 83.031 82.951 83.053 83.051 83.006 83.046 83.033 82.966 82.996 83.096 83.108 83.036 83.018 82.998 82.926 82.886 82.843 82.816 82.761 82.691 82.648 82.581 82.518 82.438 82.351 82.231 82.113 81.968 81.806 81.693 81.541 81.306 81.108 80.866 80.568 80.373 80.161 79.928 81.268 77.791 77.366 76.818 76.243 75.636 75.056 74.521 73.893 73.268 72.666 72.033 71.436 70.851 70.356 69.791 69.321 68.848 68.418 67.986 67.673 67.393 67.126 66.826 66.576 66.323
42.831 50.231 51.556 51.881 50.643 48.896 46.003 45.733 46.038 45.476 44.211 45.203 45.536 46.493 46.101 46.148 46.318 46.526 46.726 46.853 46.943 47.011 47.108 47.193 47.298 48.528 49.273 49.923 50.148 50.416 50.638 50.838 50.961 51.103 51.258 52.746 51.701 51.461 51.428 53.791 52.781 52.606 52.676 52.688 52.798 52.716 53.378 53.508 54.526 53.933 53.906 54.056 53.906 54.288 54.508 54.631 54.741 54.896 55.723 55.338 55.166 55.188 55.621 56.791 57.491 57.226 56.091 56.763 57.081 56.876 56.986 57.396 57.563 58.691 58.548 57.133 57.938 57.738 58.236 59.193 59.718 58.578 58.478 58.208 59.918 59.941 59.956 59.958 58.363 58.488 59.183 61.398 60.843 60.773 60.046 59.666 59.728 59.783 59.918 59.963 60.028 60.063 60.163 60.293 60.546 61.636 60.893 62.166 61.943 60.188 60.886 60.378 60.491 60.626 60.758 60.893 61.018 61.136 61.391 62.303 61.718 61.821 62.623 62.446 65.356 66.021 65.218 63.206 63.871 63.866 63.663 63.636 65.758 64.173 64.621 66.871 65.803 66.121 64.868 64.716 64.753 65.153 65.841 65.841 69.508 69.198 69.931 71.461 72.243 69.156 68.476 65.651 65.626 65.371 66.381 66.418 66.431 66.453 66.463 66.506 72.993 74.068 70.923 73.171 66.456 66.563 66.678 66.776 66.903 67.063 67.156 67.278 67.418 67.583 67.726 67.853 67.986 68.083 68.193 68.341 68.441 68.553 68.613 68.708 68.796 70.451 70.998 70.753 70.766 70.816 70.826 70.843 70.868 70.918 70.958 71.053 71.108 71.208 71.313 71.398 71.461 71.546 71.626 71.733 71.861 71.991 72.076 72.126 73.716 72.981 73.063 73.133 73.168 73.176 73.233 73.301 73.386 73.468 73.548 73.616 73.683 73.768 73.856 73.938 74.033 74.116 74.218 74.326 74.431 74.553 74.656 74.783 74.921 75.048 75.161 75.303 75.428 75.553 75.691 75.823 75.948 76.066 76.206 76.303 76.411 76.511 76.613 76.713 76.801 76.881 76.968 77.058 77.138 77.196 77.251 77.283 77.328 77.358 77.378 77.401 77.411 77.438 77.421 77.536 78.281 77.191 78.641 77.443 77.506 77.453 77.383 77.323 77.323 77.326 77.363 77.413 77.478 77.561 77.641 77.746 77.843 77.988 78.086 78.208 78.311 78.423 78.518 78.601 78.698 78.773 78.831 78.868 78.921 78.948 78.996 79.011 79.041 79.076 79.108 79.136 79.168 79.201 79.236 79.283 79.313 79.363 79.431 79.478 79.516 79.588 79.658 79.746 79.791 79.853 79.948 80.031 80.106 80.188 80.288 80.371 80.463 80.591 80.676 80.746 80.816 80.881 80.971 81.056 81.113 81.196 81.241 81.293 81.343 81.396 81.431 81.521 81.556 81.613 81.681 81.708 81.766 81.798 81.833 81.873 81.936 81.981 82.038 82.133 82.241 82.258 83.553 82.671 82.476 82.493 82.503 82.428 82.563 82.533 82.498 82.546 82.508 82.463 82.501 82.556 82.571 82.516 82.503 82.451 82.428 82.371 82.321 82.288 82.231 82.161 82.168 82.088 81.981 81.881 81.798 81.713 81.578 81.431 81.313 81.166 81.001 80.781 80.593 80.348 80.098 79.893 79.686 79.468 79.263 78.018 76.923 76.378 75.781 75.183 74.541 73.991 73.446 72.826 72.238 71.563 70.948 70.386 69.821 69.353 68.881 68.438 68.008 67.618 67.268 66.938 66.713 66.481 66.211 65.958
42.783 45.613 50.131 50.911 52.118 51.163 49.948 46.506 45.971 45.571 42.948 45.701 45.261 48.473 46.278 48.008 46.431 46.536 46.606 46.748 46.873 46.983 47.088 47.188 47.306 47.416 48.568 49.631 50.101 50.281 50.451 50.993 50.688 50.958 51.146 51.288 51.638 51.338 51.156 53.051 52.486 52.468 52.496 52.518 52.531 52.301 53.251 52.716 54.451 52.813 54.648 54.718 53.486 53.516 54.403 54.523 54.636 54.711 54.806 55.158 54.923 54.853 54.843 56.031 57.408 57.291 55.413 56.601 54.978 55.203 55.361 57.906 56.891 58.646 58.571 56.428 56.451 56.458 57.043 58.418 57.183 57.208 58.108 58.193 59.478 58.621 57.636 57.636 57.711 58.596 58.736 60.888 62.046 61.771 60.523 62.181 60.721 59.911 59.901 62.101 60.056 61.596 60.238 59.398 59.351 59.443 59.596 59.748 59.896 60.056 60.203 60.326 60.451 60.568 60.661 60.753 61.833 62.208 61.778 61.681 62.986 61.763 61.721 61.923 64.283 65.383 65.946 64.066 63.773 63.923 63.991 63.461 64.153 64.141 64.068 64.118 64.211 64.338 64.433 64.546 64.576 64.646 65.318 65.828 67.041 67.591 66.006 68.476 69.198 68.996 69.383 68.498 64.828 64.691 66.653 66.173 66.171 66.161 66.193 73.303 73.161 66.056 73.336 74.901 66.236 66.148 66.298 66.373 66.503 66.653 66.768 66.861 67.056 67.203 67.333 67.461 67.583 67.688 67.838 67.981 68.126 68.236 68.293 68.358 68.461 68.596 68.748 71.228 70.518 70.533 70.548 70.573 70.598 70.616 70.628 70.703 70.778 70.868 70.936 71.008 71.063 71.128 71.221 71.301 71.471 71.558 71.733 71.783 73.331 72.448 72.591 72.671 72.686 72.713 72.796 72.843 72.916 72.996 73.083 73.128 73.188 73.263 73.361 73.438 73.526 73.618 73.703 73.808 73.913 74.033 74.143 74.253 74.373 74.506 74.621 74.761 74.891 75.033 75.163 75.291 75.411 75.543 75.673 75.788 75.896 76.003 76.098 76.183 76.286 76.373 76.463 76.546 76.641 76.703 76.758 76.776 76.833 76.846 76.878 76.911 76.926 76.923 76.896 77.326 77.691 77.493 78.101 77.031 77.076 76.991 76.908 76.856 76.858 76.851 76.873 76.916 76.966 77.056 77.131 77.226 77.348 77.458 77.563 77.678 77.801 77.883 77.993 78.081 78.168 78.228 78.291 78.358 78.406 78.431 78.453 78.478 78.518 78.551 78.578 78.618 78.636 78.673 78.713 78.753 78.796 78.831 78.878 78.956 79.008 79.071 79.133 79.238 79.298 79.356 79.426 79.501 79.596 79.696 79.788 79.868 79.951 80.073 80.158 80.238 80.293 80.368 80.428 80.513 80.603 80.646 80.743 80.771 80.821 80.851 80.933 80.983 81.038 81.081 81.138 81.183 81.236 81.263 81.303 81.338 81.396 81.436 81.511 81.588 81.713 81.641 83.121 82.508 81.973 81.983 81.973 81.923 82.036 81.983 81.993 82.038 81.981 81.933 81.988 82.031 82.066 81.996 81.976 81.938 81.896 81.833 81.786 81.743 81.691 81.646 81.613 81.536 81.453 81.368 81.273 81.196 81.043 80.906 80.748 80.663 80.441 80.263 80.101 79.816 79.593 79.368 79.188 78.866 78.228 76.748 76.563 75.901 75.301 74.681 74.103 73.456 72.886 72.336 71.763 71.158 70.566 69.991 69.411 68.888 68.396 68.018 67.613 67.233 66.836 66.546 66.258 66.043 65.863 65.568
42.703 42.796 43.996 47.061 50.811 51.591 52.063 50.473 48.301 47.716 45.658 43.028 44.928 46.293 47.648 46.453 46.513 46.791 46.761 46.786 46.833 46.871 47.953 48.231 47.283 47.401 47.536 48.331 49.436 49.926 50.173 50.323 50.451 50.891 51.613 51.191 51.998 51.596 50.881 51.481 52.731 52.378 52.406 52.456 52.533 51.988 51.553 51.543 53.256 52.043 52.823 54.668 53.161 53.128 54.351 54.373 54.483 54.588 54.768 55.033 54.661 54.553 54.528 54.748 57.331 56.601 54.856 54.958 54.828 55.136 55.363 56.021 55.911 55.946 55.961 56.018 56.256 56.786 56.791 58.148 57.101 57.148 57.183 57.451 57.391 57.448 57.556 58.523 59.286 58.163 57.848 58.893 60.278 59.546 59.461 58.868 58.521 58.588 58.683 58.798 58.911 59.013 59.108 59.213 59.318 59.436 59.598 59.706 59.841 59.998 60.166 60.243 60.351 60.466 60.571 60.683 60.953 60.613 60.673 61.356 61.763 61.856 61.551 61.543 61.506 64.296 64.901 62.266 65.401 66.021 63.523 63.296 63.181 65.416 63.903 64.018 64.121 64.213 64.283 64.366 64.423 64.428 64.458 66.536 65.993 65.831 65.841 66.381 64.911 67.668 68.716 65.828 64.693 64.368 64.678 65.731 65.901 65.863 65.848 65.948 65.971 68.263 71.471 70.628 68.251 73.796 65.891 66.018 66.128 66.258 66.383 66.481 66.631 66.781 66.903 67.051 67.176 67.296 67.478 67.643 67.786 67.911 67.998 68.071 68.131 68.228 68.321 69.016 70.648 70.331 70.268 70.273 70.311 70.311 70.348 70.376 70.448 70.533 70.581 70.631 70.686 70.731 70.811 70.913 71.071 71.223 71.313 71.433 72.988 71.943 72.086 72.193 72.238 72.281 72.313 72.371 72.443 72.508 72.596 72.658 72.716 72.778 72.871 72.941 73.023 73.106 73.178 73.298 73.396 73.498 73.631 73.733 73.871 73.983 74.103 74.236 74.351 74.498 74.613 74.756 74.881 75.003 75.123 75.238 75.353 75.453 75.571 75.668 75.751 75.856 75.938 76.026 76.118 76.181 76.208 76.253 76.291 76.313 76.343 76.363 76.388 76.358 76.303 77.226 76.153 77.013 76.903 76.636 76.626 76.551 76.463 76.413 76.383 76.376 76.396 76.433 76.483 76.541 76.643 76.726 76.841 76.961 77.051 77.163 77.283 77.378 77.466 77.563 77.648 77.711 77.773 77.833 77.888 77.906 77.933 77.958 77.988 78.026 78.051 78.076 78.103 78.161 78.196 78.241 78.281 78.308 78.346 78.416 78.488 78.558 78.623 78.713 78.783 78.851 78.923 78.993 79.073 79.176 79.273 79.343 79.436 79.538 79.631 79.721 79.776 79.868 79.931 80.008 80.071 80.138 80.203 80.258 80.296 80.343 80.413 80.461 80.493 80.553 80.618 80.663 80.686 80.738 80.776 80.796 80.856 80.891 80.971 81.076 81.193 81.133 82.568 81.548 81.428 81.466 81.448 81.423 81.528 81.511 81.458 81.498 81.463 81.406 81.493 81.506 81.486 81.461 81.428 81.373 81.328 81.311 81.268 81.228 81.126 81.108 81.053 80.976 80.931 80.831 80.743 80.611 80.513 80.366 80.223 80.148 79.941 79.733 79.568 79.293 79.066 78.841 78.706 78.383 77.628 76.348 75.931 75.383 74.833 74.226 73.591 73.006 72.361 71.761 71.261 70.783 70.148 69.586 69.023 68.491 68.043 67.548 67.206 66.816 66.481 66.123 65.886 65.618 65.408 65.238
42.216 42.703 42.736 43.016 46.596 49.891 51.141 52.113 50.996 49.788 46.268 45.848 43.051 45.011 46.828 46.536 46.588 49.423 47.548 46.886 46.896 49.391 46.871 46.926 47.173 47.326 47.468 47.621 47.761 48.108 48.826 49.468 51.031 50.603 50.976 51.206 52.691 51.793 50.748 50.458 53.253 52.286 52.301 52.316 51.603 51.681 51.523 51.468 51.541 51.911 52.056 53.726 52.763 53.553 54.723 54.233 54.353 54.466 54.613 54.853 54.106 54.203 54.196 54.361 54.478 55.508 55.601 54.661 55.676 55.001 55.233 55.441 55.651 55.763 57.803 57.561 56.461 56.323 56.566 58.058 56.896 56.938 57.081 57.231 57.328 57.436 57.551 57.668 57.756 57.846 57.938 58.033 58.143 58.243 58.333 58.406 58.498 58.583 58.671 58.776 58.883 58.978 59.096 59.218 59.333 59.438 59.646 61.516 61.551 61.041 61.213 60.361 60.433 60.558 61.038 60.828 60.908 63.221 63.556 60.991 61.306 61.666 61.421 61.431 61.488 61.473 61.336 61.543 61.333 62.848 63.926 63.201 62.988 62.918 64.778 63.893 64.006 64.066 64.191 64.208 64.226 64.246 64.261 64.253 64.358 65.661 65.983 65.376 64.496 64.403 65.058 64.488 64.366 64.311 64.086 65.441 65.453 65.618 65.608 65.606 65.681 69.593 72.851 66.406 66.328 73.458 65.551 71.758 70.048 65.871 65.991 66.101 66.258 66.361 66.486 66.663 66.813 66.916 67.101 67.271 67.393 67.496 67.618 67.718 67.788 67.893 67.993 68.071 68.138 69.643 70.151 70.006 70.021 70.038 70.053 70.078 70.126 70.173 70.226 70.301 70.338 70.388 70.458 70.558 70.706 70.856 70.933 70.956 73.906 71.398 71.576 71.728 71.798 71.868 71.891 71.948 71.996 72.066 72.131 72.198 72.261 72.318 72.383 72.441 72.528 72.616 72.683 72.796 72.896 73.003 73.108 73.218 73.341 73.468 73.583 73.698 73.816 73.961 74.101 74.236 74.338 74.448 74.571 74.693 74.801 74.913 75.023 75.131 75.231 75.328 75.408 75.476 75.563 75.626 75.673 75.706 75.731 75.748 75.771 75.778 75.803 75.768 75.733 76.733 75.801 75.901 76.446 76.261 76.208 76.191 76.078 76.008 75.961 75.943 75.963 75.996 76.033 76.078 76.171 76.261 76.363 76.461 76.578 76.688 76.783 76.863 76.966 77.046 77.133 77.191 77.248 77.323 77.358 77.383 77.413 77.436 77.453 77.488 77.531 77.563 77.583 77.633 77.678 77.711 77.766 77.798 77.828 77.906 77.973 78.033 78.108 78.181 78.253 78.326 78.406 78.486 78.553 78.648 78.751 78.833 78.938 79.023 79.103 79.166 79.251 79.318 79.393 79.471 79.551 79.608 79.676 79.723 79.766 79.826 79.891 79.936 79.993 80.033 80.083 80.113 80.171 80.223 80.241 80.271 80.321 80.383 80.441 80.523 80.623 80.561 82.208 80.991 80.901 80.953 80.908 80.901 80.983 80.933 80.921 80.956 80.951 80.881 80.936 80.991 80.966 80.941 80.896 80.866 80.798 80.791 80.716 80.671 80.586 80.578 80.516 80.433 80.376 80.278 80.166 80.091 79.956 79.836 79.701 79.566 79.398 79.196 79.006 78.788 78.583 78.363 78.163 78.171 77.226 76.026 75.521 74.971 74.361 73.736 73.106 72.493 71.888 71.303 70.706 70.223 69.698 69.171 68.578 68.098 67.633 67.158 66.716 66.406 66.091 65.781 65.503 65.243 65.001 64.793
41.101 42.793 42.136 43.823 43.826 44.371 50.471 50.501 51.736 51.556 50.311 45.476 43.586 47.006 47.016 48.871 48.718 49.216 49.286 48.273 51.063 50.568 50.088 49.593 47.841 47.081 49.043 47.533 47.676 47.843 48.033 48.201 48.373 48.583 49.183 49.778 50.721 50.738 51.161 50.108 50.506 52.971 52.196 52.218 51.426 51.298 51.313 51.343 51.458 51.766 51.913 52.138 52.276 52.643 54.676 54.926 53.593 53.576 53.751 53.636 53.578 53.748 53.906 54.066 54.188 54.311 54.461 54.626 54.791 54.963 55.133 55.298 55.481 55.658 55.836 56.011 56.196 56.358 56.506 56.636 56.756 56.873 56.986 57.088 57.211 57.333 57.453 57.606 57.753 57.973 58.426 58.508 58.566 58.646 58.473 58.356 58.451 58.533 59.171 60.111 60.793 60.571 61.356 60.886 60.503 60.588 64.031 61.683 59.893 62.836 60.761 60.961 60.433 60.481 63.883 63.431 63.621 63.731 63.391 61.773 61.711 62.483 61.351 62.481 61.401 64.431 63.861 61.368 63.011 62.411 63.278 65.341 62.958 62.763 64.836 63.683 63.816 63.888 63.961 64.001 64.026 64.031 64.051 64.071 64.078 64.048 64.053 64.028 64.051 64.048 64.618 64.383 64.336 64.096 63.963 63.831 65.251 65.213 65.328 65.316 65.356 65.443 65.538 65.596 73.443 65.936 65.478 73.001 71.948 65.441 71.061 65.716 65.853 65.981 66.118 66.261 66.423 66.571 66.728 66.871 66.973 67.106 67.226 67.323 67.443 67.561 67.663 67.741 67.821 67.903 68.133 69.343 69.723 69.736 69.776 69.786 69.806 69.838 69.888 69.951 70.006 70.081 70.136 70.206 70.403 70.541 70.643 70.663 70.773 70.973 71.161 71.343 71.401 71.411 71.443 71.508 71.586 71.636 71.718 71.756 71.813 71.873 71.928 71.976 72.053 72.141 72.226 72.316 72.411 72.508 72.613 72.721 72.836 72.956 73.073 73.196 73.311 73.441 73.568 73.693 73.803 73.921 74.046 74.138 74.263 74.381 74.476 74.576 74.688 74.791 74.858 74.926 75.023 75.058 75.098 75.146 75.161 75.178 75.198 75.206 75.208 75.196 75.146 75.681 75.501 75.326 76.186 75.931 75.846 75.843 75.763 75.616 75.448 75.583 75.588 75.581 75.608 75.658 75.733 75.813 75.908 75.998 76.116 76.201 76.298 76.386 76.473 76.546 76.631 76.686 76.746 76.813 76.843 76.883 76.901 76.911 76.923 76.973 77.016 77.046 77.056 77.096 77.148 77.191 77.246 77.276 77.303 77.388 77.451 77.521 77.603 77.671 77.748 77.831 77.896 77.973 78.058 78.141 78.241 78.328 78.403 78.508 78.571 78.641 78.703 78.811 78.848 78.928 79.013 79.066 79.136 79.196 79.256 79.298 79.358 79.413 79.453 79.518 79.551 79.608 79.631 79.668 79.716 79.746 79.778 79.846 79.908 79.988 80.088 79.973 81.986 80.483 80.371 80.461 80.336 80.363 80.448 80.381 80.393 80.426 80.341 80.313 80.441 80.463 80.436 80.386 80.321 80.328 80.218 80.213 80.141 80.138 80.046 80.023 79.948 79.871 79.801 79.751 79.651 79.568 79.438 79.311 79.146 79.031 78.853 78.668 78.493 78.228 78.036 77.858 77.733 77.533 76.446 75.483 75.751 74.416 73.828 73.176 72.618 71.963 71.378 70.793 70.223 69.628 69.148 68.678 68.168 67.698 67.186 66.766 66.331 65.948 65.661 65.386 65.146 64.846 64.616 64.388
39.293 39.993 42.948 41.988 43.026 42.866 42.903 46.101 50.103 51.768 52.378 43.161 43.976 48.113 46.961 46.996 48.228 48.988 49.058 46.473 52.236 51.336 51.243 50.756 46.776 49.806 48.751 47.006 48.283 49.008 47.901 48.111 48.303 48.486 48.678 48.868 49.053 49.236 49.446 49.673 49.883 50.113 50.308 50.496 50.743 52.431 52.368 51.248 51.438 51.618 51.801 51.961 52.131 52.301 52.483 52.676 52.843 53.003 53.241 53.348 53.491 53.651 53.803 53.961 54.106 54.251 54.391 54.538 54.706 54.876 55.043 55.201 55.381 55.563 55.766 55.946 56.141 56.353 56.501 56.796 57.513 57.646 58.948 58.211 60.156 59.903 61.481 61.511 61.048 60.153 60.476 61.256 61.703 60.356 58.933 58.238 58.363 58.403 59.433 60.001 59.691 59.096 59.216 58.728 59.288 59.001 58.991 59.728 59.416 59.388 60.151 61.236 60.291 60.273 63.396 63.911 63.326 61.626 60.518 60.806 61.386 62.826 63.716 62.378 63.563 65.581 64.738 64.033 61.318 62.251 61.391 65.208 62.778 62.633 62.506 64.863 63.528 63.651 63.746 63.773 63.788 63.798 63.818 63.848 63.838 63.871 63.883 63.848 63.858 63.838 63.778 63.768 63.791 63.993 63.838 63.708 63.766 64.786 64.951 65.016 64.993 65.093 65.173 65.248 68.608 65.413 73.101 70.031 65.253 66.066 74.593 68.058 73.611 65.591 65.726 65.906 66.036 66.178 66.318 66.436 66.531 66.683 66.798 66.903 67.018 67.121 67.098 68.011 67.498 67.588 67.643 67.758 68.141 68.903 69.396 69.491 69.531 69.553 69.591 69.631 69.703 69.741 69.836 69.956 70.073 70.243 70.316 70.221 70.851 70.823 70.946 71.006 71.033 71.038 71.078 71.113 71.158 71.331 71.408 71.371 71.388 71.446 71.498 71.543 71.601 71.691 71.763 71.831 71.931 72.023 72.116 72.223 72.343 72.461 72.573 72.686 72.801 72.941 73.063 73.168 73.276 73.401 73.513 73.621 73.736 73.856 73.948 74.051 74.161 74.233 74.323 74.383 74.463 74.503 74.538 74.571 74.591 74.626 74.623 74.611 74.596 74.598 74.536 74.426 74.918 74.458 74.328 74.976 75.498 75.093 75.291 75.248 75.193 75.288 75.313 75.228 75.261 75.301 75.383 75.443 75.501 75.581 75.658 75.746 75.853 75.926 76.008 76.068 76.138 76.193 76.256 76.291 76.331 76.391 76.398 76.396 76.413 76.458 76.488 76.511 76.538 76.586 76.623 76.668 76.728 76.756 76.778 76.871 76.928 77.001 77.073 77.141 77.208 77.291 77.381 77.438 77.531 77.616 77.696 77.791 77.893 77.973 78.043 78.131 78.163 78.261 78.296 78.378 78.451 78.506 78.588 78.638 78.698 78.748 78.818 78.871 78.896 78.951 78.996 79.043 79.071 79.113 79.133 79.178 79.228 79.291 79.358 79.471 79.541 79.691 81.413 79.831 79.836 79.871 79.768 79.808 79.891 79.828 79.813 79.881 79.776 79.736 79.848 79.878 79.831 79.828 79.773 79.778 79.718 79.648 79.596 79.558 79.453 79.456 79.401 79.331 79.261 79.208 79.126 79.016 78.888 78.758 78.646 78.488 78.301 78.131 77.938 77.731 77.541 77.313 77.321 77.451 76.693 74.943 74.788 73.918 73.311 72.653 72.081 71.476 70.871 70.208 69.718 69.183 68.613 68.158 67.723 67.243 66.753 66.311 65.941 65.573 65.243 64.998 64.753 64.496 64.238 64.011
39.188 39.208 39.183 42.833 41.963 42.663 42.728 42.861 44.708 49.078 43.001 43.073 43.153 43.293 44.836 44.778 44.541 46.383 46.233 47.168 53.371 52.891 52.426 51.851 49.128 50.613 51.061 50.228 49.491 49.483 47.641 48.731 48.453 48.551 48.726 48.788 48.981 49.173 49.388 49.598 49.808 50.046 50.253 50.451 50.646 50.831 50.998 51.181 51.343 51.508 51.683 51.858 52.036 52.218 52.401 52.581 52.751 52.886 53.078 53.211 53.373 53.626 54.303 55.833 56.463 56.066 56.361 56.891 57.138 57.153 57.656 58.141 57.326 57.578 57.721 57.486 57.948 57.538 57.838 57.791 57.878 58.836 58.323 57.458 61.131 60.606 61.561 61.746 57.496 59.341 60.626 59.883 59.251 59.091 58.158 58.241 58.158 58.426 58.756 59.116 58.606 58.308 58.428 58.583 58.656 58.758 58.866 59.028 58.966 59.243 59.486 60.468 60.341 60.098 60.436 62.236 60.576 60.426 61.341 60.378 61.151 61.751 63.821 62.728 64.686 65.866 66.003 65.041 64.478 63.998 64.543 63.041 65.248 63.813 62.373 62.288 64.618 63.356 63.448 63.528 63.558 63.578 63.586 63.606 63.603 63.581 63.586 63.573 63.558 63.556 63.498 63.471 63.458 63.391 63.663 63.563 63.451 63.378 64.433 64.591 64.731 64.771 64.848 64.901 64.978 65.071 68.831 70.138 65.243 69.901 65.186 65.153 72.821 68.456 71.046 73.433 65.511 66.948 65.701 66.401 66.251 66.121 66.116 66.106 68.061 66.541 66.351 66.121 66.526 67.093 67.343 67.428 67.461 67.601 68.081 68.886 69.193 69.266 69.333 69.363 69.408 69.468 69.586 69.648 69.521 69.666 69.776 69.538 69.696 71.353 70.613 70.753 70.731 70.703 70.708 70.743 70.818 70.933 70.958 70.966 70.976 71.031 71.093 71.138 71.193 71.246 71.326 71.398 71.478 71.576 71.656 71.756 71.868 71.963 72.076 72.176 72.293 72.421 72.528 72.638 72.746 72.866 72.991 73.096 73.201 73.336 73.421 73.523 73.611 73.696 73.776 73.848 73.911 73.953 73.986 74.003 74.023 74.028 74.041 74.028 73.993 73.981 73.918 73.743 74.871 74.646 73.781 73.476 73.683 74.031 74.973 75.123 75.196 75.938 75.191 75.278 74.956 75.013 75.098 75.128 75.178 75.233 75.296 75.366 75.436 75.496 75.556 75.626 75.671 75.716 75.753 75.821 75.848 75.866 75.898 75.903 75.916 75.938 75.963 75.996 76.041 76.071 76.098 76.133 76.198 76.233 76.258 76.338 76.388 76.476 76.538 76.598 76.681 76.761 76.828 76.896 76.996 77.083 77.166 77.258 77.358 77.443 77.501 77.581 77.631 77.686 77.748 77.823 77.901 77.948 78.028 78.073 78.163 78.201 78.261 78.311 78.343 78.391 78.418 78.466 78.526 78.548 78.581 78.603 78.666 78.708 78.808 78.898 78.968 79.521 80.953 79.283 79.271 79.321 79.193 79.268 79.331 79.238 79.271 79.263 79.213 79.176 79.261 79.291 79.298 79.276 79.278 79.188 79.128 79.083 79.023 78.988 78.903 78.908 78.861 78.783 78.691 78.641 78.573 78.473 78.351 78.221 78.091 77.931 77.763 77.593 77.436 77.196 76.991 76.746 76.921 76.591 74.966 74.411 73.903 73.318 72.748 72.141 71.536 70.951 70.418 69.806 69.228 68.718 68.163 67.651 67.236 66.846 66.401 65.958 65.518 65.178 64.901 64.586 64.321 64.113 63.866 63.626
42.493 39.078 39.091 39.101 42.328 41.903 42.353 42.936 42.833 42.868 42.953 43.036 43.078 43.128 44.148 44.556 46.188 46.411 44.923 51.726 52.343 52.888 53.428 46.048 49.828 51.203 52.726 51.596 49.986 47.341 47.318 51.156 50.056 48.653 49.406 48.716 49.126 48.898 49.511 49.593 49.708 50.108 50.528 50.396 50.566 50.768 50.963 51.101 51.383 51.471 51.641 51.826 52.098 52.226 52.531 52.521 53.273 54.073 54.603 55.911 56.023 56.148 56.576 56.326 55.683 55.496 54.618 54.143 54.081 54.446 54.596 54.606 54.736 54.843 55.311 57.043 55.338 55.361 55.483 55.631 55.731 55.836 56.016 56.213 56.611 56.498 56.606 56.716 56.808 56.926 57.013 57.166 57.306 57.448 57.616 57.808 57.936 57.963 57.998 58.023 58.088 58.168 58.281 58.431 58.546 58.648 58.743 58.778 58.836 58.981 59.091 59.761 60.416 59.888 59.936 60.108 60.188 61.293 62.113 60.246 60.513 61.278 61.096 64.226 65.356 66.488 65.278 65.606 65.696 65.001 64.036 61.728 65.983 65.131 62.243 62.193 62.031 63.251 63.838 63.211 63.293 63.338 63.358 63.388 63.361 63.338 63.336 63.306 63.266 63.228 63.198 63.178 63.171 63.133 63.058 63.418 63.296 63.793 66.041 64.238 64.388 64.451 64.491 64.541 64.621 64.676 64.751 64.796 64.876 71.441 71.473 70.528 70.806 65.126 65.453 66.273 65.093 65.098 65.333 65.081 65.286 65.051 65.051 64.883 64.803 64.916 64.726 64.751 65.061 66.753 66.963 67.063 67.158 67.216 67.283 67.503 67.996 68.751 68.943 69.083 69.133 69.223 69.328 69.386 69.093 68.818 68.858 68.856 68.851 70.856 70.311 70.296 70.298 70.348 70.371 70.393 70.453 70.516 70.581 70.546 70.608 70.646 70.703 70.761 70.798 70.856 70.921 70.993 71.058 71.136 71.208 71.281 71.391 71.506 71.591 71.708 71.811 71.916 72.023 72.128 72.243 72.341 72.473 72.578 72.683 72.808 72.896 72.996 73.083 73.161 73.231 73.296 73.363 73.401 73.421 73.428 73.458 73.463 73.463 73.466 73.438 73.413 73.316 73.166 73.188 74.178 72.906 72.821 72.731 72.591 74.293 75.648 74.098 74.376 74.731 75.456 75.628 75.178 74.851 74.771 74.838 74.946 75.006 75.053 75.098 75.141 75.188 75.248 75.281 75.276 75.293 75.316 75.363 75.388 75.398 75.411 75.423 75.451 75.456 75.483 75.528 75.563 75.596 75.643 75.678 75.713 75.736 75.813 75.876 75.956 76.006 76.076 76.153 76.233 76.291 76.353 76.471 76.541 76.633 76.708 76.821 76.896 76.953 77.023 77.068 77.128 77.178 77.261 77.346 77.403 77.463 77.533 77.608 77.628 77.681 77.733 77.763 77.811 77.841 77.901 77.916 77.971 77.991 78.033 78.086 78.148 78.251 78.326 78.358 79.466 80.703 78.676 78.711 78.723 78.606 78.716 78.728 78.638 78.671 78.673 78.626 78.631 78.726 78.716 78.708 78.696 78.673 78.616 78.546 78.486 78.471 78.436 78.328 78.296 78.258 78.188 78.133 78.083 78.011 77.908 77.813 77.683 77.543 77.416 77.246 77.058 76.851 76.618 76.451 76.131 76.431 76.018 74.906 73.863 73.386 72.818 72.171 71.646 71.046 70.448 69.901 69.361 68.816 68.208 67.716 67.228 66.728 66.306 65.976 65.566 65.153 64.808 64.501 64.211 63.921 63.693 63.471 63.268
43.441 42.661 38.976 38.988 38.966 43.558 42.556 42.596 42.718 43.156 44.158 43.018 43.046 43.041 43.393 43.988 45.016 44.918 44.611 46.348 47.956 51.731 52.116 45.363 50.723 52.361 52.411 50.776 47.096 46.353 51.001 51.043 46.531 48.731 50.771 49.048 48.908 49.131 52.441 49.721 50.246 49.836 52.548 50.478 50.623 50.781 53.843 54.161 51.431 51.558 51.716 51.931 55.596 55.688 55.776 54.776 53.328 53.148 52.923 53.101 53.156 53.136 53.058 53.873 54.608 53.173 53.913 53.393 53.531 53.786 54.081 54.376 54.598 54.778 54.931 55.073 55.178 55.296 55.433 55.596 55.718 55.823 55.983 56.131 56.293 56.418 56.548 56.638 56.713 56.851 56.953 57.098 57.228 57.363 57.526 57.638 57.731 57.788 57.833 58.586 58.088 58.068 58.138 58.246 58.336 58.433 58.516 58.633 58.716 58.823 58.923 59.446 60.731 59.631 59.633 59.806 60.411 59.833 60.151 59.848 60.026 60.861 61.993 64.886 66.091 66.188 65.361 66.488 65.193 64.531 63.066 61.056 61.473 62.113 63.843 62.061 61.956 61.786 61.711 64.128 62.966 63.071 63.066 63.123 63.133 63.123 63.103 63.066 63.031 62.986 62.936 62.898 62.878 62.846 62.808 62.738 64.536 66.348 66.778 66.026 63.941 64.153 64.193 64.253 64.276 64.311 64.358 64.406 64.441 64.553 64.666 68.111 71.683 65.411 72.483 68.456 65.106 71.306 65.293 65.096 65.101 65.078 65.001 64.858 64.758 64.626 64.476 64.398 64.341 64.303 64.283 64.341 66.848 66.896 66.933 66.958 67.038 67.321 68.046 68.523 68.726 68.916 68.996 68.903 68.673 68.393 68.136 68.221 68.178 68.316 68.816 69.386 69.896 70.156 70.121 70.026 70.053 70.116 70.198 70.228 70.268 70.291 70.348 70.393 70.451 70.476 70.533 70.576 70.643 70.703 70.788 70.878 70.956 71.048 71.131 71.216 71.316 71.411 71.526 71.636 71.733 71.821 71.938 72.053 72.166 72.273 72.368 72.468 72.548 72.613 72.681 72.731 72.801 72.813 72.828 72.851 72.853 72.848 72.873 72.873 72.853 72.826 72.693 72.536 72.548 73.121 72.143 71.988 71.986 72.088 72.066 72.126 72.733 72.231 74.376 74.228 74.238 75.243 75.076 74.768 75.458 74.903 74.818 74.678 74.741 74.848 74.883 74.908 74.936 74.928 74.933 74.926 74.918 74.938 74.951 74.936 74.948 74.961 74.983 75.023 75.033 75.076 75.076 75.133 75.178 75.191 75.236 75.306 75.368 75.416 75.471 75.541 75.618 75.691 75.751 75.823 75.911 75.983 76.066 76.161 76.243 76.321 76.373 76.453 76.508 76.563 76.623 76.708 76.773 76.836 76.891 76.976 77.026 77.066 77.101 77.161 77.198 77.221 77.268 77.306 77.341 77.401 77.421 77.456 77.486 77.556 77.648 77.761 77.756 79.288 78.526 78.111 78.116 78.151 78.031 78.116 78.108 78.048 78.091 78.071 78.008 78.013 78.106 78.118 78.133 78.101 78.098 78.031 78.001 77.913 77.871 77.846 77.751 77.731 77.708 77.638 77.571 77.523 77.441 77.333 77.233 77.136 76.991 76.838 76.666 76.476 76.303 76.098 75.956 75.698 75.973 75.721 74.853 73.478 72.906 72.363 71.748 71.156 70.596 70.018 69.403 68.886 68.338 67.803 67.288 66.778 66.321 65.816 65.441 65.131 64.833 64.446 64.096 63.803 63.551 63.291 63.073 62.866
40.653 43.051 38.781 38.968 38.881 38.878 42.598 43.478 42.533 44.166 42.813 42.928 42.963 42.986 43.116 43.196 45.111 44.798 44.578 44.483 46.723 46.703 44.753 50.183 51.413 53.133 51.563 49.926 46.143 46.746 52.721 53.148 46.448 47.878 48.573 48.321 48.083 52.256 52.426 50.506 49.056 49.056 49.518 49.853 50.591 50.731 54.258 53.648 51.566 51.646 51.778 51.946 56.106 56.118 56.043 55.271 53.031 52.721 52.743 52.756 52.768 52.816 52.896 54.908 54.213 53.161 53.218 53.321 53.538 53.991 54.461 54.763 54.958 55.163 55.341 55.493 55.636 55.768 55.856 56.031 56.141 56.283 56.406 56.548 56.686 56.871 56.338 56.436 56.528 56.573 56.676 56.873 57.048 57.203 57.346 57.446 57.553 57.613 57.651 57.733 57.843 57.913 57.981 58.051 58.126 58.216 58.311 58.436 58.548 58.633 58.771 59.146 60.226 59.343 59.331 59.806 60.258 60.343 59.891 59.118 60.343 59.853 61.458 64.413 66.258 66.116 66.413 66.116 64.963 63.666 60.541 60.773 60.706 61.361 61.358 62.963 61.883 61.748 61.581 61.446 63.338 63.018 62.806 62.826 62.846 62.848 62.851 62.813 62.786 62.753 62.691 62.641 62.598 62.548 62.508 62.473 62.808 66.103 66.866 66.318 62.971 63.756 63.876 63.908 63.933 63.936 63.978 64.001 64.026 64.136 64.211 64.343 64.451 64.521 64.586 66.766 66.598 70.221 68.811 64.966 64.963 64.946 64.903 64.826 64.693 64.521 64.331 64.248 64.218 64.223 64.493 66.811 66.746 64.256 66.681 66.656 66.688 66.731 66.781 66.911 67.623 67.728 67.903 68.323 68.178 67.911 67.636 67.623 67.691 67.668 67.716 67.783 67.876 68.496 68.953 69.521 69.871 69.808 69.851 69.846 69.878 69.986 70.028 70.058 70.086 70.116 70.166 70.218 70.248 70.308 70.381 70.446 70.526 70.623 70.696 70.773 70.858 70.936 71.043 71.153 71.236 71.321 71.423 71.526 71.656 71.758 71.856 71.938 72.003 72.068 72.138 72.198 72.233 72.248 72.261 72.276 72.266 72.261 72.268 72.263 72.276 72.203 72.068 71.873 72.171 72.441 71.541 71.418 71.461 71.533 71.591 71.621 71.686 71.731 71.806 71.931 72.053 72.751 74.676 74.261 75.058 73.478 75.226 74.693 74.718 76.218 74.583 74.596 74.606 74.611 74.576 74.568 74.683 74.521 74.508 74.538 74.501 74.513 74.528 74.546 74.543 74.593 74.601 74.661 74.696 74.718 74.748 74.813 74.861 74.913 74.966 75.033 75.096 75.168 75.213 75.278 75.356 75.423 75.501 75.588 75.681 75.753 75.818 75.886 75.951 76.006 76.061 76.138 76.206 76.263 76.321 76.393 76.443 76.491 76.543 76.586 76.606 76.621 76.673 76.716 76.771 76.823 76.843 76.876 76.918 76.973 77.053 77.186 77.141 78.631 77.873 77.526 77.516 77.521 77.421 77.526 77.511 77.471 77.486 77.491 77.423 77.421 77.506 77.511 77.551 77.526 77.481 77.453 77.351 77.351 77.296 77.276 77.181 77.148 77.136 77.026 77.001 76.956 76.898 76.758 76.671 76.553 76.423 76.231 76.088 75.918 75.781 75.513 75.366 75.173 75.181 74.893 74.501 73.303 72.476 71.836 71.261 70.668 70.128 69.523 68.936 68.373 67.848 67.331 66.808 66.351 65.803 65.433 65.001 64.646 64.306 64.073 63.721 63.411 63.213 62.983 62.721 62.551
39.011 38.258 37.556 39.291 39.818 38.786 38.816 41.223 44.006 42.801 42.818 42.878 42.898 42.918 43.073 45.151 44.783 44.786 44.368 44.486 44.531 45.393 44.721 50.761 52.428 52.386 50.726 46.356 46.906 52.316 53.463 53.163 52.461 49.463 47.176 49.343 48.141 49.448 50.006 48.796 48.518 50.306 49.038 49.606 49.706 50.901 51.646 52.373 52.366 52.581 52.568 52.153 54.853 53.796 53.293 53.093 54.253 52.673 52.563 52.683 52.696 52.748 52.828 52.911 53.023 53.121 53.161 53.246 53.478 53.858 54.233 54.286 54.568 54.558 54.781 54.871 55.066 55.223 55.356 55.421 55.613 55.753 55.881 55.996 55.978 56.188 56.108 56.111 56.243 56.226 56.306 56.528 56.808 56.953 57.128 57.213 57.336 57.408 57.493 57.576 57.693 57.743 57.791 57.816 57.826 58.103 58.808 58.228 58.358 58.498 58.661 59.226 60.831 59.248 59.038 60.823 61.806 63.768 61.426 58.951 58.961 59.171 59.653 60.643 63.468 65.093 66.303 65.463 64.316 60.843 60.181 60.306 61.766 60.263 60.821 60.841 61.351 62.283 61.536 61.343 61.198 61.203 63.728 62.523 62.521 62.553 62.558 62.546 62.521 62.493 62.443 62.363 62.323 62.273 62.203 62.178 62.131 62.241 66.133 62.406 62.003 64.741 63.281 63.608 63.591 63.631 63.626 63.636 63.666 63.711 63.788 63.893 63.993 64.108 64.141 64.436 68.988 73.133 70.288 65.036 64.616 64.646 64.676 64.648 64.593 64.426 64.243 64.163 64.161 64.166 66.818 66.776 66.763 66.758 66.563 64.263 66.386 66.423 66.513 66.591 66.653 67.138 66.856 67.188 67.493 67.433 67.241 67.231 67.311 67.376 67.446 67.543 67.618 67.718 67.808 67.831 67.898 69.261 69.663 69.538 69.761 69.801 69.726 69.678 69.698 69.773 69.843 69.881 69.886 69.938 69.981 70.041 70.113 70.176 70.246 70.321 70.411 70.491 70.591 70.691 70.743 70.838 70.918 71.008 71.143 71.226 71.296 71.391 71.468 71.538 71.591 71.628 71.671 71.688 71.701 71.716 71.693 71.658 71.633 71.641 71.618 71.541 71.423 71.243 71.703 71.178 70.938 70.888 70.938 70.961 71.006 71.043 71.101 71.211 71.353 71.516 71.651 71.778 71.871 71.973 72.101 72.223 72.348 72.578 75.223 75.286 75.171 74.236 74.541 74.538 74.336 74.208 74.191 74.178 74.151 74.106 74.056 74.078 74.128 74.101 74.093 74.148 74.188 74.233 74.261 74.256 74.263 74.328 74.363 74.423 74.481 74.538 74.578 74.638 74.683 74.746 74.808 74.868 74.948 75.008 75.093 75.176 75.228 75.303 75.378 75.451 75.496 75.568 75.621 75.691 75.721 75.786 75.846 75.901 75.941 75.976 76.021 76.046 76.073 76.126 76.163 76.221 76.276 76.283 76.316 76.368 76.466 76.573 76.536 78.016 77.036 76.876 76.893 76.883 76.821 76.913 76.913 76.846 76.883 76.846 76.808 76.798 76.906 76.941 76.921 76.913 76.863 76.816 76.773 76.736 76.738 76.668 76.603 76.581 76.531 76.446 76.401 76.346 76.278 76.166 76.078 75.943 75.838 75.688 75.523 75.371 75.203 74.926 74.818 74.656 74.801 74.301 73.428 72.768 72.611 71.543 70.841 70.228 69.628 69.063 68.488 67.921 67.388 66.863 66.383 65.906 65.443 64.931 64.598 64.191 63.856 63.581 63.363 63.071 62.801 62.633 62.411 62.236
37.981 37.298 37.096 37.461 39.301 39.908 38.713 38.723 38.733 43.633 42.733 42.568 42.796 42.883 44.136 42.816 42.911 42.976 43.548 44.301 44.468 44.591 47.396 51.583 53.143 51.516 49.848 45.226 50.506 53.043 54.211 54.331 53.578 52.858 52.138 46.918 49.243 48.756 47.941 53.876 55.083 54.563 48.621 48.598 48.773 49.706 50.821 49.921 50.113 50.263 50.433 50.646 50.986 51.196 51.946 51.813 51.893 52.153 52.468 52.866 52.828 52.801 52.773 52.853 52.968 53.066 53.138 53.156 53.366 53.568 53.758 53.856 54.013 54.093 54.191 54.341 54.461 54.626 54.756 54.861 54.996 55.123 55.266 55.376 55.508 55.621 55.786 55.881 55.941 55.858 55.898 56.668 56.696 56.793 56.898 56.981 57.043 57.126 57.206 57.308 57.406 57.486 57.761 58.203 58.528 58.503 58.088 57.846 58.283 58.266 58.766 60.691 59.616 58.623 58.713 61.941 68.466 64.693 61.298 65.888 66.538 58.988 58.971 60.983 60.868 62.866 64.116 64.748 60.691 59.773 59.783 59.933 60.038 61.696 61.513 60.616 60.638 60.538 63.221 62.428 61.178 61.021 60.893 63.383 62.398 62.273 62.253 62.248 62.223 62.236 62.198 62.098 62.053 62.008 61.948 61.886 61.836 61.801 61.786 61.721 61.613 61.531 61.903 63.173 63.233 63.288 63.303 63.308 63.333 63.363 63.408 63.501 63.526 63.703 63.768 63.816 66.881 70.246 69.328 65.381 64.296 64.333 64.393 64.426 64.418 64.343 64.208 64.146 64.136 65.798 65.588 66.773 66.756 66.748 66.751 66.258 65.928 65.941 66.011 66.246 66.398 68.461 68.433 68.378 66.611 66.888 66.946 67.011 67.093 67.113 67.226 67.336 67.458 67.541 67.606 67.686 67.751 67.786 67.796 67.761 67.853 68.771 68.911 69.621 69.658 69.566 69.458 69.513 69.538 69.638 69.671 69.706 69.741 69.776 69.836 69.908 69.966 70.023 70.126 70.191 70.288 70.373 70.448 70.551 70.646 70.731 70.821 70.881 70.948 71.008 71.048 71.093 71.136 71.133 71.136 71.138 71.108 71.046 71.028 70.986 70.946 70.868 70.761 70.663 71.493 70.341 70.368 70.361 70.388 70.396 70.446 70.486 70.578 70.688 70.836 71.016 71.156 71.293 71.433 71.581 71.703 71.818 71.898 71.976 72.961 73.456 72.121 72.966 74.441 74.518 74.581 74.451 73.923 73.956 73.738 73.881 73.736 73.726 73.688 73.601 73.691 73.708 73.773 73.746 73.788 73.821 73.838 73.881 73.903 73.931 73.983 74.033 74.078 74.143 74.166 74.206 74.261 74.341 74.398 74.461 74.536 74.603 74.651 74.736 74.796 74.866 74.921 74.998 75.048 75.108 75.153 75.223 75.276 75.313 75.346 75.393 75.413 75.458 75.511 75.533 75.563 75.606 75.613 75.678 75.711 75.771 75.868 75.976 75.951 77.371 76.411 76.236 76.268 76.261 76.218 76.301 76.268 76.216 76.256 76.223 76.196 76.206 76.298 76.343 76.291 76.273 76.258 76.231 76.156 76.161 76.093 76.063 75.998 75.986 75.978 75.846 75.808 75.743 75.663 75.573 75.486 75.378 75.251 75.121 74.928 74.806 74.641 74.421 74.256 74.106 74.326 73.676 74.176 72.431 71.596 72.221 71.526 70.526 69.326 68.603 68.056 67.466 66.933 66.428 65.911 65.463 64.998 64.553 64.068 63.798 63.431 63.106 62.921 62.721 62.501 62.268 62.101 61.948
36.968 37.846 37.051 37.788 39.296 40.403 40.891 38.638 38.618 38.641 43.868 42.081 41.926 42.266 42.161 42.321 42.378 42.638 42.863 43.021 43.373 44.263 45.408 46.983 51.306 50.693 44.836 45.023 49.391 52.656 53.333 54.083 54.733 53.703 52.556 46.598 47.178 47.948 47.483 55.241 56.291 55.783 55.271 54.753 49.656 48.698 51.861 49.241 49.031 49.866 50.083 50.436 50.638 51.113 51.241 51.041 51.226 51.546 52.183 53.058 53.238 53.293 52.883 53.008 52.883 53.028 53.081 53.093 53.276 53.393 53.491 53.466 53.591 53.711 53.833 53.978 54.121 54.213 54.333 54.448 54.561 54.686 54.783 54.933 55.126 55.263 55.471 55.541 56.016 55.593 55.413 56.038 56.396 56.616 56.748 56.816 56.893 56.983 57.061 57.141 57.961 58.406 58.418 58.268 57.876 57.211 57.316 58.003 58.618 58.581 57.626 57.718 57.906 58.816 58.413 59.833 65.953 66.483 61.043 64.421 66.048 59.751 58.961 58.948 61.713 61.438 61.548 61.833 59.943 59.391 59.521 59.568 59.696 59.811 59.958 60.308 60.201 59.983 60.311 63.011 63.653 60.978 60.798 60.636 61.031 62.963 61.963 61.986 61.968 61.941 61.903 61.858 61.806 61.751 61.693 61.631 61.601 61.543 61.473 61.443 61.391 61.321 63.353 64.246 64.556 62.878 63.041 63.028 63.071 63.123 63.151 63.181 63.256 63.326 63.363 63.426 63.518 64.198 67.653 63.906 63.986 64.063 64.113 64.176 64.248 64.248 64.191 64.193 64.193 67.588 67.371 66.846 66.753 66.748 66.753 64.116 64.496 66.368 65.366 65.768 66.041 66.161 66.251 66.756 66.521 66.563 66.648 66.771 66.876 66.928 66.988 67.098 67.176 67.296 67.401 67.471 67.511 67.568 67.616 67.646 67.651 67.643 67.628 67.596 68.251 68.801 69.248 69.608 69.368 69.251 69.236 69.306 69.361 69.456 69.503 69.536 69.581 69.638 69.713 69.763 69.866 69.928 69.991 70.081 70.153 70.253 70.331 70.383 70.431 70.488 70.518 70.548 70.568 70.578 70.568 70.581 70.536 70.476 70.406 70.358 70.308 70.251 70.161 70.036 70.883 69.738 69.796 69.798 69.831 69.841 69.898 69.958 70.066 70.183 70.331 70.491 70.636 70.806 70.956 71.093 71.228 71.358 71.476 71.546 71.633 71.673 71.681 71.731 71.766 71.763 73.096 74.196 73.066 73.023 73.778 73.796 73.728 73.578 73.303 73.333 73.258 73.376 73.321 73.338 73.266 73.366 73.448 73.516 73.548 73.503 73.543 73.541 73.598 73.633 73.681 73.703 73.731 73.806 73.866 73.923 74.006 74.061 74.116 74.171 74.236 74.308 74.343 74.423 74.481 74.548 74.576 74.633 74.673 74.733 74.778 74.813 74.843 74.888 74.921 74.926 74.948 74.981 75.028 75.043 75.111 75.176 75.283 75.393 75.321 76.666 75.698 75.613 75.661 75.628 75.588 75.681 75.628 75.616 75.628 75.616 75.563 75.588 75.701 75.731 75.671 75.668 75.633 75.601 75.558 75.516 75.501 75.466 75.408 75.398 75.331 75.251 75.206 75.158 75.056 74.988 74.893 74.758 74.648 74.541 74.361 74.238 74.043 73.843 73.651 73.603 73.873 74.838 72.066 71.828 71.371 72.498 72.111 72.246 70.328 72.766 73.978 67.016 66.433 65.958 65.443 64.981 64.588 64.151 63.733 63.356 63.028 62.738 62.456 62.303 62.158 61.993 61.793 61.686
44.261 39.246 39.113 39.363 40.181 41.123 39.916 39.508 38.733 38.533 38.566 41.286 42.931 43.548 42.441 41.918 42.131 42.348 42.543 42.726 42.951 44.156 44.261 44.253 45.703 44.683 44.456 45.148 45.153 44.936 52.231 52.933 53.691 52.988 49.681 46.216 47.106 46.723 55.448 55.823 56.798 57.046 56.508 55.991 55.466 54.928 53.908 51.886 51.871 49.073 50.181 50.216 50.478 51.158 50.493 50.613 50.851 51.098 51.783 52.551 52.773 52.983 53.411 53.648 53.638 53.258 53.911 53.413 52.896 52.993 52.893 52.921 53.126 53.313 53.431 53.568 53.711 53.838 53.906 54.038 54.126 54.261 54.388 54.508 54.716 54.806 54.926 55.026 55.131 55.723 55.101 55.043 55.966 56.216 56.428 56.566 56.696 56.823 56.948 57.008 57.893 58.116 57.748 57.168 56.543 57.213 57.728 57.878 59.398 57.236 57.211 57.998 58.786 60.028 58.191 58.043 62.933 67.511 67.623 62.513 61.901 58.901 58.903 58.873 58.913 58.941 61.788 58.998 59.048 59.091 59.073 59.256 59.521 59.401 59.516 59.686 59.933 59.893 59.801 59.873 62.473 63.821 60.971 60.538 60.393 60.258 62.841 61.861 61.641 61.638 61.621 61.628 61.581 61.523 61.481 61.398 61.293 61.271 61.203 61.166 61.108 62.286 62.506 60.971 61.481 61.941 62.491 62.713 62.768 62.838 62.878 62.971 63.021 63.048 63.061 63.091 63.161 63.278 63.461 63.586 63.691 63.771 63.841 63.938 64.066 64.123 64.136 64.233 67.031 68.073 68.408 67.853 67.333 66.811 65.831 64.166 64.278 64.793 65.148 65.428 66.098 65.856 65.931 66.181 66.236 66.291 66.358 66.451 66.573 66.648 66.736 66.833 66.933 67.001 67.121 67.158 67.201 67.241 67.301 67.348 67.388 67.438 67.461 67.491 67.491 67.486 67.446 67.411 68.493 68.656 69.096 69.156 69.188 69.113 69.093 69.166 69.241 69.341 69.383 69.426 69.483 69.551 69.601 69.656 69.718 69.793 69.878 69.906 69.953 70.003 70.026 70.033 70.063 70.046 70.028 70.021 69.986 69.928 69.841 69.776 69.713 69.651 69.583 69.468 70.481 69.213 69.231 69.248 69.273 69.318 69.378 69.461 69.543 69.683 69.823 69.963 70.138 70.296 70.446 70.603 70.728 70.856 70.976 71.048 71.116 71.168 71.238 71.298 71.341 71.393 71.433 71.461 71.473 71.481 73.273 73.463 73.673 73.603 73.221 73.396 73.243 73.076 72.893 73.003 72.948 72.871 73.066 73.806 73.576 73.263 73.126 73.116 73.161 73.176 73.186 73.221 73.243 73.293 73.321 73.398 73.483 73.521 73.576 73.628 73.691 73.778 73.816 73.861 73.921 73.986 74.041 74.083 74.123 74.161 74.198 74.238 74.273 74.301 74.331 74.348 74.341 74.376 74.398 74.443 74.498 74.581 74.688 74.788 74.771 76.168 75.043 74.973 75.036 74.986 74.953 75.038 74.963 74.958 75.006 74.951 74.913 74.983 75.033 75.056 75.006 74.988 74.963 74.988 74.938 74.938 74.881 74.871 74.793 74.786 74.731 74.673 74.631 74.561 74.451 74.381 74.283 74.173 74.051 73.926 73.761 73.648 73.453 73.221 73.088 73.371 73.548 72.408 71.516 70.928 70.888 71.058 71.796 71.211 70.483 69.556 74.993 72.513 70.936 65.488 65.026 64.566 64.098 63.736 63.353 62.978 62.641 62.366 62.103 61.883 61.786 61.643 61.563 61.703
45.468 44.528 41.603 39.868 41.118 40.173 39.503 39.516 39.508 39.748 38.463 38.496 38.861 41.588 41.406 41.556 41.808 42.018 42.511 42.326 42.683 42.858 43.736 44.106 43.881 43.381 43.668 44.531 45.153 45.141 44.941 47.863 52.536 52.286 45.901 46.551 46.048 46.196 51.988 55.026 55.633 56.101 56.621 57.076 56.858 56.158 55.618 55.126 54.598 49.008 49.346 50.143 50.383 49.866 49.886 50.188 50.341 50.576 50.691 51.026 51.153 51.318 51.453 51.988 52.403 53.021 53.271 53.346 52.716 52.341 52.348 52.503 52.663 52.873 53.031 53.151 53.263 53.378 53.463 53.588 53.743 53.853 53.958 54.061 54.193 54.313 54.461 54.566 54.706 54.858 55.188 54.798 54.948 55.673 56.011 56.236 56.433 56.633 56.741 56.813 57.238 57.616 56.251 55.888 57.178 57.131 56.356 55.793 56.748 56.968 56.943 56.971 57.221 57.891 58.061 57.716 57.991 60.136 64.893 69.593 61.843 58.896 58.816 58.833 59.793 59.836 58.941 58.936 58.816 58.441 58.711 58.746 58.811 58.793 58.903 59.093 59.103 59.273 59.393 59.431 59.661 59.916 63.553 62.721 60.336 60.153 59.998 61.401 60.378 61.356 61.351 61.371 61.391 61.328 61.263 61.271 61.078 60.986 60.948 60.896 60.846 63.081 60.788 60.753 60.726 60.773 61.383 61.976 62.348 62.536 62.596 62.641 62.686 62.741 62.801 62.821 62.916 63.011 63.113 63.216 63.301 63.431 63.536 63.646 63.781 63.916 64.001 66.773 67.551 68.581 69.401 68.883 68.368 67.863 67.323 64.188 64.436 64.891 65.068 65.333 65.626 65.686 65.701 65.796 65.918 65.981 66.053 66.118 66.253 66.366 66.466 66.551 66.628 66.701 66.781 66.806 66.848 66.888 66.946 66.991 67.056 67.113 67.146 67.196 67.218 67.258 67.271 67.268 67.266 67.213 67.186 67.126 67.996 68.751 68.901 69.063 69.318 69.046 68.983 69.033 69.126 69.203 69.286 69.318 69.361 69.416 69.468 69.481 69.528 69.523 69.548 69.566 69.566 69.538 69.518 69.506 69.463 69.393 69.308 69.236 69.138 69.116 69.056 69.101 68.828 68.721 68.706 68.721 68.746 68.791 68.853 68.913 69.051 69.168 69.321 69.471 69.623 69.783 69.946 70.113 70.246 70.318 70.446 70.531 70.626 70.681 70.741 70.813 70.886 70.913 70.993 71.026 71.068 71.101 71.101 71.106 71.088 71.663 71.508 72.126 72.676 72.691 72.828 72.973 72.893 72.706 72.613 72.723 72.781 72.663 72.753 72.706 72.726 72.733 72.726 72.731 72.753 72.793 72.836 72.876 72.948 72.998 73.038 73.101 73.153 73.216 73.266 73.328 73.398 73.456 73.498 73.546 73.581 73.611 73.636 73.656 73.691 73.693 73.741 73.766 73.753 73.783 73.808 73.851 73.913 73.988 74.108 74.216 74.496 75.671 74.363 74.356 74.403 74.333 74.323 74.401 74.318 74.351 74.381 74.311 74.301 74.333 74.406 74.391 74.368 74.366 74.338 74.358 74.346 74.311 74.236 74.258 74.216 74.178 74.143 74.068 74.008 73.951 73.851 73.788 73.708 73.563 73.408 73.296 73.176 73.026 72.876 72.646 72.488 72.638 72.966 71.866 71.258 70.446 70.568 70.458 69.183 70.076 69.303 68.806 68.361 72.946 72.296 67.806 64.593 64.103 63.666 63.343 62.916 62.596 62.253 61.998 61.753 61.531 61.316 61.271 61.311 61.136
46.646 45.676 44.678 43.483 40.366 39.506 37.366 37.418 39.468 39.496 38.428 38.396 38.418 38.443 39.118 41.183 41.408 41.656 41.971 40.926 41.958 42.743 42.833 42.831 43.691 42.963 43.158 43.398 43.711 45.138 44.773 45.071 45.641 45.408 45.256 46.588 45.566 45.861 47.306 54.476 49.533 54.873 55.373 55.906 56.416 56.948 56.818 55.623 50.673 48.931 49.101 49.778 49.426 49.353 49.576 49.973 50.198 50.211 50.358 50.536 50.671 50.863 51.016 51.196 51.316 51.491 51.638 51.791 51.711 51.756 51.906 52.156 52.313 52.413 52.518 52.616 52.758 52.881 53.016 53.136 53.271 53.378 53.503 53.613 53.731 53.831 54.008 54.151 54.243 54.411 54.733 54.636 54.436 54.933 55.461 55.851 56.161 56.341 56.456 56.501 56.596 57.883 55.876 56.206 55.488 57.056 55.706 55.416 55.611 56.363 56.458 56.583 56.918 57.546 57.703 57.478 57.276 58.998 62.781 63.743 58.088 59.228 58.961 58.793 58.883 59.058 58.806 58.691 59.498 57.628 57.628 58.336 58.031 58.433 58.656 58.828 59.911 59.136 58.841 58.823 58.786 59.138 58.996 59.906 60.213 60.028 59.928 59.751 59.603 61.971 62.106 61.053 61.113 61.093 61.061 60.963 60.861 60.723 60.646 60.541 61.436 60.611 60.578 60.556 60.516 60.536 60.651 61.271 61.466 62.033 62.248 62.353 62.386 62.436 62.521 65.906 62.638 62.723 62.833 62.866 62.951 63.058 63.173 63.316 63.388 64.121 63.871 67.226 67.791 68.363 68.481 68.978 69.351 68.333 67.278 64.236 64.578 64.783 64.913 65.026 65.151 65.258 65.386 65.486 65.531 65.613 65.713 65.796 65.903 66.041 66.156 66.261 66.291 66.381 66.448 66.473 66.506 66.533 66.583 66.641 66.693 66.733 66.778 66.823 66.863 66.918 66.968 66.988 66.986 66.961 66.926 66.878 66.781 66.648 66.566 67.451 68.278 68.513 68.973 68.938 69.023 69.021 68.916 68.946 68.988 69.071 68.993 69.183 69.176 69.166 69.168 69.173 69.146 69.106 69.063 69.011 68.948 68.883 68.811 68.718 68.633 68.616 68.551 69.338 68.418 68.233 68.196 68.218 68.246 68.293 68.363 68.448 68.556 68.678 68.836 68.988 69.138 69.296 69.436 69.573 69.711 69.816 69.956 69.996 70.083 70.161 70.246 70.311 70.401 70.438 70.498 70.543 70.601 70.611 70.643 70.653 70.663 70.683 70.683 70.716 70.731 71.103 71.383 72.711 72.133 72.426 72.676 72.536 72.733 72.808 72.513 72.421 72.358 72.338 72.313 72.311 72.328 72.346 72.383 72.411 72.456 72.498 72.546 72.593 72.646 72.686 72.746 72.801 72.851 72.906 72.928 72.988 73.008 73.041 73.078 73.103 73.108 73.128 73.151 73.186 73.161 73.191 73.201 73.241 73.303 73.393 73.523 73.611 74.628 75.808 73.733 73.711 73.746 73.656 73.683 73.721 73.658 73.686 73.721 73.621 73.623 73.688 73.733 73.728 73.756 73.726 73.721 73.706 73.693 73.691 73.636 73.616 73.608 73.556 73.511 73.461 73.406 73.338 73.258 73.148 73.056 72.953 72.811 72.688 72.558 72.413 72.221 72.031 71.868 72.093 72.091 72.003 70.428 70.338 69.851 68.931 68.246 68.808 68.291 68.093 67.443 66.586 67.016 71.433 67.733 63.601 63.223 62.843 62.486 62.161 61.896 61.601 61.391 61.176 61.043 60.961 60.843 60.821
45.941 46.818 45.873 44.888 43.951 37.036 37.083 37.108 37.628 38.351 38.511 38.191 38.511 38.338 38.356 38.366 41.513 41.311 40.061 41.778 41.868 41.953 42.163 42.496 42.603 42.506 42.708 43.056 43.791 43.521 43.958 44.868 45.051 44.318 46.048 44.946 45.513 45.398 45.406 45.846 48.463 48.496 51.166 54.458 55.178 55.696 56.213 55.121 51.451 48.731 49.141 48.583 48.881 48.973 49.496 49.671 49.548 49.758 49.881 50.003 50.183 50.391 50.598 50.728 50.838 50.961 51.108 51.206 51.151 51.308 51.476 51.721 51.873 51.943 51.901 52.038 52.183 52.286 52.508 52.651 52.773 52.878 53.008 53.113 53.238 53.388 53.538 53.638 53.781 53.921 54.036 54.408 54.111 54.028 54.728 55.428 55.686 55.871 56.013 56.051 56.363 57.173 55.563 55.428 58.251 59.183 58.088 58.346 58.698 58.308 57.951 55.486 56.616 57.053 57.188 57.213 56.956 56.761 61.911 64.396 58.691 57.838 58.918 58.778 58.758 58.893 58.926 59.558 57.593 57.503 57.508 58.483 57.943 57.866 58.121 59.133 58.958 58.493 58.211 58.411 58.081 58.108 58.171 59.128 58.731 59.241 59.743 59.736 59.551 59.453 59.308 61.898 61.376 60.803 60.776 60.686 60.628 60.568 60.513 61.093 62.473 60.316 60.338 60.341 60.296 60.296 60.311 60.841 61.173 61.811 61.521 61.916 62.113 62.163 62.213 62.261 62.328 62.436 62.523 62.586 62.648 62.718 62.838 63.013 63.223 66.686 67.673 68.223 68.498 67.908 67.468 68.331 68.516 67.803 64.281 64.256 64.448 64.541 64.626 64.696 64.796 64.906 65.056 65.131 65.181 65.246 65.336 65.446 65.543 65.638 65.768 65.878 65.938 66.021 66.098 66.113 66.141 66.171 66.223 66.253 66.303 66.323 66.373 66.421 66.463 66.508 66.531 66.561 66.548 66.518 66.486 66.448 66.396 66.373 66.376 66.376 66.403 66.426 66.396 66.666 68.213 68.386 68.633 69.111 68.868 68.766 68.721 68.741 68.758 68.818 68.833 68.806 68.773 68.713 68.636 68.576 68.488 68.421 68.341 68.238 68.153 68.118 67.986 68.881 67.696 67.741 67.741 67.738 67.761 67.808 67.868 67.973 68.093 68.211 68.351 68.466 68.601 68.756 68.903 69.046 69.168 69.286 69.393 69.443 69.553 69.626 69.713 69.786 69.868 69.923 69.993 70.051 70.076 70.098 70.128 70.151 70.183 70.208 70.243 70.258 70.303 70.296 70.276 70.528 70.541 70.573 71.178 71.553 72.201 71.933 72.466 72.293 72.233 72.178 72.078 71.818 71.968 71.971 71.951 71.991 72.003 72.021 72.068 72.118 72.156 72.191 72.238 72.281 72.328 72.368 72.386 72.433 72.478 72.496 72.528 72.556 72.568 72.571 72.586 72.578 72.586 72.596 72.608 72.666 72.731 72.828 72.951 73.033 74.206 74.918 73.071 73.043 73.058 72.978 73.018 73.071 73.041 73.026 73.066 72.993 73.016 73.011 73.068 73.083 73.078 73.066 73.078 73.091 73.096 73.013 72.996 72.973 72.968 72.943 72.901 72.866 72.788 72.723 72.643 72.521 72.426 72.351 72.208 72.071 71.911 71.761 71.611 71.418 71.258 71.386 71.493 70.048 70.001 69.853 68.793 68.831 69.028 68.803 67.391 67.308 66.238 65.483 64.811 69.473 68.326 63.298 62.771 62.408 62.116 61.736 61.503 61.313 61.078 60.908 61.061 60.616 60.576 60.693
46.223 45.733 46.733 46.083 45.126 44.163 37.626 37.131 38.398 38.413 39.208 37.726 38.263 39.248 38.231 38.251 38.288 38.366 38.351 40.621 41.763 41.841 41.786 41.978 41.951 42.041 42.381 42.646 42.893 42.711 43.528 43.681 43.816 45.256 44.183 44.463 44.538 44.958 45.361 45.403 45.671 47.098 48.426 46.636 46.671 52.256 55.006 54.623 47.808 48.721 47.981 47.836 48.306 48.788 49.173 49.168 49.093 49.268 49.378 49.511 49.686 49.888 50.063 50.171 50.306 50.446 50.536 50.633 50.691 50.793 51.061 51.203 51.336 51.333 51.408 51.513 51.733 51.898 52.043 52.181 52.243 52.393 52.491 52.646 52.786 52.933 53.073 53.168 53.313 53.461 53.581 53.658 54.161 53.716 53.771 54.643 55.418 55.528 55.628 55.511 57.978 55.011 57.898 58.148 58.386 59.031 59.098 59.056 58.721 59.048 59.113 58.756 55.883 56.388 56.496 56.673 56.716 56.493 56.348 61.691 63.808 63.328 57.423 58.511 58.623 58.721 59.403 57.456 57.408 57.591 57.436 57.521 57.541 57.401 57.561 57.513 57.581 57.748 57.771 57.701 57.608 57.746 57.903 60.736 57.481 57.363 58.636 58.896 59.441 59.383 59.228 59.158 59.086 61.176 61.513 60.471 60.408 60.386 61.021 62.291 61.458 60.193 60.158 60.143 60.123 60.113 60.081 60.293 60.698 60.898 60.306 60.723 61.451 61.776 61.951 62.028 62.061 62.126 62.173 62.238 62.353 62.426 62.511 62.648 62.806 63.451 67.668 68.053 67.466 67.208 67.221 68.163 67.973 67.276 63.903 64.023 64.133 64.188 64.256 64.381 64.401 64.511 64.686 64.746 64.781 64.858 64.966 65.088 65.203 65.263 65.363 65.486 65.551 65.618 65.686 65.713 65.736 65.773 65.836 65.876 65.931 65.923 65.961 66.018 66.023 66.043 66.066 66.066 66.068 66.033 65.988 65.968 65.953 65.953 65.978 66.013 66.068 66.131 66.211 66.271 66.313 66.371 66.398 66.533 67.898 68.511 68.243 68.548 68.508 68.618 68.438 68.353 68.366 68.323 68.288 68.181 68.063 67.943 67.866 67.771 67.636 67.571 67.428 68.083 67.188 67.246 67.258 67.268 67.281 67.343 67.418 67.536 67.618 67.743 67.896 67.993 68.108 68.243 68.361 68.491 68.616 68.728 68.846 68.891 68.988 69.088 69.168 69.246 69.336 69.403 69.466 69.503 69.553 69.596 69.618 69.643 69.673 69.721 69.753 69.763 69.828 69.821 69.833 69.883 69.951 69.983 70.023 70.028 70.773 70.488 72.408 71.921 71.941 71.933 71.968 71.746 71.808 71.788 71.576 71.586 71.593 71.661 71.676 71.711 71.736 71.753 71.778 71.816 71.831 71.861 71.863 71.896 71.921 71.963 71.956 71.991 72.001 72.011 72.018 72.008 72.018 72.013 72.031 72.073 72.138 72.271 72.428 72.463 73.878 72.533 72.366 72.348 72.398 72.308 72.376 72.393 72.361 72.353 72.376 72.341 72.331 72.363 72.418 72.431 72.441 72.451 72.411 72.396 72.418 72.371 72.381 72.363 72.348 72.308 72.256 72.201 72.133 72.073 71.986 71.901 71.783 71.698 71.586 71.441 71.311 71.168 70.976 70.811 70.656 70.441 70.838 69.076 69.913 68.988 68.328 67.683 68.621 66.448 66.341 65.806 65.118 64.821 64.308 63.783 63.266 62.828 62.391 62.013 61.661 61.466 61.131 60.966 60.808 60.676 60.526 60.381 60.513 60.946
41.193 44.566 45.581 46.463 46.303 45.348 44.383 37.786 37.258 39.166 37.528 37.731 38.443 40.383 41.121 38.158 38.168 38.203 38.211 38.276 38.556 42.046 41.753 41.391 41.591 41.781 42.086 42.621 42.423 42.541 43.911 43.743 43.731 43.523 44.131 44.266 44.346 44.383 44.478 44.846 45.198 46.766 45.428 46.098 47.096 46.643 46.681 46.913 47.988 47.743 47.158 47.366 47.553 47.878 48.446 49.376 49.381 48.938 49.133 49.291 49.336 49.418 49.578 49.771 49.861 49.963 50.013 50.098 50.198 50.263 50.531 50.668 50.801 50.906 50.926 51.106 51.366 51.448 51.603 51.648 51.721 51.821 51.953 52.106 52.233 52.396 52.526 52.628 52.826 52.963 53.166 53.261 53.456 53.438 53.296 53.901 54.503 54.941 55.391 55.831 57.118 54.896 54.426 55.031 59.058 58.638 58.406 56.838 55.876 56.503 58.221 58.423 57.206 55.783 55.901 56.116 56.128 56.368 56.131 56.003 61.398 63.021 61.888 58.196 58.261 57.818 60.761 57.381 57.328 57.391 57.406 57.303 57.023 59.978 58.381 57.156 57.211 57.146 57.236 57.471 57.366 57.431 57.028 60.653 57.323 57.341 57.331 59.108 58.138 58.708 59.286 59.076 58.953 58.871 58.793 59.718 61.398 61.031 60.126 61.786 60.396 60.018 59.968 59.961 59.956 59.931 59.871 59.886 62.398 60.868 60.591 59.668 60.121 60.708 61.356 61.628 61.753 61.808 61.866 61.933 61.998 62.078 62.193 62.326 62.493 62.618 66.943 66.578 65.786 67.183 67.208 68.083 68.053 65.066 63.553 63.681 63.711 63.831 63.948 64.051 64.058 64.143 64.251 64.373 64.416 64.476 64.586 64.718 64.788 64.858 64.951 65.026 65.106 65.191 65.238 65.271 65.318 65.361 65.398 65.453 65.478 65.526 65.541 65.566 65.578 65.573 65.571 65.543 65.556 65.516 65.481 65.486 65.463 65.476 65.511 65.601 65.673 65.756 65.848 65.918 66.001 66.058 66.143 66.178 66.211 66.226 66.196 66.216 66.473 67.046 67.653 67.736 68.063 68.086 67.963 67.668 67.696 67.586 67.508 67.373 67.228 67.061 66.798 66.916 66.618 66.723 66.786 66.833 66.861 66.933 66.991 67.066 67.178 67.311 67.433 67.531 67.621 67.728 67.866 67.966 68.081 68.176 68.266 68.343 68.428 68.536 68.631 68.686 68.773 68.858 68.923 68.973 69.001 69.051 69.086 69.111 69.151 69.208 69.248 69.293 69.323 69.323 69.343 69.406 69.473 69.481 69.516 69.556 69.583 69.566 69.581 70.313 70.476 72.153 71.156 71.551 71.538 71.201 71.198 71.403 71.426 71.498 71.421 71.418 71.386 71.406 71.398 71.401 71.428 71.431 71.431 71.448 71.441 71.446 71.441 71.448 71.453 71.453 71.448 71.458 71.448 71.456 71.458 71.521 71.591 71.721 71.861 71.886 72.918 71.808 71.676 71.688 71.696 71.643 71.716 71.706 71.666 71.696 71.681 71.653 71.631 71.693 71.758 71.788 71.788 71.763 71.746 71.756 71.738 71.718 71.738 71.681 71.683 71.666 71.633 71.583 71.523 71.463 71.346 71.261 71.158 71.053 70.993 70.813 70.681 70.556 70.361 70.196 70.043 70.218 70.021 69.768 68.751 68.458 67.896 67.238 66.638 66.201 65.806 65.261 64.753 65.668 63.753 63.313 62.826 62.416 61.986 61.661 61.328 60.976 60.786 60.706 60.493 60.393 60.348 60.383 60.743 60.558
37.568 43.146 46.251 45.328 46.293 46.471 45.538 37.486 41.298 43.228 37.386 37.448 40.116 40.991 40.491 39.746 38.068 38.108 38.116 38.111 38.178 41.116 42.533 41.026 41.196 41.383 41.726 41.993 42.198 42.251 42.403 42.758 42.923 46.368 44.843 44.123 44.176 44.251 44.301 44.573 46.556 45.076 45.168 45.291 45.391 46.546 46.613 47.318 47.048 46.586 46.821 47.078 47.308 47.393 47.501 48.316 48.896 49.436 49.503 49.148 49.088 49.196 49.276 49.356 49.506 49.581 49.733 49.731 49.663 49.766 49.996 50.128 50.233 50.388 50.548 50.753 50.918 50.923 50.926 51.088 51.216 51.356 51.441 51.593 51.751 51.891 52.043 52.158 52.356 52.541 52.663 52.776 52.921 53.201 52.973 52.853 53.731 54.881 54.233 54.063 56.493 54.096 54.141 54.218 56.763 54.606 54.606 54.798 54.663 54.663 54.698 54.776 58.113 55.246 55.311 55.481 55.538 55.613 55.651 55.808 55.596 55.643 60.578 58.718 56.833 57.086 59.193 59.103 58.823 57.268 57.181 57.193 57.548 56.936 56.931 61.953 57.273 56.936 57.111 57.168 56.971 56.853 56.701 60.228 56.851 56.941 57.003 56.896 58.173 61.373 57.746 58.183 58.751 58.798 58.711 58.641 58.578 58.526 60.991 61.178 60.863 59.891 59.798 59.776 59.763 59.743 59.671 62.068 62.778 60.886 60.628 60.606 60.543 60.693 60.711 60.631 61.181 61.361 61.543 61.646 61.728 61.781 61.876 61.981 62.108 62.246 63.418 64.473 64.513 64.658 66.123 67.956 68.216 65.653 63.178 63.273 63.358 63.471 63.588 63.691 63.741 63.761 63.858 64.003 64.068 64.128 64.211 64.298 64.358 64.406 64.468 64.538 64.643 64.688 64.718 64.768 64.813 64.868 64.911 64.956 64.983 65.041 65.043 65.071 65.073 65.063 65.036 65.013 65.013 64.973 64.973 64.976 64.971 65.001 65.071 65.161 65.243 65.326 65.418 65.498 65.586 65.653 65.738 65.803 65.878 65.918 65.953 65.983 65.981 65.951 65.893 65.826 65.923 66.468 67.483 67.478 67.631 67.493 67.178 67.013 66.908 66.776 66.546 66.358 66.303 66.333 66.383 66.426 66.448 66.498 66.568 66.653 66.751 66.846 66.961 67.066 67.181 67.268 67.351 67.423 67.526 67.638 67.691 67.803 67.878 67.958 68.038 68.113 68.201 68.293 68.353 68.418 68.448 68.511 68.548 68.581 68.631 68.696 68.726 68.793 68.813 68.798 68.848 68.898 68.948 68.963 68.983 69.018 69.061 69.066 69.061 69.096 69.103 69.093 69.066 69.033 69.663 70.248 70.988 70.711 71.853 70.578 70.683 71.353 71.158 71.206 71.243 71.061 70.996 71.048 71.091 71.076 71.018 70.993 70.988 70.988 70.976 70.948 70.921 70.906 70.928 70.923 70.936 70.986 71.086 71.218 71.323 71.403 72.266 71.081 70.973 70.993 71.006 70.938 71.066 71.026 70.991 71.023 71.006 70.983 70.978 71.073 71.106 71.093 71.113 71.133 71.088 71.088 71.051 71.061 71.063 71.023 71.058 71.036 70.988 70.938 70.853 70.776 70.713 70.611 70.531 70.423 70.363 70.141 70.056 69.886 69.748 69.563 69.391 69.533 69.726 68.901 68.493 67.671 67.206 66.546 66.041 66.253 65.281 64.756 64.221 63.698 63.153 62.783 62.388 61.978 61.568 61.178 60.913 60.803 60.556 60.396 60.321 60.401 60.576 60.506 60.408 60.501
36.458 36.821 43.333 44.143 45.141 46.043 42.331 37.101 46.193 45.263 44.316 38.836 40.708 40.696 39.886 37.588 38.193 38.008 37.993 38.001 38.023 39.513 40.568 40.706 40.896 41.206 41.318 45.371 46.991 43.543 42.221 43.771 42.431 45.301 44.691 44.091 44.051 44.071 44.128 45.786 45.071 44.906 45.043 45.171 45.258 45.726 46.466 47.896 46.501 46.188 46.456 46.753 46.991 47.126 47.188 47.216 47.493 48.251 48.901 49.456 49.498 49.033 49.051 49.098 49.101 49.226 49.256 49.311 49.248 49.343 49.466 49.606 49.731 49.838 50.051 50.378 50.291 50.431 50.438 50.543 50.658 50.813 50.976 51.131 51.246 51.356 51.538 51.688 51.861 52.023 52.188 52.333 52.511 52.643 52.753 52.576 52.716 54.596 54.001 54.063 54.208 53.873 53.883 53.891 53.913 54.363 54.513 54.526 54.651 54.668 54.623 57.051 55.716 54.646 54.751 54.806 54.938 54.951 54.956 55.048 55.503 55.141 55.628 57.296 58.198 60.268 58.798 56.731 58.031 58.798 58.681 56.891 56.946 57.138 56.911 56.761 56.791 56.641 56.298 56.276 56.471 56.138 57.558 57.418 56.571 56.613 56.666 56.746 56.698 58.483 58.016 57.946 57.158 57.878 58.473 58.551 58.511 58.458 58.446 58.401 58.683 60.396 61.006 60.953 59.683 59.601 59.481 62.313 62.421 60.683 60.663 60.586 60.583 58.568 61.171 61.396 60.823 60.326 60.856 61.201 61.393 61.466 61.548 61.671 61.776 61.878 62.061 62.441 64.576 64.518 64.503 67.613 67.506 66.893 62.826 62.908 62.996 63.063 63.173 63.256 63.246 63.296 63.361 63.538 63.686 63.696 63.741 63.833 63.906 63.998 64.038 64.016 64.098 64.146 64.193 64.246 64.281 64.343 64.383 64.396 64.443 64.476 64.488 64.493 64.506 64.501 64.471 64.483 64.478 64.498 64.473 64.501 64.523 64.578 64.653 64.741 64.818 64.891 64.966 65.043 65.118 65.198 65.271 65.338 65.413 65.471 65.523 65.576 65.583 65.596 65.591 65.568 65.511 65.441 65.438 65.443 66.511 67.931 67.158 66.956 66.618 66.276 66.123 66.601 66.246 66.071 66.086 66.101 66.098 66.123 66.176 66.246 66.318 66.418 66.521 66.613 66.713 66.791 66.863 66.941 67.033 67.131 67.156 67.256 67.321 67.396 67.491 67.563 67.646 67.706 67.776 67.831 67.886 67.916 67.991 68.046 68.106 68.143 68.178 68.258 68.261 68.273 68.321 68.363 68.391 68.408 68.443 68.486 68.511 68.508 68.516 68.533 68.551 68.561 68.546 68.493 68.473 68.711 69.946 68.686 68.646 68.773 70.376 69.971 71.953 69.961 72.821 73.381 71.528 72.446 71.303 70.851 70.571 70.606 70.611 70.593 70.536 70.488 70.443 70.436 70.476 70.421 70.443 70.536 70.613 70.746 70.801 70.896 70.991 70.408 70.261 70.303 70.303 70.263 70.383 70.336 70.318 70.348 70.326 70.288 70.323 70.393 70.456 70.426 70.413 70.456 70.401 70.421 70.373 70.411 70.396 70.363 70.376 70.388 70.351 70.276 70.196 70.138 70.086 69.991 69.858 69.783 69.698 69.526 69.391 69.231 69.063 68.888 68.731 69.478 69.948 70.981 68.733 67.121 66.786 65.898 65.593 65.238 64.683 64.116 63.691 63.296 62.763 62.186 61.821 61.501 61.096 60.913 60.553 60.363 60.378 60.401 60.423 61.831 66.503 69.423 65.793 59.348
