ncols 407
nrows 32
xllcorner    249162
yllcorner    139110
cellsize     2
NODATA_value -9999
48.151 47.243 45.688 45.888 44.331 43.496 42.416 59.178 60.293 57.913 61.151 58.181 47.336 42.431 44.696 40.091 39.986 39.961 39.958 39.918 39.953 39.913 39.951 40.006 40.011 40.088 40.816 41.596 41.288 41.147 41.062 40.268 40.231 40.258 40.307 40.356 40.381 40.414 40.439 40.467 40.496 40.451 40.474 40.492 40.46 40.489 40.546 40.754 40.755 40.679 41 40.986 40.984 40.978 41.011 41.149 41.062 40.912 40.843 41 41.185 40.789 40.841 40.911 41.005 41.087 41.287 41.023 40.699 40.814 40.921 41.021 41.098 41.157 41.444 41.101 42.973 41.463 41.803 41.901 41.996 42.011 42.121 42.246 42.263 48.528 47.093 43.066 43.603 43.703 46.296 43.653 43.393 44.611 45.503 44.513 44.621 44.686 44.698 45.433 49.978 48.093 58.843 54.233 59.653 64.546 64.163 57.698 54.058 68.388 77.463 66.518 65.048 75.651 74.031 74.846 81.026 68.491 69.806 67.693 63.641 75.211 77.738 84.531 73.216 77.083 70.451 69.296 70.108 81.301 71.851 75.571 79.913 74.098 84.631 79.668 86.786 76.998 78.416 83.718 90.293 81.013 80.933 87.953 85.051 82.106 83.496 83.331 83.423 83.723 84.056 84.378 84.728 85.056 85.441 85.841 86.213 86.576 86.983 87.341 87.658 87.963 88.271 88.543 88.858 89.173 89.503 89.811 90.068 90.398 90.543 90.811 91.101 91.353 91.608 91.851 92.061 92.288 92.526 92.748 93.011 93.253 93.478 93.683 93.898 94.113 94.288 94.513 94.673 94.863 95.043 95.213 95.361 95.473 95.643 95.736 97.298 96.893 96.783 96.793 96.818 96.903 96.988 97.088 97.203 97.321 97.448 97.556 97.713 97.843 97.966 98.126 98.228 98.303 98.394 98.516 98.579 98.702 98.841 98.969 99.089 99.284 99.405 99.55 99.665 99.82 99.938 100.072 100.166 100.278 100.383 100.523 100.668 100.773 100.901 101.033 101.183 101.321 101.428 101.508 101.598 101.681 101.781 101.891 102.008 102.126 102.266 102.396 102.538 102.686 102.803 102.926 103.048 103.116 103.203 103.316 103.411 103.476 103.578 103.666 103.736 103.816 103.891 104.016 104.086 104.163 104.248 104.328 104.413 104.483 104.558 104.616 104.671 104.711 104.746 104.781 104.846 104.861 104.906 104.958 104.971 104.973 105.006 105.051 105.101 105.126 105.118 105.106 105.086 106.016 106.003 105.323 105.361 105.338 105.323 105.326 105.331 105.376 105.408 105.398 105.401 105.423 105.406 105.421 105.408 105.393 105.353 105.341 105.313 105.276 105.258 105.221 105.198 105.166 105.143 105.101 105.073 105.028 105.006 104.956 104.941 104.901 104.896 104.881 104.853 104.828 104.793 104.758 104.736 104.761 104.763 104.753 104.733 104.751 104.733 104.706 104.736 104.768 104.756 104.748 104.791 104.781 104.821 104.851 104.888 104.938 104.978 105.041 105.078 105.123 105.151 105.203 105.231 105.261 105.258 105.271 105.331 105.301 105.198 105.713 107.068 106.013 105.813 105.788 105.783 105.778 105.783 105.801 105.771 105.743 105.721 105.658 105.581 105.493 105.368 105.283 105.153 105.013 104.891 104.766 104.638 104.521 104.368 104.246 104.068 103.906 103.721 103.553 103.393 103.233 103.071 102.888 102.723 102.546 102.363 102.183 102.021 101.863 101.701 101.558 101.398 101.226 101.061 100.878 100.716 100.541 100.343
48.306 47.523 45.766 45.778 44.611 43.621 42.786 41.721 40.918 52.688 53.061 59.453 59.851 48.988 39.728 40.191 39.996 39.951 39.891 39.891 39.901 39.896 39.911 39.951 39.976 39.986 41.066 41.444 41.807 41.664 40.436 40.183 40.217 40.238 40.285 40.324 40.322 40.36 40.399 40.44 40.473 40.48 40.455 40.462 40.494 40.512 40.534 40.737 40.784 41.036 40.932 40.991 41.159 41.062 41.025 41.04 41.029 40.949 40.9 40.812 41.017 40.729 40.746 40.85 40.944 41.023 41.074 41.373 40.999 40.721 40.971 41.018 41.131 41.279 41.284 40.548 41.138 41.683 41.868 41.983 42.013 42.053 42.123 42.351 42.243 42.011 42.998 43.463 43.576 43.663 43.791 44.373 46.768 44.588 44.476 44.573 44.653 44.698 44.813 48.761 53.538 58.571 59.668 50.061 65.948 69.891 68.431 59.996 54.508 55.308 61.341 66.901 73.581 69.141 75.516 74.371 84.861 75.571 78.291 83.743 74.548 72.053 81.988 82.201 82.858 68.768 81.393 70.998 74.298 73.686 81.083 72.773 73.946 74.253 84.923 84.963 77.018 88.063 78.101 88.833 86.813 80.128 80.533 81.786 82.866 82.726 82.928 83.108 83.338 83.596 83.861 84.188 84.556 84.926 85.306 85.701 86.073 86.438 86.811 87.163 87.471 87.768 88.046 88.321 88.626 88.948 89.251 89.498 89.738 89.981 90.226 90.478 90.706 90.976 91.213 91.426 91.641 91.876 92.113 92.298 92.538 92.788 93.001 93.191 93.418 93.591 93.773 93.973 94.161 94.333 94.503 94.696 94.821 94.976 95.093 95.241 96.408 96.428 96.301 96.323 96.363 96.488 96.503 96.598 96.708 96.783 96.911 97.046 97.178 97.331 97.463 97.596 97.703 97.813 97.904 98.003 98.083 98.193 98.319 98.453 98.593 98.742 98.919 99.058 99.195 99.314 99.424 99.571 99.671 99.783 99.896 100.023 100.148 100.263 100.398 100.563 100.701 100.833 100.938 101.031 101.116 101.213 101.311 101.418 101.561 101.663 101.778 101.906 102.026 102.148 102.266 102.388 102.488 102.591 102.713 102.798 102.906 102.991 103.073 103.141 103.236 103.316 103.411 103.518 103.626 103.688 103.773 103.878 103.951 104.018 104.103 104.181 104.223 104.278 104.313 104.368 104.403 104.431 104.481 104.501 104.541 104.588 104.596 104.613 104.648 104.698 104.708 104.731 104.693 105.288 105.726 105.003 104.998 105.006 104.963 104.958 104.978 105.021 105.033 105.021 105.058 105.073 105.068 105.083 105.066 105.043 105.043 105.016 104.991 104.951 104.938 104.908 104.881 104.868 104.833 104.813 104.793 104.753 104.713 104.686 104.678 104.673 104.648 104.616 104.598 104.578 104.556 104.513 104.501 104.506 104.506 104.541 104.543 104.508 104.498 104.501 104.503 104.531 104.548 104.531 104.566 104.581 104.611 104.643 104.688 104.723 104.791 104.836 104.878 104.908 104.963 105.006 105.033 105.061 105.033 105.068 105.131 105.043 104.976 105.683 107.141 105.773 105.668 105.631 105.623 105.611 105.601 105.636 105.588 105.571 105.538 105.476 105.401 105.278 105.156 105.053 104.936 104.808 104.701 104.568 104.428 104.313 104.148 104.001 103.836 103.678 103.506 103.333 103.141 102.996 102.826 102.643 102.468 102.286 102.096 101.913 101.771 101.613 101.458 101.311 101.131 100.966 100.768 100.606 100.458 100.261 100.028
48.348 47.803 45.968 45.773 44.778 43.838 44.878 42.281 41.051 40.388 41.671 46.521 58.718 43.568 39.713 40.331 41.538 44.818 39.868 39.858 39.876 39.866 39.866 39.886 39.946 39.984 40.018 40.82 41.531 40.622 40.158 40.191 40.201 40.236 40.215 40.321 40.325 40.384 40.378 40.416 40.441 40.459 40.479 40.481 40.486 40.557 40.604 40.755 41.063 40.928 40.857 41.171 41.029 40.944 40.842 41.708 41.202 41.053 40.971 40.815 40.6 40.748 40.715 40.767 40.887 40.936 41.034 41.086 41.358 40.734 40.971 41.082 41.204 41.364 42.184 42.608 42.721 41.756 41.886 41.951 43.823 42.126 44.853 42.316 42.538 42.556 44.341 43.468 43.606 43.793 43.451 46.836 44.698 44.471 44.528 44.616 44.676 44.701 46.883 58.143 54.696 54.351 57.591 62.518 70.331 73.661 64.333 57.528 71.431 55.718 66.786 71.211 71.691 72.606 73.003 73.518 65.661 77.968 76.378 76.961 82.453 72.136 80.783 78.288 72.138 81.286 69.321 69.993 76.406 82.253 72.258 73.051 74.836 84.478 83.258 83.648 88.081 77.496 82.976 83.608 80.748 79.998 81.396 82.148 81.988 82.098 82.766 82.953 83.191 83.466 83.738 84.076 84.431 84.793 85.173 85.551 85.906 86.276 86.636 86.993 87.286 87.573 87.836 88.093 88.401 88.693 88.951 89.218 89.453 89.676 89.896 90.123 90.346 90.583 90.808 91.031 91.231 91.451 91.653 91.863 92.086 92.303 92.518 92.706 92.911 93.081 93.238 93.421 93.613 93.798 93.976 94.163 94.296 94.448 94.553 94.706 94.953 96.096 95.821 95.793 95.816 95.948 96.041 96.173 96.253 96.343 96.443 96.543 96.678 96.798 96.936 97.063 97.213 97.291 97.404 97.524 97.588 97.702 97.806 97.946 98.071 98.217 98.378 98.531 98.653 98.803 98.901 99.05 99.159 99.293 99.391 99.528 99.651 99.768 99.898 100.051 100.171 100.306 100.428 100.528 100.621 100.698 100.808 100.933 101.033 101.168 101.288 101.398 101.533 101.691 101.788 101.898 102.033 102.136 102.248 102.351 102.411 102.486 102.576 102.658 102.731 102.816 102.921 102.988 103.086 103.186 103.283 103.366 103.471 103.543 103.606 103.688 103.753 103.816 103.861 103.931 103.961 104.008 104.043 104.093 104.133 104.146 104.193 104.198 104.251 104.298 104.313 104.371 104.283 104.506 105.406 104.741 104.608 104.621 104.591 104.586 104.616 104.618 104.653 104.668 104.711 104.721 104.741 104.723 104.743 104.706 104.691 104.666 104.646 104.608 104.593 104.576 104.558 104.538 104.521 104.493 104.461 104.446 104.431 104.396 104.376 104.376 104.383 104.353 104.328 104.303 104.283 104.268 104.256 104.251 104.258 104.276 104.281 104.293 104.271 104.283 104.278 104.328 104.303 104.298 104.381 104.356 104.393 104.438 104.493 104.528 104.576 104.636 104.691 104.726 104.763 104.803 104.853 104.846 104.836 104.876 104.908 104.921 104.816 105.448 106.998 105.573 105.481 105.451 105.458 105.438 105.423 105.431 105.418 105.386 105.326 105.266 105.186 105.066 104.963 104.826 104.738 104.618 104.516 104.373 104.253 104.103 103.963 103.816 103.618 103.466 103.288 103.103 102.918 102.758 102.608 102.446 102.251 102.063 101.878 101.711 101.548 101.366 101.243 101.083 100.901 100.726 100.498 100.353 100.198 99.978 99.763
48.378 47.873 46.411 45.816 45.331 43.921 53.316 49.396 57.456 40.488 40.646 53.168 52.986 45.988 49.326 41.376 40.931 39.963 39.846 39.861 39.843 39.841 39.843 39.868 39.927 39.925 39.96 40.011 40.118 40.143 40.161 40.185 40.199 40.204 40.22 40.245 40.257 40.326 40.327 40.389 40.513 40.585 40.599 40.618 40.613 40.811 40.846 40.962 40.957 40.949 40.944 40.777 40.736 40.778 40.936 41.456 41.258 41.895 41.203 40.383 40.585 40.93 40.737 40.719 40.825 40.896 40.965 41.005 41.231 40.907 40.802 41.262 41.365 41.802 40.877 41.389 41.613 41.776 41.883 41.961 42.071 42.206 42.313 42.101 42.271 42.921 43.348 43.456 43.728 43.723 54.538 44.813 44.551 44.471 44.591 44.651 44.676 44.741 46.828 49.103 54.713 49.713 60.026 57.666 59.058 61.556 62.228 75.346 76.151 66.053 72.408 73.201 73.826 81.046 80.983 75.638 76.678 62.548 76.758 75.331 78.316 83.943 87.561 67.231 73.691 68.788 76.238 82.271 70.996 80.496 79.736 79.476 80.598 88.423 87.481 85.201 80.881 79.248 78.173 78.811 79.471 81.326 81.366 81.141 81.253 83.228 82.618 82.808 83.073 83.321 83.601 83.921 84.278 84.646 85.031 85.398 85.758 86.128 86.511 86.813 87.091 87.361 87.593 87.856 88.118 88.408 88.668 88.911 89.128 89.348 89.596 89.776 89.986 90.218 90.426 90.628 90.821 91.041 91.211 91.391 91.613 91.833 92.041 92.223 92.411 92.568 92.726 92.896 93.078 93.238 93.451 93.616 93.743 93.893 94.028 94.156 94.243 95.553 95.281 95.253 95.273 95.396 95.491 95.626 95.681 95.793 95.933 96.046 96.243 96.318 96.468 96.586 96.706 96.818 96.901 97 97.104 97.194 97.295 97.436 97.569 97.691 97.868 97.996 98.146 98.284 98.414 98.549 98.65 98.766 98.863 98.998 99.101 99.211 99.361 99.506 99.651 99.801 99.911 100.031 100.083 100.171 100.303 100.408 100.508 100.616 100.768 100.871 101.021 101.146 101.291 101.416 101.543 101.636 101.746 101.841 101.943 102.028 102.073 102.186 102.261 102.348 102.446 102.538 102.613 102.703 102.806 102.883 102.996 103.063 103.143 103.223 103.278 103.341 103.386 103.423 103.476 103.528 103.571 103.626 103.646 103.698 103.738 103.773 103.798 103.853 103.881 103.896 103.848 103.973 105.153 104.493 104.211 104.251 104.208 104.201 104.208 104.228 104.261 104.301 104.331 104.343 104.371 104.393 104.363 104.328 104.331 104.311 104.286 104.271 104.281 104.238 104.233 104.211 104.168 104.151 104.128 104.111 104.091 104.076 104.063 104.081 104.078 104.063 104.038 104.011 104.018 103.981 103.978 103.983 103.986 104.016 104.043 104.031 104.031 104.033 104.056 104.078 104.076 104.108 104.128 104.153 104.181 104.238 104.296 104.328 104.391 104.461 104.516 104.546 104.578 104.628 104.636 104.648 104.646 104.668 104.736 104.768 104.643 105.538 106.798 105.368 105.313 105.271 105.273 105.276 105.243 105.236 105.223 105.191 105.136 105.071 104.996 104.888 104.756 104.648 104.531 104.418 104.286 104.156 104.046 103.893 103.746 103.588 103.461 103.266 103.083 102.878 102.716 102.561 102.406 102.251 102.046 101.858 101.688 101.516 101.328 101.181 101.036 100.863 100.688 100.496 100.281 100.108 99.948 99.748 99.496
48.463 47.871 46.423 45.891 45.358 44.006 43.421 46.103 42.008 40.686 40.031 47.201 47.193 44.873 41.378 40.701 39.851 45.141 39.818 39.821 39.791 39.846 39.842 39.857 39.869 39.896 39.933 39.958 40.034 40.071 40.154 40.203 40.17 40.198 40.21 40.206 40.215 40.28 40.437 40.566 40.676 40.771 40.788 40.787 40.798 40.872 41.031 40.985 40.99 40.943 41.074 40.766 40.834 42.774 41.92 41.558 40.473 40.601 40.406 40.371 40.476 40.991 40.798 40.679 40.734 40.827 40.924 40.97 41.1 41.294 40.85 41.256 41.204 42.866 41.277 41.528 41.701 41.858 41.908 42.013 42.098 42.131 42.301 42.033 42.801 43.318 43.431 43.536 43.743 44.363 48.843 44.726 44.483 44.553 44.626 44.686 44.701 46.553 47.836 48.926 54.718 60.226 61.186 63.678 61.653 55.566 71.288 70.691 66.736 62.801 68.233 76.798 65.598 67.306 63.291 78.751 81.491 85.256 81.716 79.581 76.938 82.776 84.898 85.361 78.498 69.186 69.876 71.641 75.103 72.093 72.813 73.461 78.253 75.003 81.178 86.656 81.636 82.616 78.196 78.956 80.523 81.206 80.546 80.668 80.953 82.398 82.493 82.651 82.943 83.166 83.456 83.786 84.141 84.508 84.898 85.256 85.618 85.986 86.296 86.631 86.913 87.156 87.378 87.633 87.901 88.136 88.366 88.661 88.861 89.053 89.236 89.438 89.636 89.858 90.056 90.253 90.441 90.601 90.808 91.013 91.191 91.363 91.558 91.741 91.918 92.066 92.226 92.376 92.543 92.721 92.891 93.051 93.193 93.363 93.476 93.591 93.716 94.493 95.066 94.721 94.748 94.811 94.878 95.018 95.158 95.233 95.328 95.496 95.643 95.748 95.913 96.081 96.213 96.343 96.438 96.518 96.622 96.719 96.812 96.943 97.064 97.201 97.362 97.493 97.628 97.761 97.89 98.018 98.144 98.252 98.361 98.476 98.598 98.678 98.848 98.963 99.121 99.258 99.381 99.478 99.586 99.656 99.771 99.896 100.006 100.093 100.231 100.361 100.503 100.621 100.763 100.901 101.008 101.136 101.266 101.321 101.383 101.493 101.581 101.686 101.753 101.856 101.943 102.028 102.138 102.233 102.308 102.413 102.483 102.593 102.651 102.741 102.801 102.868 102.926 102.961 103.013 103.091 103.138 103.176 103.246 103.271 103.308 103.341 103.361 103.378 103.408 103.436 103.443 103.408 104.588 104.373 103.856 103.873 103.811 103.816 103.808 103.838 103.868 103.891 103.931 103.946 103.976 104.043 103.983 103.956 103.983 103.948 103.921 103.893 103.906 103.886 103.876 103.856 103.843 103.846 103.803 103.796 103.778 103.761 103.751 103.768 103.761 103.756 103.738 103.728 103.701 103.691 103.681 103.701 103.716 103.723 103.736 103.753 103.743 103.768 103.808 103.803 103.846 103.853 103.876 103.913 103.961 104.023 104.063 104.141 104.193 104.236 104.336 104.351 104.401 104.416 104.458 104.478 104.463 104.496 104.576 104.613 104.498 105.393 106.216 105.143 105.143 105.098 105.081 105.081 105.068 105.058 105.053 105.018 104.961 104.883 104.803 104.691 104.561 104.456 104.361 104.228 104.098 103.996 103.856 103.716 103.581 103.421 103.271 103.096 102.933 102.711 102.533 102.396 102.208 102.048 101.861 101.663 101.506 101.326 101.173 100.996 100.826 100.648 100.486 100.278 100.053 99.898 99.728 99.508 99.296
48.483 48.101 46.848 45.888 45.536 44.056 47.691 43.041 48.796 41.173 39.948 39.431 43.653 44.293 40.671 40.018 39.811 39.843 39.758 39.748 39.781 39.81 39.84 39.809 39.864 39.871 39.901 39.948 39.949 40.039 40.134 40.169 40.161 40.2 40.182 40.205 40.268 40.424 40.631 40.714 40.824 40.803 40.813 40.803 40.856 40.871 40.918 40.938 40.934 40.818 40.793 40.878 42.321 42.448 40.901 40.388 40.338 40.343 40.373 -9999 40.392 40.381 41.023 41.079 40.744 40.817 40.877 40.932 41.003 41.354 41.069 41.101 41.318 42.299 41.674 41.652 41.693 41.856 43.033 43.021 42.156 42.181 41.881 42.581 43.171 43.398 43.563 43.671 43.523 43.956 44.666 44.583 44.501 44.578 44.651 44.681 44.863 47.053 48.686 49.446 50.943 60.121 67.293 68.721 70.686 68.913 65.488 73.361 72.013 65.098 69.196 67.798 71.206 79.833 73.383 76.841 77.051 79.633 82.603 84.466 69.253 80.403 68.351 79.218 69.103 74.021 84.273 80.816 73.023 77.341 78.108 76.046 86.436 82.146 76.121 76.881 76.988 84.646 82.608 80.083 80.421 79.986 80.096 80.343 80.678 82.248 82.318 82.498 82.753 82.998 83.303 83.651 83.976 84.356 84.726 85.098 85.441 85.773 86.116 86.433 86.711 86.938 87.171 87.416 87.631 87.868 88.101 88.358 88.551 88.748 88.888 89.063 89.308 89.506 89.711 89.891 90.051 90.206 90.368 90.533 90.736 90.896 91.081 91.263 91.418 91.563 91.706 91.868 92.021 92.201 92.358 92.478 92.623 92.806 92.933 93.028 93.156 93.511 94.616 94.201 94.193 94.236 94.311 94.428 94.566 94.683 94.776 94.923 95.053 95.211 95.311 95.486 95.648 95.776 95.871 95.993 96.118 96.228 96.359 96.472 96.606 96.708 96.825 96.979 97.128 97.275 97.404 97.537 97.651 97.73 97.838 97.951 98.046 98.188 98.301 98.438 98.576 98.733 98.843 98.938 99.058 99.128 99.261 99.388 99.488 99.591 99.706 99.858 99.978 100.101 100.221 100.361 100.481 100.626 100.726 100.798 100.873 100.978 101.093 101.166 101.248 101.333 101.441 101.531 101.653 101.728 101.828 101.908 101.986 102.096 102.173 102.241 102.321 102.388 102.478 102.536 102.563 102.616 102.671 102.723 102.773 102.821 102.868 102.881 102.908 102.941 102.951 102.998 103.016 102.971 103.583 104.098 103.461 103.458 103.433 103.406 103.393 103.441 103.471 103.493 103.523 103.566 103.578 103.618 103.521 103.563 103.601 103.583 103.548 103.543 103.531 103.508 103.501 103.501 103.483 103.488 103.453 103.451 103.421 103.428 103.418 103.428 103.421 103.421 103.426 103.386 103.386 103.386 103.388 103.398 103.423 103.441 103.468 103.448 103.448 103.488 103.511 103.523 103.561 103.593 103.636 103.688 103.736 103.763 103.846 103.906 103.978 104.048 104.111 104.151 104.218 104.231 104.288 104.288 104.291 104.351 104.416 104.451 104.338 105.143 105.786 104.963 104.953 104.916 104.913 104.891 104.883 104.903 104.858 104.816 104.768 104.676 104.616 104.508 104.391 104.266 104.178 104.038 103.936 103.823 103.708 103.556 103.403 103.258 103.118 102.928 102.738 102.553 102.378 102.228 102.063 101.876 101.706 101.521 101.333 101.171 101.023 100.841 100.671 100.498 100.291 100.096 99.901 99.718 99.541 99.318 99.093
48.453 48.051 46.486 45.886 45.353 44.313 43.388 42.563 43.031 40.521 39.891 41.223 39.426 39.428 39.623 44.536 40.478 39.783 39.738 39.784 39.755 39.797 39.823 39.81 39.842 39.889 39.912 39.942 39.984 40.013 40.032 40.095 40.114 40.128 40.148 40.289 40.601 40.678 40.721 40.755 40.803 40.823 40.82 40.872 40.882 40.861 40.772 40.721 41.472 40.388 40.383 43.613 40.378 40.376 40.388 40.383 40.388 40.328 40.407 40.368 40.326 40.376 41.369 41.869 40.618 40.788 40.795 40.864 40.97 41.152 41.603 40.901 40.794 43.078 41.74 41.701 41.796 41.866 41.966 42.141 45.873 42.053 43.628 44.046 43.346 43.428 43.656 47.531 51.133 50.726 44.813 44.498 44.563 44.626 44.658 44.696 46.488 48.108 49.256 50.036 52.941 61.031 71.243 74.681 73.256 73.163 68.218 70.363 64.521 67.103 60.123 72.556 74.766 73.568 79.628 66.606 72.853 75.031 78.591 84.216 80.518 81.391 77.133 79.113 76.176 70.028 70.806 80.831 75.091 84.098 81.078 77.908 83.491 83.491 82.506 77.471 77.071 79.101 79.346 79.803 79.368 79.536 79.781 80.088 80.466 82.126 82.113 82.316 82.563 82.796 83.093 83.458 83.813 84.158 84.523 84.883 85.238 85.553 85.881 86.193 86.463 86.703 86.931 87.143 87.381 87.598 87.818 88.058 88.256 88.443 88.548 88.721 88.948 89.148 89.343 89.496 89.676 89.808 89.951 90.106 90.288 90.441 90.613 90.763 90.933 91.083 91.231 91.363 91.503 91.656 91.808 91.948 92.071 92.226 92.381 92.453 92.613 92.663 94.013 93.753 93.671 93.673 93.743 93.828 93.948 94.081 94.218 94.336 94.476 94.668 94.768 94.896 95.018 95.191 95.298 95.347 95.502 95.637 95.75 95.868 95.979 96.139 96.311 96.501 96.65 96.781 96.924 97.053 97.161 97.254 97.351 97.441 97.543 97.651 97.763 97.893 98.036 98.191 98.316 98.431 98.521 98.633 98.753 98.841 98.941 99.071 99.171 99.283 99.448 99.563 99.703 99.868 99.981 100.096 100.216 100.296 100.363 100.478 100.586 100.673 100.758 100.826 100.916 100.991 101.133 101.216 101.303 101.393 101.498 101.578 101.668 101.768 101.843 101.923 101.986 102.036 102.096 102.131 102.186 102.248 102.313 102.366 102.403 102.431 102.443 102.493 102.501 102.516 102.538 102.526 102.641 103.666 103.196 103.011 103.066 102.993 102.981 103.043 103.043 103.088 103.121 103.166 103.183 103.236 103.116 103.188 103.206 103.213 103.163 103.158 103.146 103.148 103.141 103.121 103.123 103.106 103.091 103.063 103.056 103.068 103.046 103.056 103.063 103.066 103.073 103.076 103.058 103.058 103.056 103.073 103.106 103.118 103.136 103.133 103.168 103.198 103.228 103.241 103.288 103.348 103.363 103.403 103.468 103.536 103.611 103.673 103.738 103.821 103.883 103.951 104.003 104.023 104.063 104.091 104.108 104.163 104.238 104.243 104.173 105.131 106.126 104.788 104.778 104.751 104.731 104.713 104.703 104.701 104.661 104.621 104.566 104.486 104.406 104.298 104.196 104.108 104.011 103.886 103.753 103.646 103.528 103.383 103.251 103.091 102.936 102.756 102.593 102.426 102.238 102.083 101.916 101.738 101.526 101.351 101.188 101.043 100.858 100.693 100.501 100.318 100.116 99.928 99.718 99.566 99.376 99.178 98.923
48.358 47.923 46.173 45.831 46.681 57.891 45.541 42.301 45.013 44.473 40.023 45.181 41.553 39.403 40.298 39.423 39.796 39.781 39.731 40.973 39.831 39.8 39.803 39.848 39.974 39.881 39.893 39.936 39.998 40.056 40.058 40.069 40.061 40.149 40.345 40.498 40.676 40.745 40.823 40.818 40.836 40.873 40.983 41.384 41.921 40.756 40.388 40.393 41.571 -9999 -9999 40.373 40.381 40.363 40.371 40.396 40.346 40.452 40.443 40.351 40.373 40.408 41.42 41.371 40.741 40.833 40.844 40.886 40.953 41.172 41.456 40.678 41.193 41.712 41.725 41.727 41.821 41.898 42.008 42.188 42.248 41.988 42.726 43.201 43.328 43.441 43.623 43.493 47.623 44.843 44.623 44.508 44.573 44.636 44.671 45.006 47.628 48.988 49.763 54.178 62.413 64.506 66.648 62.308 74.858 70.596 72.376 69.473 72.836 72.321 65.926 76.043 75.906 75.361 71.673 63.451 64.113 64.821 75.056 81.928 76.278 79.548 68.376 72.983 70.078 81.953 71.173 76.051 76.008 79.873 82.928 76.288 74.966 77.703 78.151 79.318 78.613 79.053 78.876 78.658 78.898 79.213 79.533 79.841 80.238 81.821 81.871 82.056 82.303 82.568 82.906 83.241 83.596 83.966 84.318 84.643 84.993 85.323 85.643 85.936 86.196 86.431 86.638 86.871 87.083 87.323 87.531 87.746 87.961 88.088 88.228 88.391 88.608 88.786 88.971 89.146 89.306 89.426 89.561 89.716 89.836 89.988 90.141 90.288 90.446 90.608 90.738 90.866 91.016 91.138 91.283 91.428 91.548 91.666 91.811 91.906 92.046 92.158 93.883 93.633 93.178 93.153 93.186 93.288 93.408 93.511 93.651 93.783 93.896 94.053 94.191 94.323 94.456 94.588 94.726 94.838 94.917 95.04 95.149 95.266 95.401 95.553 95.708 95.885 96.065 96.234 96.412 96.563 96.657 96.773 96.901 96.968 97.091 97.163 97.261 97.396 97.523 97.646 97.783 97.888 97.991 98.093 98.241 98.321 98.411 98.523 98.628 98.746 98.898 99.028 99.173 99.318 99.436 99.561 99.686 99.763 99.836 99.948 100.053 100.151 100.233 100.323 100.421 100.523 100.621 100.721 100.791 100.898 101.023 101.086 101.206 101.296 101.381 101.453 101.516 101.573 101.638 101.673 101.723 101.776 101.843 101.898 101.946 101.973 101.983 102.016 102.046 102.061 102.116 102.093 102.013 103.058 102.803 102.586 102.661 102.601 102.571 102.626 102.661 102.688 102.716 102.741 102.791 102.801 102.766 102.813 102.823 102.813 102.768 102.763 102.763 102.768 102.778 102.738 102.763 102.741 102.721 102.698 102.703 102.708 102.683 102.698 102.691 102.706 102.708 102.728 102.708 102.713 102.733 102.748 102.743 102.771 102.793 102.803 102.821 102.851 102.911 102.951 102.988 103.031 103.071 103.156 103.213 103.281 103.348 103.443 103.523 103.611 103.651 103.736 103.776 103.841 103.858 103.866 103.916 103.958 104.056 104.001 103.928 104.971 105.773 104.553 104.543 104.563 104.541 104.513 104.503 104.486 104.456 104.413 104.366 104.273 104.213 104.111 104.026 103.921 103.811 103.713 103.593 103.483 103.371 103.246 103.098 102.941 102.791 102.598 102.436 102.256 102.093 101.933 101.781 101.566 101.376 101.211 101.043 100.883 100.718 100.528 100.341 100.163 99.961 99.731 99.546 99.401 99.221 99.011 98.751
48.308 47.723 45.891 45.853 44.953 43.721 49.193 42.098 42.056 46.023 43.008 44.568 43.568 40.458 39.873 39.438 39.796 39.766 39.74 40.118 39.754 39.792 39.862 39.87 39.82 39.857 39.874 40.073 39.966 40.036 40.046 40.045 40.093 40.253 40.504 40.677 40.743 40.784 40.813 40.811 40.834 40.864 40.817 41.725 40.949 40.413 40.373 40.383 40.388 40.391 40.386 40.348 40.371 40.383 40.376 40.381 40.397 40.396 40.261 40.493 40.503 40.348 41.498 41.287 40.745 40.813 40.866 40.905 40.98 41.363 40.91 41.028 42.307 42.466 41.712 41.78 41.841 41.881 42.011 42.453 41.863 46.801 43.038 43.283 43.396 43.653 43.588 43.288 44.486 44.766 44.496 44.563 44.628 44.643 44.696 46.906 48.823 49.478 52.148 58.356 69.026 58.411 64.568 66.106 63.998 56.128 69.073 73.316 77.853 73.873 75.626 76.651 78.378 77.516 74.691 64.073 64.593 75.436 76.683 74.473 75.926 68.196 73.321 70.981 69.988 72.783 75.231 79.491 79.328 78.383 74.491 74.283 75.053 76.433 78.073 77.773 78.428 77.828 78.053 78.296 78.588 78.911 79.288 79.581 79.973 81.713 81.621 81.843 82.078 82.346 82.651 83.018 83.341 83.718 84.063 84.421 84.718 85.076 85.401 85.638 85.913 86.123 86.341 86.568 86.788 87.028 87.243 87.433 87.636 87.731 87.868 88.023 88.221 88.418 88.588 88.763 88.911 89.033 89.153 89.276 89.418 89.556 89.683 89.843 89.986 90.136 90.253 90.381 90.506 90.651 90.768 90.891 91.018 91.133 91.266 91.383 91.458 91.638 92.546 93.048 92.658 92.671 92.683 92.753 92.856 92.958 93.121 93.253 93.346 93.476 93.621 93.768 93.898 94.023 94.148 94.296 94.362 94.487 94.587 94.712 94.811 94.961 95.114 95.282 95.476 95.64 95.798 95.936 96.042 96.168 96.263 96.393 96.518 96.638 96.761 96.881 97.008 97.156 97.288 97.378 97.501 97.616 97.743 97.806 97.886 97.978 98.103 98.213 98.351 98.471 98.648 98.771 98.891 98.991 99.111 99.233 99.351 99.431 99.531 99.626 99.701 99.796 99.893 99.993 100.091 100.201 100.293 100.411 100.528 100.596 100.708 100.791 100.896 100.958 101.031 101.091 101.166 101.223 101.266 101.323 101.373 101.423 101.493 101.518 101.538 101.571 101.583 101.621 101.656 101.663 101.576 102.321 102.573 102.178 102.231 102.203 102.183 102.221 102.241 102.278 102.318 102.343 102.373 102.388 102.408 102.413 102.421 102.418 102.413 102.388 102.406 102.401 102.383 102.383 102.383 102.381 102.366 102.348 102.331 102.361 102.341 102.321 102.331 102.348 102.366 102.363 102.368 102.368 102.381 102.398 102.433 102.446 102.448 102.478 102.496 102.516 102.618 102.643 102.678 102.736 102.793 102.863 102.941 103.013 103.093 103.193 103.283 103.373 103.426 103.501 103.518 103.596 103.648 103.686 103.701 103.736 103.863 103.813 103.723 104.651 105.321 104.258 104.291 104.293 104.288 104.256 104.268 104.251 104.221 104.188 104.158 104.101 104.003 103.891 103.821 103.751 103.661 103.546 103.453 103.341 103.228 103.076 102.953 102.788 102.623 102.453 102.271 102.098 101.936 101.786 101.621 101.406 101.226 101.066 100.908 100.708 100.543 100.346 100.143 99.958 99.746 99.526 99.361 99.216 99.028 98.726 98.488
48.083 47.398 45.848 45.831 44.596 45.128 42.701 41.848 43.733 40.436 39.733 39.398 40.926 41.881 42.578 46.336 39.689 39.731 39.747 39.748 39.751 39.802 39.82 39.782 39.855 39.87 39.874 39.972 40.001 40.024 40.038 40.13 40.307 40.463 40.699 40.759 40.781 40.802 40.799 40.766 40.749 40.597 40.371 40.353 40.386 40.398 40.393 40.388 40.363 40.403 40.383 40.401 40.378 40.351 -9999 40.393 40.331 40.453 40.466 40.298 40.466 40.426 40.734 40.731 40.784 40.868 40.899 40.947 41.244 41.175 41.678 44.259 41.736 41.703 41.701 41.806 41.838 41.906 41.931 41.936 42.318 42.966 47.046 43.398 43.548 43.668 43.433 44.043 44.686 44.546 44.523 44.593 44.641 44.658 46.268 47.748 57.398 58.916 58.668 68.548 71.728 71.041 65.563 61.468 73.461 59.973 63.308 74.428 74.988 73.831 69.483 70.463 79.013 80.093 77.478 75.243 65.048 73.031 78.993 67.218 67.933 72.371 75.781 69.756 77.153 80.213 82.006 80.066 78.551 76.806 73.996 74.908 76.023 76.221 76.566 76.876 77.141 77.416 77.713 77.993 78.338 78.676 79.031 79.313 79.651 81.443 81.353 81.563 81.798 82.043 82.363 82.733 83.068 83.431 83.783 84.128 84.443 84.801 85.096 85.381 85.611 85.836 86.018 86.243 86.453 86.673 86.916 87.103 87.258 87.378 87.516 87.658 87.833 88.028 88.196 88.376 88.501 88.631 88.736 88.851 88.973 89.133 89.263 89.398 89.553 89.658 89.771 89.901 90.028 90.136 90.258 90.356 90.503 90.601 90.711 90.826 90.886 91.071 91.136 92.753 92.426 92.233 92.163 92.198 92.308 92.411 92.521 92.628 92.748 92.903 93.046 93.181 93.331 93.478 93.598 93.726 93.822 93.932 94.046 94.151 94.257 94.409 94.537 94.725 94.897 95.069 95.223 95.37 95.481 95.577 95.709 95.808 95.876 96.011 96.111 96.273 96.411 96.583 96.733 96.893 97.036 97.143 97.238 97.336 97.446 97.523 97.616 97.726 97.833 97.943 98.073 98.218 98.341 98.446 98.583 98.731 98.811 98.918 99.028 99.126 99.201 99.293 99.378 99.463 99.583 99.673 99.791 99.891 99.986 100.093 100.208 100.291 100.408 100.481 100.566 100.618 100.676 100.758 100.796 100.853 100.896 100.963 101.013 101.068 101.088 101.118 101.146 101.173 101.178 101.228 101.153 101.678 102.431 101.786 101.796 101.803 101.778 101.788 101.846 101.861 101.906 101.926 101.968 101.998 102.011 102.038 102.043 102.026 102.018 102.008 102.001 102.001 101.998 101.993 102.008 102.006 102.001 101.983 101.981 101.973 101.996 101.978 101.991 101.991 102.018 102.011 102.023 102.041 102.023 102.051 102.068 102.098 102.123 102.133 102.151 102.186 102.271 102.336 102.378 102.431 102.483 102.578 102.668 102.726 102.806 102.928 103.036 103.118 103.173 103.251 103.283 103.383 103.423 103.443 103.476 103.536 103.658 103.543 103.548 104.843 104.861 103.991 104.013 103.998 104.021 103.993 104.003 103.986 103.978 103.926 103.928 103.871 103.803 103.713 103.616 103.553 103.481 103.388 103.273 103.163 103.068 102.928 102.768 102.603 102.446 102.278 102.103 101.928 101.761 101.581 101.408 101.231 101.048 100.876 100.713 100.518 100.323 100.131 99.928 99.726 99.496 99.293 99.131 98.918 98.638 98.356 98.103
48.003 46.291 45.863 45.266 44.203 51.181 49.276 46.796 46.021 40.193 39.543 39.373 39.468 41.556 42.766 40.109 44.048 39.693 39.716 39.719 39.757 39.788 39.752 39.873 39.831 39.881 39.911 39.912 39.972 40.078 40.221 40.407 40.566 40.668 40.727 40.722 40.796 40.747 40.758 40.742 40.783 42.111 40.376 -9999 -9999 40.413 40.393 40.351 40.393 -9999 40.383 40.361 40.354 40.333 40.348 40.358 40.248 40.246 40.428 40.473 40.388 40.545 40.69 40.77 40.853 40.863 40.901 41.001 41.185 41.355 41.327 41.847 41.683 41.668 41.748 41.806 41.878 41.593 42.686 41.991 42.718 43.198 43.331 43.496 46.116 43.526 43.271 44.681 44.656 44.486 44.556 44.616 44.648 44.843 47.156 48.633 49.736 50.516 57.061 62.678 72.351 70.148 58.993 60.356 74.798 57.218 64.796 78.398 63.388 60.486 72.486 63.546 73.843 80.433 72.988 71.006 82.486 69.108 66.796 76.151 70.388 74.363 69.928 75.133 77.596 78.286 73.793 72.321 74.096 73.856 75.028 75.216 75.878 75.831 76.158 76.498 76.816 77.131 77.471 77.788 78.126 78.466 78.751 79.053 79.356 81.016 81.083 81.313 81.501 81.753 82.053 82.398 82.751 83.111 83.486 83.816 84.136 84.493 84.761 85.058 85.298 85.526 85.688 85.901 86.136 86.323 86.776 86.738 86.886 87.016 87.146 87.283 87.438 87.611 87.783 87.956 88.086 88.228 88.311 88.423 88.551 88.686 88.811 88.948 89.081 89.193 89.321 89.423 89.518 89.636 89.761 89.861 89.983 90.091 90.186 90.291 90.366 90.468 90.616 91.911 92.203 91.723 91.653 91.646 91.733 91.831 91.981 92.078 92.178 92.328 92.458 92.618 92.758 92.898 93.011 93.163 93.263 93.393 93.491 93.587 93.735 93.851 93.987 94.157 94.314 94.487 94.642 94.791 94.901 95.023 95.131 95.228 95.323 95.408 95.528 95.628 95.748 95.913 96.073 96.251 96.403 96.558 96.666 96.818 96.946 97.046 97.153 97.228 97.321 97.411 97.556 97.683 97.778 97.913 98.033 98.151 98.268 98.398 98.496 98.561 98.658 98.761 98.856 98.948 99.043 99.148 99.256 99.378 99.468 99.593 99.678 99.803 99.903 99.993 100.076 100.143 100.203 100.278 100.331 100.386 100.426 100.486 100.546 100.586 100.626 100.656 100.688 100.733 100.738 100.773 100.731 101.036 102.086 101.478 101.361 101.411 101.373 101.383 101.423 101.453 101.508 101.508 101.561 101.593 101.616 101.633 101.631 101.643 101.641 101.626 101.613 101.633 101.631 101.626 101.651 101.651 101.663 101.626 101.598 101.626 101.626 101.621 101.611 101.641 101.656 101.668 101.693 101.688 101.693 101.693 101.718 101.781 101.773 101.788 101.838 101.896 101.938 102.003 102.056 102.151 102.206 102.261 102.338 102.438 102.513 102.661 102.753 102.848 102.941 102.993 103.063 103.096 103.178 103.188 103.248 103.321 103.438 103.286 103.316 104.921 104.638 103.746 103.781 103.761 103.778 103.751 103.733 103.738 103.698 103.686 103.658 103.623 103.568 103.486 103.416 103.326 103.246 103.153 103.071 102.958 102.868 102.711 102.553 102.391 102.246 102.078 101.866 101.703 101.551 101.363 101.188 100.993 100.811 100.631 100.446 100.253 100.058 99.868 99.643 99.438 99.226 98.996 98.833 98.558 98.243 97.998 97.728
47.628 45.968 45.943 44.641 43.666 42.801 42.068 41.278 42.753 40.146 39.406 39.321 39.396 39.538 39.16 39.657 39.673 39.598 39.642 39.651 39.739 39.713 39.798 39.817 39.815 39.866 39.873 39.938 40.068 40.282 40.551 40.622 40.646 40.714 40.724 40.737 41.473 40.542 40.576 40.667 40.773 41.929 40.771 40.398 40.411 40.393 40.393 40.383 40.376 40.378 40.368 40.384 40.223 40.306 40.443 40.316 40.338 40.371 40.426 40.461 40.664 40.691 40.758 40.811 40.877 40.865 41.003 41.17 41.375 41.576 41.642 41.62 41.643 41.663 41.713 41.871 41.861 42.168 42.716 43.028 43.011 43.281 43.451 43.631 46.141 44.411 43.656 44.783 44.543 44.543 44.598 44.621 44.643 46.643 48.346 49.436 50.118 50.918 52.966 57.301 66.501 67.691 75.293 75.628 75.211 75.808 71.993 72.146 75.563 79.843 64.623 73.466 69.761 75.738 70.671 74.971 70.436 66.556 67.173 77.393 70.611 82.596 77.856 72.751 80.848 72.303 72.648 73.343 74.056 74.328 74.671 74.876 75.146 75.516 75.861 76.218 76.556 76.898 77.223 77.538 77.871 78.201 78.451 78.756 79.068 80.726 80.743 80.968 81.196 81.423 81.713 82.038 82.421 82.743 83.123 83.468 83.778 84.111 84.438 84.693 84.971 85.181 85.368 85.536 85.758 85.956 86.138 86.346 86.506 86.631 86.778 86.913 87.046 87.238 87.381 87.518 87.663 87.798 87.891 87.976 88.133 88.243 88.376 88.506 88.626 88.743 88.851 88.951 89.053 89.176 89.258 89.346 89.471 89.563 89.646 89.741 89.838 89.896 90.051 90.703 91.593 91.163 91.163 91.113 91.166 91.246 91.406 91.513 91.606 91.718 91.856 91.983 92.121 92.263 92.418 92.546 92.679 92.778 92.911 92.989 93.139 93.257 93.414 93.561 93.716 93.857 94.033 94.198 94.323 94.459 94.549 94.661 94.773 94.866 94.966 95.061 95.158 95.308 95.453 95.596 95.756 95.881 96.021 96.146 96.286 96.411 96.538 96.656 96.798 96.946 97.078 97.178 97.278 97.431 97.543 97.673 97.783 97.866 97.958 98.051 98.143 98.248 98.333 98.418 98.536 98.648 98.746 98.881 98.963 99.061 99.161 99.316 99.408 99.501 99.581 99.648 99.721 99.813 99.858 99.891 99.961 100.021 100.086 100.113 100.166 100.221 100.238 100.271 100.298 100.326 100.341 100.266 101.583 101.241 100.898 101.006 100.978 100.991 101.016 101.043 101.076 101.098 101.126 101.188 101.211 101.213 101.233 101.246 101.268 101.263 101.263 101.246 101.241 101.268 101.278 101.281 101.308 101.291 101.253 101.256 101.278 101.268 101.286 101.286 101.321 101.331 101.356 101.343 101.343 101.368 101.381 101.431 101.466 101.461 101.513 101.591 101.626 101.711 101.781 101.848 101.908 101.988 102.083 102.178 102.253 102.398 102.498 102.593 102.661 102.738 102.816 102.873 102.926 102.956 103.036 103.098 103.216 103.048 103.091 104.626 104.033 103.531 103.543 103.533 103.536 103.523 103.506 103.511 103.478 103.463 103.443 103.398 103.328 103.253 103.173 103.118 103.038 102.953 102.866 102.751 102.646 102.486 102.313 102.153 102.011 101.833 101.628 101.446 101.276 101.118 100.958 100.746 100.561 100.366 100.183 99.973 99.788 99.581 99.381 99.161 98.918 98.693 98.503 98.283 98.003 97.736 97.448
46.851 46.028 45.801 48.836 43.386 42.503 41.756 40.996 51.681 40.903 39.286 39.251 39.44 39.231 39.227 40.36 42.126 39.647 39.701 39.67 39.705 39.754 39.776 39.804 39.896 39.884 39.89 40.084 40.346 40.581 40.617 40.676 40.714 40.722 40.661 40.356 40.686 40.551 40.391 40.548 40.57 40.544 40.378 40.386 40.388 -9999 40.35 40.386 40.391 40.403 40.483 40.398 40.351 40.326 40.491 40.413 40.436 40.516 40.571 40.765 40.753 40.728 40.75 40.82 40.888 40.918 41.017 40.942 40.989 41.593 41.677 41.602 41.648 41.653 41.713 42.009 45.576 42.866 43.603 44.033 43.928 43.953 43.656 43.653 43.543 43.423 44.731 44.636 44.513 44.581 44.603 44.593 45.706 48.448 49.061 49.953 53.648 51.771 56.958 64.741 62.821 68.406 64.761 59.413 67.521 73.546 69.306 68.966 80.261 81.621 78.308 82.928 70.283 76.483 78.826 73.561 78.001 79.891 71.923 71.983 70.333 78.301 72.593 70.881 74.141 72.101 72.186 73.738 74.383 74.048 74.203 74.533 74.866 75.263 75.643 76.016 76.378 76.701 77.016 77.328 77.636 77.926 78.196 78.461 78.731 80.406 80.448 80.646 80.863 81.066 81.346 81.673 82.046 82.383 82.751 83.086 83.373 83.708 84.016 84.281 84.576 84.793 84.986 85.168 85.373 85.581 85.758 85.938 86.118 86.243 86.388 86.528 86.668 86.826 86.983 87.116 87.263 87.396 87.503 87.578 87.693 87.811 87.923 88.038 88.161 88.291 88.401 88.493 88.578 88.688 88.783 88.866 88.971 89.083 89.133 89.223 89.301 89.373 89.488 89.538 90.461 91.031 90.696 90.598 90.591 90.671 90.781 90.901 90.996 91.111 91.253 91.388 91.518 91.663 91.786 91.918 92.054 92.171 92.292 92.423 92.553 92.65 92.784 92.922 93.072 93.241 93.426 93.574 93.712 93.842 93.939 94.061 94.146 94.231 94.351 94.468 94.566 94.693 94.826 94.988 95.136 95.281 95.401 95.528 95.643 95.781 95.853 96.006 96.111 96.261 96.383 96.521 96.703 96.896 97.043 97.191 97.211 97.363 97.463 97.558 97.668 97.763 97.821 97.923 98.038 98.126 98.241 98.343 98.453 98.561 98.653 98.798 98.888 98.973 99.068 99.146 99.218 99.276 99.368 99.416 99.488 99.536 99.598 99.651 99.696 99.751 99.781 99.806 99.843 99.873 99.946 99.921 100.931 100.933 100.451 100.538 100.573 100.576 100.603 100.626 100.623 100.653 100.733 100.781 100.808 100.791 100.811 100.856 100.871 100.861 100.871 100.886 100.868 100.868 100.903 100.918 100.923 100.903 100.898 100.906 100.911 100.903 100.921 100.931 100.968 100.998 100.993 101.008 101.006 101.033 101.056 101.068 101.148 101.158 101.186 101.271 101.316 101.413 101.498 101.566 101.651 101.731 101.821 101.918 102.026 102.136 102.256 102.341 102.418 102.496 102.583 102.646 102.708 102.761 102.843 102.903 102.958 102.816 102.913 104.368 103.523 103.298 103.303 103.301 103.308 103.316 103.291 103.293 103.263 103.233 103.216 103.181 103.121 103.036 102.986 102.913 102.836 102.738 102.663 102.521 102.403 102.236 102.096 101.923 101.771 101.593 101.383 101.201 101.063 100.883 100.711 100.528 100.343 100.128 99.911 99.731 99.516 99.321 99.086 98.873 98.653 98.421 98.226 98.023 97.751 97.513 97.221
46.213 46.106 45.231 50.596 43.628 42.181 42.163 40.606 39.983 39.601 39.288 39.257 39.515 40.636 39.84 49.472 41.197 39.992 39.691 39.696 39.703 39.765 39.74 39.802 39.836 39.924 40.11 40.342 40.573 40.665 40.669 40.692 40.724 40.597 40.318 -9999 -9999 40.287 40.323 40.542 40.587 40.535 40.434 40.391 40.383 40.406 40.353 -9999 -9999 40.433 40.468 40.438 40.423 40.538 40.611 40.538 40.626 40.777 40.841 40.791 40.745 40.766 40.812 40.852 40.932 40.93 40.985 40.489 41.322 41.661 41.611 41.615 41.666 41.793 41.986 42.377 43.123 43.833 44.148 44.423 44.551 44.103 43.838 45.453 43.538 44.313 44.721 44.516 44.568 44.611 44.593 44.711 47.033 48.703 49.836 55.348 55.836 58.226 64.946 70.648 64.653 72.586 60.058 75.011 70.471 58.688 67.613 67.153 64.628 73.201 68.803 74.691 74.001 75.533 71.533 74.766 71.571 72.936 72.531 68.286 70.198 72.276 69.911 71.176 71.723 72.393 73.041 73.501 73.338 73.638 73.968 74.336 74.678 75.068 75.446 75.836 76.176 76.516 76.836 77.133 77.401 77.668 77.926 78.201 78.486 80.103 80.143 80.336 80.523 80.713 80.981 81.308 81.668 82.001 82.371 82.663 82.963 83.268 83.596 83.888 84.143 84.406 84.561 84.758 84.946 85.151 85.316 85.481 85.666 85.828 85.981 86.131 86.253 86.411 86.566 86.701 86.876 87.006 87.106 87.153 87.268 87.391 87.503 87.606 87.708 87.838 87.928 88.046 88.128 88.216 88.313 88.383 88.481 88.581 88.633 88.726 88.791 88.863 88.928 89.036 90.413 90.256 90.253 90.113 90.016 90.051 90.186 90.281 90.421 90.533 90.666 90.768 90.921 91.053 91.191 91.321 91.444 91.563 91.661 91.804 91.939 92.038 92.15 92.273 92.439 92.593 92.759 92.915 93.086 93.186 93.325 93.414 93.506 93.638 93.751 93.856 93.951 94.093 94.206 94.353 94.508 94.696 94.833 94.946 95.058 95.153 95.296 95.406 95.498 95.631 95.758 95.871 96.023 96.191 96.318 96.481 96.656 96.766 96.903 97.026 97.141 97.271 97.356 97.468 97.533 97.651 97.751 97.863 97.941 98.056 98.148 98.276 98.408 98.481 98.573 98.641 98.716 98.776 98.851 98.918 98.978 99.038 99.111 99.193 99.216 99.283 99.346 99.361 99.416 99.438 99.501 99.423 100.256 100.823 100.063 100.088 100.146 100.148 100.166 100.181 100.186 100.248 100.313 100.343 100.361 100.368 100.401 100.433 100.456 100.466 100.471 100.483 100.478 100.501 100.508 100.541 100.548 100.533 100.531 100.516 100.513 100.538 100.541 100.561 100.611 100.621 100.616 100.656 100.643 100.678 100.693 100.733 100.766 100.803 100.836 100.938 101.001 101.108 101.188 101.253 101.343 101.451 101.531 101.646 101.741 101.868 101.983 102.091 102.198 102.273 102.373 102.431 102.491 102.558 102.641 102.703 102.731 102.576 102.668 104.073 103.226 103.081 103.121 103.128 103.113 103.113 103.111 103.078 103.083 103.048 103.006 102.993 102.938 102.858 102.788 102.731 102.618 102.528 102.431 102.316 102.176 102.013 101.861 101.701 101.531 101.351 101.151 100.981 100.828 100.656 100.478 100.288 100.086 99.883 99.673 99.466 99.273 99.041 98.851 98.616 98.391 98.151 97.983 97.791 97.516 97.281 97.016
46.303 46.113 44.676 43.748 42.863 41.843 41.083 42.641 39.911 40.871 48.811 40.369 39.585 40.484 41.457 39.589 43.249 39.786 39.788 39.718 39.702 39.706 39.786 39.805 39.874 40.103 40.444 40.552 40.626 40.674 40.708 40.726 40.54 40.428 -9999 -9999 -9999 -9999 40.218 40.368 40.616 40.514 40.348 40.448 40.381 40.391 40.391 -9999 -9999 40.463 40.343 40.268 40.454 40.655 40.759 40.787 40.803 40.855 40.843 40.799 40.782 40.794 40.843 40.898 40.961 41 40.555 41.086 41.625 41.623 41.644 41.638 41.693 43.722 42.689 43.293 43.938 44.426 44.646 44.871 44.851 44.518 43.946 43.731 43.868 44.666 44.548 44.536 44.588 44.591 44.573 48.341 47.761 50.256 50.338 53.368 58.306 60.611 64.541 65.923 67.256 70.671 64.123 70.456 68.573 71.593 74.148 60.726 74.083 77.956 76.468 80.123 68.991 82.753 83.001 80.098 76.946 75.998 67.921 68.413 69.156 70.443 70.096 71.241 72.051 72.998 73.068 72.746 73.083 73.411 73.763 74.136 74.518 74.908 75.333 75.691 76.008 76.321 76.633 76.908 77.166 77.446 77.683 77.931 78.226 79.756 79.798 80.001 80.191 80.383 80.631 80.921 81.271 81.601 81.933 82.246 82.531 82.841 83.173 83.451 83.706 83.973 84.151 84.321 84.506 84.711 84.858 85.036 85.201 85.376 85.538 85.688 85.818 85.963 86.111 86.266 86.438 86.566 86.706 86.763 86.833 86.948 87.063 87.156 87.273 87.388 87.493 87.588 87.663 87.756 87.831 87.921 87.991 88.066 88.148 88.203 88.273 88.328 88.376 88.526 88.491 89.611 89.773 89.613 89.541 89.523 89.603 89.726 89.803 89.953 90.063 90.201 90.296 90.448 90.566 90.706 90.851 90.958 91.075 91.182 91.308 91.398 91.513 91.679 91.803 91.942 92.1 92.251 92.424 92.561 92.678 92.783 92.888 93.008 93.113 93.236 93.348 93.453 93.558 93.691 93.863 94.048 94.191 94.321 94.443 94.558 94.683 94.816 94.888 95.023 95.158 95.278 95.411 95.563 95.716 95.843 96.006 96.118 96.218 96.361 96.491 96.603 96.753 96.911 97.031 97.168 97.263 97.378 97.466 97.578 97.698 97.811 97.926 98.028 98.091 98.161 98.226 98.296 98.371 98.446 98.471 98.546 98.618 98.718 98.776 98.823 98.861 98.906 98.951 98.961 99.023 99.008 99.371 100.633 99.751 99.656 99.711 99.696 99.733 99.753 99.763 99.823 99.871 99.916 99.943 99.976 100.006 100.033 100.038 100.048 100.068 100.091 100.103 100.118 100.133 100.161 100.156 100.131 100.141 100.138 100.156 100.153 100.166 100.203 100.218 100.226 100.263 100.261 100.291 100.291 100.343 100.393 100.398 100.433 100.503 100.598 100.706 100.771 100.878 100.948 101.026 101.161 101.258 101.368 101.468 101.583 101.721 101.841 101.928 102.041 102.151 102.206 102.258 102.328 102.428 102.488 102.468 102.343 102.606 103.703 102.928 102.916 102.948 102.926 102.928 102.921 102.911 102.916 102.891 102.881 102.838 102.783 102.723 102.673 102.586 102.538 102.431 102.348 102.218 102.103 101.953 101.811 101.651 101.501 101.328 101.121 100.916 100.753 100.576 100.416 100.233 100.041 99.838 99.638 99.436 99.231 99.018 98.813 98.581 98.366 98.133 97.911 97.718 97.523 97.253 97.011 96.716
46.458 46.743 46.901 43.366 42.296 41.493 43.588 40.038 41.138 39.317 42.21 43.001 40.825 40.516 45.14 39.838 40.691 39.746 39.627 39.656 39.656 39.699 39.757 39.852 40.212 40.386 40.527 40.629 40.675 40.681 40.665 40.503 -9999 -9999 -9999 -9999 -9999 -9999 40.143 40.378 40.56 40.556 40.523 40.515 40.513 40.393 40.38 40.433 40.381 40.846 40.946 40.411 40.723 40.845 40.876 40.849 40.851 40.835 40.821 40.769 40.756 40.848 40.883 40.962 41.011 40.79 40.892 41.589 41.563 41.596 41.632 41.62 41.7 41.905 43.112 43.978 44.601 45.231 44.863 45.613 46.411 44.806 46.126 44.098 44.606 44.633 44.531 44.573 44.591 44.573 49.268 47.623 48.633 50.953 52.338 52.166 52.123 55.886 62.446 54.461 66.553 60.803 69.966 76.476 73.281 75.258 66.338 70.793 74.673 74.898 74.883 75.341 67.413 79.563 74.706 66.623 67.056 67.691 67.941 68.518 68.966 69.516 70.683 72.133 72.091 71.966 72.263 72.581 72.901 73.228 73.603 73.998 74.413 74.813 75.191 75.528 75.838 76.116 76.408 76.676 76.923 77.211 77.438 77.706 77.986 79.448 79.486 79.663 79.873 80.013 80.241 80.546 80.876 81.221 81.491 81.788 82.071 82.403 82.688 82.966 83.243 83.511 83.691 83.876 84.053 84.251 84.398 84.563 84.751 84.923 85.073 85.243 85.388 85.518 85.663 85.801 85.981 86.136 86.256 86.333 86.416 86.511 86.586 86.691 86.801 86.923 87.021 87.113 87.201 87.278 87.368 87.438 87.511 87.566 87.656 87.703 87.773 87.836 87.863 87.943 87.991 89.436 89.333 89.101 89.051 89.208 89.056 89.143 89.226 89.368 89.491 89.573 89.688 89.828 89.951 90.091 90.216 90.34 90.437 90.562 90.669 90.798 90.895 91.026 91.143 91.275 91.423 91.588 91.75 91.887 92.001 92.098 92.246 92.388 92.471 92.578 92.723 92.826 92.921 93.046 93.208 93.378 93.548 93.693 93.833 93.966 94.068 94.183 94.301 94.406 94.533 94.676 94.826 94.971 95.118 95.253 95.383 95.513 95.623 95.776 95.891 95.976 96.118 96.241 96.348 96.503 96.666 96.808 96.933 97.076 97.206 97.336 97.428 97.551 97.668 97.713 97.771 97.833 97.888 97.981 97.993 98.073 98.156 98.238 98.321 98.368 98.423 98.456 98.486 98.531 98.546 98.556 98.653 100.031 99.456 99.183 99.281 99.268 99.288 99.351 99.338 99.396 99.481 99.493 99.541 99.548 99.586 99.618 99.646 99.661 99.658 99.673 99.723 99.741 99.753 99.786 99.786 99.776 99.773 99.776 99.796 99.796 99.798 99.836 99.848 99.871 99.883 99.873 99.918 99.941 99.996 100.031 100.061 100.116 100.176 100.248 100.361 100.431 100.526 100.628 100.731 100.863 100.966 101.101 101.218 101.333 101.438 101.568 101.718 101.793 101.886 101.953 102.046 102.106 102.208 102.266 102.193 102.133 102.468 103.426 102.738 102.701 102.736 102.731 102.738 102.708 102.733 102.718 102.711 102.703 102.683 102.633 102.558 102.481 102.408 102.318 102.208 102.123 101.998 101.886 101.748 101.596 101.418 101.283 101.086 100.906 100.703 100.516 100.371 100.183 99.996 99.791 99.611 99.406 99.193 98.998 98.763 98.546 98.321 98.088 97.856 97.618 97.423 97.191 96.923 96.708 96.423
46.558 45.086 49.663 43.126 42.113 40.988 41.266 40.766 39.163 39.402 43.161 41.107 40.522 40.761 40.236 43.044 39.787 39.635 39.636 39.615 39.637 39.645 39.801 40.023 40.355 40.47 40.575 40.623 40.696 40.642 40.933 -9999 -9999 -9999 -9999 -9999 -9999 -9999 40.283 40.408 40.595 40.656 40.786 40.472 40.384 40.394 40.401 40.375 40.375 40.937 41.28 40.758 40.834 40.896 40.907 40.899 40.874 40.843 40.791 40.765 40.811 40.901 40.979 41.009 40.957 40.649 41.721 41.661 41.511 41.554 41.578 41.623 41.703 42.386 43.803 44.483 45.356 45.458 45.876 45.486 45.473 45.696 44.393 44.401 44.743 44.511 44.551 44.596 44.578 44.553 47.403 48.553 49.456 50.218 54.396 51.756 54.988 63.138 69.438 72.873 68.961 60.936 69.936 66.751 73.626 76.598 72.456 74.696 75.003 70.088 67.048 72.518 71.693 65.606 66.156 66.666 67.161 70.078 68.386 68.543 69.268 70.311 70.971 71.168 71.443 71.758 72.061 72.386 72.748 73.073 73.461 73.891 74.258 74.668 75.041 75.356 75.658 75.968 76.233 76.491 76.738 76.991 77.213 77.443 77.683 79.141 79.136 79.336 79.528 79.681 79.893 80.183 80.496 80.786 81.071 81.348 81.621 81.911 82.206 82.478 82.753 83.016 83.206 83.403 83.581 83.758 83.911 84.088 84.253 84.423 84.588 84.756 84.906 85.038 85.171 85.333 85.511 85.671 85.773 85.858 85.973 86.038 86.128 86.263 86.358 86.458 86.558 86.656 86.731 86.816 86.901 86.981 87.031 87.101 87.166 87.233 87.271 87.333 87.358 87.391 87.506 87.501 88.756 88.708 88.573 88.533 88.531 88.556 88.666 88.768 88.873 88.953 89.078 89.201 89.326 89.453 89.571 89.695 89.813 89.961 90.045 90.178 90.276 90.387 90.501 90.64 90.784 90.93 91.072 91.22 91.343 91.451 91.583 91.718 91.838 91.956 92.073 92.178 92.296 92.393 92.538 92.711 92.871 93.036 93.223 93.356 93.483 93.583 93.698 93.811 93.931 94.061 94.206 94.328 94.473 94.626 94.771 94.933 95.056 95.203 95.316 95.386 95.523 95.656 95.763 95.861 96.006 96.153 96.296 96.408 96.563 96.693 96.833 96.966 97.103 97.211 97.326 97.396 97.456 97.521 97.623 97.668 97.696 97.793 97.873 97.908 97.963 98.011 98.038 98.076 98.128 98.143 98.093 99.391 99.263 98.766 98.878 98.863 98.866 98.916 98.913 98.951 99.043 99.076 99.108 99.153 99.166 99.236 99.261 99.256 99.286 99.313 99.333 99.363 99.386 99.416 99.421 99.408 99.403 99.421 99.416 99.433 99.458 99.473 99.493 99.513 99.526 99.548 99.573 99.613 99.658 99.678 99.721 99.768 99.841 99.943 100.058 100.156 100.261 100.348 100.448 100.591 100.698 100.811 100.923 101.066 101.186 101.311 101.446 101.548 101.651 101.746 101.803 101.898 101.966 102.021 101.983 101.891 102.448 103.438 102.476 102.488 102.508 102.498 102.521 102.531 102.546 102.533 102.526 102.518 102.481 102.438 102.373 102.273 102.216 102.148 102.031 101.928 101.811 101.658 101.533 101.371 101.196 101.038 100.866 100.666 100.463 100.288 100.131 99.941 99.761 99.541 99.356 99.146 98.933 98.721 98.523 98.283 98.048 97.808 97.546 97.301 97.103 96.903 96.636 96.388 96.151
46.723 45.078 49.026 45.568 41.603 40.728 39.873 39.35 41.849 39.189 41.994 39.984 41.268 43.484 39.994 39.594 39.647 39.646 39.518 39.543 39.631 39.737 40.215 40.303 40.441 40.55 40.584 40.663 40.664 -9999 -9999 -9999 -9999 -9999 -9999 -9999 -9999 40.848 40.359 40.437 40.596 40.61 40.631 40.684 40.628 40.803 40.632 40.518 40.617 40.625 40.736 40.77 40.832 40.867 40.87 40.865 40.815 40.782 40.76 40.79 40.816 40.925 41.001 40.994 40.784 43.854 42.382 41.575 41.475 41.526 41.562 41.631 41.784 42.723 44.193 45.298 45.838 45.581 45.588 45.888 45.271 45.306 45.071 44.648 44.613 44.553 44.601 44.586 44.541 46.096 48.013 51.403 50.561 51.071 55.158 55.558 56.738 68.236 73.473 75.553 71.741 67.638 73.786 74.048 60.746 74.713 78.138 72.041 77.548 75.171 71.223 77.661 68.956 65.733 71.071 66.751 67.076 68.308 68.221 69.446 69.926 70.471 70.538 70.906 71.243 71.561 71.871 72.236 72.586 72.958 73.366 73.796 74.173 74.576 74.903 75.208 75.486 75.763 76.041 76.293 76.533 76.781 76.978 77.226 77.418 78.846 78.823 79.011 79.228 79.346 79.563 79.826 80.106 80.398 80.658 80.901 81.168 81.453 81.753 81.976 82.228 82.486 82.706 82.888 83.081 83.246 83.428 83.588 83.746 83.923 84.103 84.246 84.431 84.543 84.666 84.801 84.986 85.143 85.278 85.381 85.468 85.556 85.646 85.768 85.868 85.976 86.076 86.166 86.271 86.336 86.418 86.506 86.561 86.616 86.683 86.743 86.798 86.861 86.888 86.881 86.943 87.008 88.173 88.126 88.216 88.071 87.986 88.018 88.086 88.166 88.291 88.346 88.481 88.606 88.708 88.848 88.963 89.034 89.166 89.311 89.411 89.499 89.616 89.732 89.841 89.97 90.122 90.269 90.416 90.569 90.712 90.812 90.966 91.073 91.196 91.321 91.433 91.538 91.653 91.741 91.891 92.036 92.221 92.406 92.598 92.736 92.856 92.996 93.096 93.213 93.351 93.466 93.576 93.726 93.858 93.978 94.138 94.291 94.443 94.588 94.691 94.831 94.968 95.076 95.206 95.306 95.446 95.576 95.693 95.803 95.946 96.068 96.196 96.346 96.461 96.581 96.693 96.803 96.888 97.001 97.123 97.193 97.261 97.338 97.423 97.513 97.576 97.593 97.638 97.673 97.688 97.721 97.656 98.631 98.968 98.351 98.408 98.408 98.403 98.466 98.491 98.531 98.591 98.656 98.701 98.718 98.743 98.813 98.861 98.856 98.916 98.896 98.936 98.993 99.023 99.036 99.056 99.051 99.056 99.076 99.056 99.063 99.088 99.103 99.141 99.173 99.171 99.208 99.236 99.258 99.316 99.361 99.388 99.428 99.511 99.611 99.743 99.856 99.936 100.063 100.178 100.298 100.403 100.531 100.676 100.808 100.938 101.058 101.196 101.298 101.401 101.486 101.531 101.626 101.743 101.826 101.798 101.633 102.211 103.136 102.253 102.283 102.266 102.296 102.296 102.306 102.336 102.311 102.321 102.311 102.248 102.206 102.148 102.066 102.006 101.906 101.826 101.706 101.591 101.431 101.291 101.148 100.978 100.783 100.618 100.436 100.218 100.031 99.853 99.688 99.503 99.278 99.066 98.878 98.668 98.436 98.201 97.988 97.753 97.508 97.256 96.973 96.771 96.593 96.371 96.091 95.786
45.706 44.626 48.058 48.748 44.388 40.741 39.733 40.517 40.356 39.57 39.142 41.973 42.572 42.139 39.85 39.429 39.504 39.506 39.49 39.625 39.824 40.131 40.353 40.449 40.545 40.573 40.604 40.932 40.953 40.206 -9999 -9999 -9999 -9999 -9999 40.233 40.268 40.45 40.46 40.456 40.569 40.523 40.572 40.604 40.53 40.6 40.622 40.623 40.665 40.697 40.75 40.781 40.827 40.856 40.849 40.838 40.762 40.755 40.781 40.81 40.879 40.988 40.987 40.724 41.409 43.833 41.84 41.51 41.499 41.545 41.805 41.707 46.489 43.801 44.926 45.728 45.758 45.228 45.733 45.821 45.828 45.193 44.651 44.698 44.533 44.578 44.591 44.553 46.233 47.663 48.561 49.368 57.158 56.881 60.988 63.406 60.728 67.298 74.371 71.601 61.821 64.631 73.516 67.796 59.591 62.338 72.053 68.996 65.451 79.493 69.156 78.913 65.203 65.656 67.941 66.681 67.328 68.238 68.906 69.523 69.673 69.958 70.353 70.743 71.096 71.466 71.796 72.146 72.521 72.873 73.253 73.678 74.058 74.431 74.758 75.073 75.351 75.576 75.883 76.083 76.306 76.568 76.773 77.021 77.221 78.718 78.566 78.723 78.921 79.066 79.223 79.478 79.723 79.996 80.218 80.491 80.736 81.003 81.256 81.473 81.716 81.978 82.203 82.378 82.546 82.706 82.898 83.051 83.213 83.386 83.576 83.746 83.903 84.043 84.163 84.278 84.441 84.608 84.756 84.868 84.981 85.061 85.161 85.283 85.378 85.461 85.568 85.693 85.776 85.853 85.928 85.998 86.058 86.116 86.178 86.246 86.281 86.346 86.378 86.411 86.401 86.486 86.478 87.746 87.966 87.608 87.566 87.443 87.511 87.583 87.668 87.751 87.856 87.973 88.081 88.188 88.313 88.403 88.551 88.682 88.768 88.87 88.993 89.081 89.2 89.328 89.461 89.611 89.761 89.887 90.025 90.184 90.304 90.453 90.588 90.678 90.806 90.911 91.023 91.098 91.243 91.368 91.563 91.733 91.923 92.096 92.238 92.381 92.493 92.598 92.736 92.856 92.971 93.123 93.246 93.393 93.531 93.688 93.841 93.961 94.068 94.236 94.348 94.471 94.598 94.726 94.868 95.011 95.148 95.288 95.403 95.518 95.643 95.771 95.916 96.018 96.121 96.203 96.313 96.423 96.518 96.628 96.668 96.758 96.906 97.016 97.098 97.188 97.238 97.246 97.253 97.246 97.208 97.993 98.633 97.903 97.936 97.963 97.958 98.008 98.066 98.093 98.176 98.221 98.246 98.293 98.331 98.401 98.426 98.478 98.498 98.533 98.541 98.588 98.648 98.661 98.666 98.666 98.696 98.696 98.706 98.718 98.753 98.761 98.796 98.831 98.836 98.858 98.901 98.928 98.971 99.041 99.073 99.091 99.198 99.323 99.423 99.546 99.661 99.783 99.878 99.993 100.118 100.228 100.378 100.561 100.688 100.803 100.941 101.056 101.158 101.233 101.278 101.418 101.496 101.593 101.551 101.436 102.321 102.596 102.001 102.013 102.023 102.053 102.046 102.053 102.093 102.103 102.078 102.066 102.018 101.963 101.886 101.786 101.718 101.668 101.556 101.456 101.318 101.181 101.023 100.873 100.693 100.508 100.341 100.146 99.936 99.766 99.593 99.403 99.201 99.003 98.771 98.536 98.338 98.111 97.883 97.651 97.418 97.181 96.928 96.643 96.426 96.231 95.971 95.688 95.383
45.708 44.306 43.301 42.051 41.213 40.221 40.428 39.375 39.072 38.997 39.611 41.328 40.154 40.637 39.587 39.72 39.58 39.52 39.61 39.814 40.12 40.338 40.459 40.528 40.568 40.623 40.717 -9999 -9999 -9999 -9999 -9999 -9999 -9999 -9999 40.435 40.732 40.455 40.449 40.438 40.421 40.67 40.434 40.241 40.161 40.266 40.439 40.596 40.674 40.738 40.748 40.789 40.81 40.834 40.806 40.749 40.703 40.724 40.798 40.839 40.917 40.953 40.876 40.459 41.38 41.475 41.478 41.475 41.5 41.522 42.873 41.843 42.917 44.283 45.398 45.883 45.368 45.311 45.263 45.591 47.748 49.056 44.808 44.616 44.566 44.586 44.548 44.561 47.886 48.701 49.291 51.821 52.121 56.448 60.653 67.171 62.618 59.801 65.168 61.988 58.861 57.433 61.548 66.213 65.008 73.031 68.553 65.843 73.311 73.576 76.523 78.203 68.188 65.706 67.058 67.798 68.228 68.831 69.176 69.008 69.403 69.818 70.228 70.606 70.976 71.343 71.703 72.058 72.421 72.826 73.188 73.548 73.931 74.276 74.591 74.888 75.151 75.408 75.663 75.911 76.101 76.376 76.616 76.806 77.041 78.243 78.261 78.416 78.638 78.741 78.933 79.171 79.391 79.631 79.836 80.108 80.331 80.563 80.781 81.026 81.228 81.456 81.663 81.836 82.031 82.183 82.341 82.488 82.653 82.808 83.023 83.221 83.393 83.516 83.646 83.753 83.911 84.051 84.206 84.336 84.488 84.591 84.658 84.773 84.861 84.966 85.073 85.176 85.261 85.333 85.423 85.501 85.573 85.613 85.673 85.726 85.783 85.838 85.868 85.896 85.908 85.953 85.986 86.213 87.373 87.321 87.063 86.978 86.973 87.016 87.096 87.146 87.281 87.368 87.478 87.573 87.671 87.818 87.921 88.021 88.119 88.244 88.341 88.458 88.575 88.675 88.801 88.956 89.101 89.238 89.38 89.518 89.659 89.811 89.928 90.051 90.181 90.261 90.368 90.476 90.596 90.721 90.873 91.043 91.271 91.458 91.621 91.746 91.871 92.013 92.128 92.261 92.353 92.478 92.638 92.771 92.921 93.096 93.228 93.381 93.526 93.661 93.776 93.891 94.016 94.136 94.268 94.411 94.561 94.703 94.841 94.976 95.096 95.216 95.366 95.481 95.601 95.676 95.783 95.883 95.988 96.046 96.128 96.236 96.341 96.448 96.551 96.618 96.671 96.728 96.751 96.773 96.728 97.251 98.238 97.528 97.458 97.526 97.498 97.536 97.618 97.628 97.716 97.773 97.776 97.861 97.923 97.981 98.011 98.048 98.091 98.116 98.183 98.216 98.278 98.271 98.321 98.326 98.333 98.336 98.326 98.383 98.388 98.411 98.436 98.481 98.501 98.531 98.566 98.601 98.638 98.686 98.736 98.791 98.883 98.991 99.126 99.251 99.368 99.503 99.618 99.746 99.866 99.953 100.111 100.266 100.418 100.538 100.688 100.828 100.913 101.006 101.043 101.148 101.256 101.363 101.326 101.193 102.171 102.348 101.746 101.761 101.793 101.806 101.808 101.816 101.831 101.843 101.821 101.806 101.768 101.703 101.611 101.521 101.426 101.328 101.261 101.148 101.033 100.901 100.736 100.583 100.426 100.228 100.051 99.836 99.633 99.478 99.286 99.086 98.901 98.683 98.466 98.226 98.011 97.783 97.573 97.313 97.073 96.813 96.578 96.271 96.058 95.836 95.546 95.238 94.998
45.646 44.371 43.183 41.921 40.826 39.981 39.571 39.277 39.966 38.996 38.899 42.17 42.644 41.213 39.564 39.58 39.541 39.508 39.743 40.123 40.299 40.45 40.539 40.573 40.539 40.676 40.848 -9999 -9999 -9999 -9999 -9999 -9999 -9999 -9999 40.383 40.404 40.45 40.453 40.404 40.519 40.597 40.241 -9999 -9999 40.33 40.556 40.57 40.653 40.701 40.714 40.77 40.793 40.745 40.685 40.643 40.65 40.684 40.746 40.781 40.816 40.94 40.589 41.303 41.379 41.38 41.424 41.448 41.489 41.573 42.411 42.212 43.513 45.136 45.893 45.493 45.263 45.473 45.591 45.693 46.366 44.743 44.653 44.553 44.583 44.596 45.918 53.546 53.696 49.258 49.683 52.858 50.978 51.751 59.921 66.538 67.573 60.073 56.736 56.066 56.886 57.738 58.353 61.228 68.058 72.403 61.416 65.046 71.056 76.553 71.568 73.926 65.983 66.476 67.148 68.321 68.288 68.053 68.396 68.803 69.248 69.673 70.126 70.561 70.943 71.301 71.653 72.016 72.348 72.693 73.063 73.431 73.791 74.156 74.481 74.753 75.006 75.256 75.501 75.733 75.926 76.181 76.446 76.646 76.896 77.958 78.066 78.128 78.371 78.458 78.631 78.856 79.066 79.281 79.486 79.728 79.943 80.156 80.383 80.576 80.781 80.981 81.151 81.316 81.501 81.626 81.786 81.913 82.093 82.238 82.473 82.673 82.823 82.958 83.081 83.193 83.356 83.481 83.648 83.761 83.898 84.021 84.098 84.193 84.323 84.421 84.536 84.621 84.728 84.808 84.923 84.976 85.051 85.108 85.151 85.208 85.286 85.331 85.351 85.403 85.438 85.438 85.501 85.511 87.056 87.293 86.616 86.568 86.438 86.456 86.523 86.548 86.671 86.776 86.863 86.963 87.111 87.171 87.29 87.419 87.514 87.63 87.71 87.828 87.924 88.021 88.154 88.291 88.428 88.569 88.709 88.846 88.998 89.151 89.311 89.426 89.536 89.653 89.748 89.866 89.951 90.068 90.236 90.386 90.583 90.811 90.968 91.118 91.248 91.391 91.528 91.666 91.761 91.898 92.021 92.171 92.333 92.481 92.621 92.786 92.921 93.046 93.178 93.311 93.448 93.578 93.711 93.828 93.956 94.123 94.236 94.393 94.528 94.668 94.806 94.946 95.061 95.158 95.243 95.356 95.438 95.503 95.623 95.723 95.806 95.911 95.988 96.061 96.101 96.171 96.198 96.261 96.261 96.588 97.791 97.221 96.971 97.083 97.048 97.091 97.136 97.163 97.271 97.293 97.353 97.401 97.468 97.543 97.586 97.631 97.673 97.723 97.771 97.813 97.866 97.906 97.951 97.956 97.943 97.998 98.006 98.006 98.038 98.078 98.106 98.156 98.173 98.168 98.211 98.298 98.336 98.363 98.408 98.491 98.566 98.711 98.826 98.971 99.088 99.208 99.346 99.456 99.571 99.693 99.868 100.016 100.168 100.303 100.426 100.558 100.661 100.716 100.801 100.913 101.066 101.113 101.073 100.968 102.063 101.913 101.501 101.533 101.546 101.538 101.556 101.583 101.561 101.583 101.558 101.538 101.508 101.441 101.333 101.228 101.146 101.033 100.926 100.833 100.721 100.573 100.418 100.258 100.098 99.938 99.753 99.561 99.336 99.158 98.971 98.763 98.561 98.353 98.123 97.913 97.678 97.448 97.196 96.986 96.746 96.501 96.236 95.951 95.738 95.478 95.151 94.836 94.603
45.676 44.571 43.191 42.168 40.523 39.726 39.787 40.549 40.785 41.234 44.756 40.586 41.952 39.61 39.48 39.473 39.483 39.653 40.014 40.272 40.415 40.505 40.54 40.653 40.408 -9999 -9999 -9999 -9999 -9999 -9999 -9999 -9999 -9999 -9999 -9999 40.363 40.403 40.404 40.393 40.398 -9999 -9999 -9999 -9999 -9999 41.213 40.614 40.665 40.654 40.721 40.697 40.672 40.633 40.583 40.609 40.635 40.677 40.705 40.728 40.874 40.976 41.299 41.341 41.34 41.357 41.408 41.435 41.482 41.536 41.899 46.938 44.808 45.688 45.828 45.441 45.766 45.871 45.776 45.376 44.826 44.668 44.538 44.556 44.563 44.536 51.608 52.743 51.171 49.583 50.116 50.798 51.351 51.891 53.653 64.668 65.861 55.696 55.691 56.213 56.971 57.673 58.558 59.396 62.971 60.983 63.058 63.246 68.616 74.031 70.958 65.773 66.673 67.288 67.311 67.088 67.378 67.803 68.238 68.668 69.143 69.626 70.063 70.448 70.838 71.211 71.563 71.893 72.226 72.598 72.943 73.296 73.656 73.998 74.291 74.601 74.848 75.111 75.358 75.561 75.758 76.003 76.246 76.458 76.763 77.311 77.903 77.876 78.108 78.216 78.348 78.536 78.748 78.951 79.171 79.368 79.551 79.758 79.963 80.141 80.341 80.493 80.631 80.798 80.958 81.093 81.213 81.361 81.513 81.676 81.868 82.093 82.268 82.391 82.511 82.648 82.771 82.918 83.058 83.176 83.321 83.443 83.548 83.641 83.743 83.858 83.981 84.063 84.193 84.268 84.361 84.451 84.531 84.593 84.628 84.693 84.756 84.808 84.846 84.913 84.931 84.948 84.946 84.943 84.978 86.621 86.136 86.071 86.018 85.901 85.956 85.988 86.083 86.161 86.278 86.376 86.468 86.566 86.683 86.802 86.902 87.011 87.129 87.223 87.304 87.406 87.524 87.62 87.769 87.914 88.058 88.201 88.365 88.521 88.633 88.776 88.896 88.998 89.133 89.216 89.338 89.461 89.598 89.743 89.918 90.156 90.301 90.473 90.628 90.781 90.908 91.016 91.156 91.291 91.423 91.583 91.738 91.868 92.028 92.191 92.323 92.463 92.581 92.721 92.853 92.996 93.146 93.253 93.393 93.508 93.671 93.818 93.938 94.066 94.201 94.361 94.481 94.613 94.696 94.798 94.883 94.973 95.081 95.178 95.288 95.398 95.476 95.541 95.611 95.658 95.696 95.758 95.791 95.778 97.058 97.041 96.506 96.603 96.598 96.601 96.666 96.716 96.778 96.831 96.878 96.956 97.031 97.103 97.131 97.206 97.223 97.308 97.348 97.388 97.466 97.518 97.571 97.571 97.608 97.643 97.631 97.653 97.718 97.751 97.761 97.781 97.816 97.846 97.901 97.963 97.986 98.036 98.088 98.173 98.253 98.381 98.526 98.648 98.803 98.913 99.041 99.163 99.311 99.471 99.596 99.728 99.916 100.041 100.168 100.303 100.401 100.466 100.531 100.648 100.781 100.878 100.756 100.731 101.798 101.636 101.238 101.281 101.278 101.298 101.306 101.328 101.336 101.328 101.318 101.291 101.246 101.166 101.063 100.963 100.836 100.746 100.618 100.516 100.413 100.268 100.108 99.968 99.806 99.631 99.441 99.236 99.023 98.846 98.661 98.451 98.221 98.008 97.796 97.566 97.341 97.121 96.893 96.658 96.431 96.191 95.916 95.638 95.406 95.143 94.806 94.541 94.276
45.433 44.486 43.428 42.576 40.648 39.226 47.77 40.594 45.228 42.162 43.797 43.791 39.638 39.472 39.463 39.432 39.583 39.905 40.231 40.41 40.495 40.522 40.538 40.281 -9999 -9999 -9999 -9999 -9999 -9999 -9999 -9999 -9999 -9999 -9999 -9999 -9999 40.298 40.355 40.339 40.231 -9999 -9999 -9999 -9999 -9999 -9999 41.243 40.667 40.665 40.674 40.649 40.578 40.544 40.541 40.554 40.603 40.655 40.708 40.749 40.667 41.069 41.245 41.31 41.308 41.346 41.372 41.415 41.543 41.822 45.641 43.888 45.396 45.806 45.448 45.551 45.831 45.966 45.596 45.136 44.728 44.588 44.563 44.571 44.553 44.516 47.311 52.511 48.663 49.058 50.018 58.696 58.248 51.838 56.166 61.868 54.638 55.523 57.698 57.348 57.876 58.543 59.091 61.496 60.263 60.888 64.883 63.031 65.158 63.423 67.451 65.261 65.806 66.038 66.413 66.751 67.158 67.628 68.088 68.571 69.056 69.546 69.981 70.396 70.756 71.103 71.466 71.808 72.153 72.496 72.846 73.186 73.533 73.881 74.188 74.461 74.696 74.941 75.176 75.383 75.588 75.808 76.046 76.248 76.511 77.366 77.663 77.658 77.913 77.946 78.083 78.263 78.466 78.638 78.841 79.018 79.208 79.366 79.551 79.718 79.898 80.021 80.146 80.288 80.413 80.538 80.653 80.776 80.928 81.093 81.273 81.496 81.686 81.791 81.948 82.063 82.188 82.336 82.488 82.611 82.743 82.868 82.968 83.071 83.183 83.281 83.391 83.516 83.621 83.716 83.798 83.911 84.003 84.073 84.126 84.176 84.221 84.288 84.326 84.373 84.433 84.451 84.428 84.481 84.443 84.596 85.878 85.621 85.543 85.433 85.403 85.408 85.511 85.603 85.681 85.761 85.871 85.956 86.079 86.182 86.283 86.389 86.503 86.592 86.686 86.798 86.883 87.012 87.148 87.29 87.43 87.572 87.736 87.866 87.998 88.141 88.261 88.358 88.493 88.596 88.728 88.818 88.936 89.101 89.291 89.481 89.686 89.866 90.041 90.173 90.321 90.446 90.543 90.663 90.798 90.978 91.113 91.278 91.453 91.596 91.736 91.861 91.983 92.128 92.261 92.401 92.533 92.681 92.793 92.933 93.066 93.208 93.343 93.476 93.648 93.801 93.921 94.043 94.148 94.241 94.343 94.456 94.553 94.646 94.751 94.866 94.948 95.016 95.091 95.136 95.221 95.241 95.316 95.281 96.513 96.796 96.056 96.143 96.176 96.143 96.208 96.266 96.306 96.396 96.463 96.531 96.593 96.651 96.711 96.761 96.801 96.878 96.943 97.013 97.066 97.108 97.151 97.191 97.196 97.241 97.283 97.311 97.353 97.358 97.391 97.436 97.456 97.501 97.556 97.618 97.673 97.716 97.768 97.876 97.933 98.066 98.221 98.363 98.498 98.598 98.758 98.868 99.023 99.196 99.356 99.501 99.628 99.783 99.923 100.058 100.128 100.203 100.281 100.413 100.546 100.606 100.488 100.493 101.693 101.456 101.013 101.048 101.048 101.058 101.048 101.078 101.081 101.051 101.051 101.028 100.961 100.888 100.788 100.681 100.591 100.478 100.353 100.258 100.116 99.993 99.826 99.646 99.503 99.333 99.133 98.911 98.721 98.556 98.353 98.138 97.911 97.681 97.486 97.273 97.068 96.806 96.596 96.356 96.113 95.856 95.593 95.306 95.098 94.823 94.496 94.258 93.976
44.951 43.888 42.778 44.243 40.583 39.816 43.725 45.261 40.758 44.382 40.964 39.987 39.659 39.476 39.448 39.493 39.815 40.267 40.406 40.456 40.539 40.298 -9999 -9999 -9999 -9999 -9999 -9999 -9999 -9999 -9999 -9999 -9999 -9999 -9999 -9999 -9999 40.198 40.325 40.37 -9999 -9999 -9999 -9999 -9999 -9999 -9999 40.936 40.675 40.668 40.653 40.611 40.535 40.534 40.531 40.56 40.574 40.654 40.744 40.635 40.299 41.226 41.244 41.321 41.321 41.351 41.38 41.432 42.361 42.651 43.678 44.956 45.741 45.403 45.556 45.781 45.803 45.758 45.383 44.721 44.671 44.531 44.561 44.571 44.508 45.783 51.438 47.288 49.396 48.758 51.866 60.456 60.771 53.218 53.936 56.948 54.903 55.576 56.641 57.808 57.556 58.513 58.951 59.533 59.983 61.086 66.696 66.463 62.516 63.903 64.936 65.136 65.408 65.746 66.116 66.548 67.016 67.493 67.981 68.473 68.981 69.443 69.863 70.256 70.616 70.986 71.363 71.721 72.048 72.398 72.743 73.071 73.398 73.718 74.033 74.303 74.533 74.806 75.008 75.248 75.441 75.611 75.841 76.023 76.258 76.803 77.586 77.451 77.596 77.698 77.811 77.963 78.176 78.346 78.518 78.693 78.846 78.996 79.161 79.308 79.443 79.578 79.698 79.843 79.923 79.988 80.108 80.226 80.381 80.546 80.648 80.911 81.083 81.218 81.351 81.476 81.608 81.728 81.896 82.006 82.156 82.268 82.376 82.488 82.598 82.711 82.801 82.913 83.033 83.106 83.193 83.316 83.423 83.508 83.558 83.628 83.678 83.743 83.798 83.833 83.888 83.931 83.933 83.931 83.966 83.986 85.401 85.136 85.103 85.008 84.913 84.913 84.943 85.008 85.106 85.186 85.258 85.346 85.461 85.567 85.679 85.781 85.859 85.962 86.075 86.179 86.272 86.385 86.526 86.641 86.809 86.96 87.103 87.262 87.386 87.528 87.656 87.766 87.856 88.001 88.118 88.196 88.333 88.456 88.621 88.828 89.023 89.233 89.413 89.586 89.706 89.833 89.966 90.101 90.218 90.328 90.478 90.678 90.841 90.988 91.133 91.256 91.396 91.516 91.678 91.806 91.926 92.076 92.208 92.346 92.463 92.621 92.751 92.916 93.061 93.208 93.346 93.461 93.578 93.658 93.781 93.893 93.996 94.093 94.206 94.306 94.428 94.513 94.573 94.638 94.688 94.753 94.826 94.823 95.636 96.561 95.621 95.633 95.721 95.706 95.758 95.831 95.863 95.936 96.003 96.076 96.146 96.238 96.283 96.331 96.401 96.478 96.531 96.576 96.671 96.711 96.746 96.798 96.838 96.901 96.908 96.936 96.973 97.008 97.048 97.078 97.153 97.166 97.208 97.251 97.321 97.393 97.468 97.526 97.611 97.773 97.933 98.033 98.188 98.321 98.473 98.613 98.753 98.933 99.063 99.223 99.373 99.501 99.646 99.771 99.873 99.931 100.046 100.156 100.311 100.403 100.201 100.263 101.643 101.023 100.788 100.811 100.796 100.823 100.826 100.831 100.821 100.811 100.796 100.763 100.736 100.648 100.543 100.418 100.336 100.226 100.096 99.983 99.863 99.721 99.566 99.408 99.221 99.046 98.841 98.633 98.426 98.248 98.071 97.838 97.603 97.408 97.191 96.988 96.768 96.546 96.308 96.066 95.813 95.571 95.306 95.036 94.821 94.571 94.238 93.958 93.636
44.728 43.251 42.698 41.346 39.486 39.565 40.16 42.721 45.638 43.134 40.243 39.554 39.655 39.428 39.408 39.674 40.11 40.398 40.45 41.161 40.501 -9999 -9999 -9999 -9999 -9999 -9999 40.193 -9999 -9999 -9999 -9999 -9999 -9999 -9999 -9999 -9999 -9999 40.141 -9999 -9999 -9999 -9999 -9999 -9999 -9999 41.128 41.077 40.681 40.655 40.616 40.581 40.478 40.52 40.56 40.543 40.584 40.659 40.659 40.095 41.297 41.194 41.28 41.319 41.337 41.324 41.348 41.493 49.428 43.591 45.341 45.523 45.448 45.666 45.563 45.666 45.768 45.563 45.081 44.748 44.556 44.546 44.556 44.543 44.611 46.458 46.293 50.176 49.123 54.228 54.508 59.931 60.668 53.476 53.733 54.251 54.796 55.676 56.103 56.668 57.448 58.103 58.811 59.791 60.248 60.538 61.863 68.501 62.978 64.046 64.478 64.731 65.053 65.451 65.916 66.386 66.861 67.368 67.878 68.386 68.866 69.323 69.746 70.123 70.503 70.858 71.233 71.583 71.913 72.258 72.588 72.921 73.281 73.608 73.898 74.166 74.373 74.588 74.846 75.043 75.261 75.433 75.651 75.823 76.056 76.246 77.536 77.223 77.348 77.478 77.576 77.733 77.863 78.041 78.198 78.351 78.508 78.633 78.786 78.903 79.026 79.163 79.296 79.391 79.453 79.488 79.586 79.686 79.833 80.018 80.106 80.313 80.478 80.638 80.758 80.886 80.996 81.121 81.281 81.401 81.531 81.656 81.781 81.883 82.018 82.118 82.216 82.313 82.423 82.521 82.613 82.703 82.823 82.921 83.008 83.061 83.143 83.183 83.241 83.266 83.306 83.361 83.398 83.426 83.426 83.426 83.441 85.033 84.591 84.526 84.501 84.373 84.373 84.443 84.516 84.581 84.663 84.731 84.846 84.958 85.053 85.157 85.266 85.355 85.468 85.589 85.698 85.81 85.93 86.065 86.189 86.314 86.482 86.605 86.796 86.948 87.046 87.146 87.276 87.408 87.536 87.621 87.728 87.838 88.018 88.201 88.378 88.583 88.806 88.973 89.096 89.236 89.371 89.508 89.618 89.751 89.908 90.076 90.218 90.373 90.511 90.628 90.776 90.933 91.081 91.206 91.353 91.493 91.621 91.753 91.868 92.036 92.181 92.338 92.483 92.628 92.783 92.886 92.981 93.121 93.226 93.353 93.448 93.548 93.676 93.793 93.908 93.981 94.063 94.131 94.178 94.243 94.281 94.326 94.798 96.126 95.358 95.143 95.248 95.231 95.278 95.341 95.426 95.481 95.536 95.641 95.738 95.806 95.871 95.913 95.978 96.058 96.136 96.206 96.266 96.308 96.373 96.413 96.458 96.488 96.541 96.566 96.608 96.651 96.693 96.723 96.768 96.808 96.846 96.918 96.993 97.053 97.123 97.196 97.271 97.421 97.606 97.733 97.871 97.998 98.161 98.331 98.468 98.631 98.776 98.946 99.086 99.223 99.368 99.503 99.586 99.658 99.773 99.896 100.061 100.106 99.816 100.088 101.611 100.561 100.586 100.598 100.593 100.623 100.613 100.618 100.618 100.601 100.596 100.543 100.516 100.406 100.308 100.216 100.091 99.998 99.853 99.731 99.598 99.466 99.306 99.136 98.951 98.771 98.573 98.366 98.176 98.003 97.783 97.568 97.346 97.131 96.933 96.703 96.483 96.263 96.026 95.788 95.553 95.288 95.036 94.748 94.538 94.281 93.933 93.631 93.331
44.553 43.483 41.708 42.366 42.001 46.29 40.227 43.539 39.458 39.782 39.738 39.855 39.472 39.337 39.391 39.871 40.534 40.447 40.52 41.403 -9999 -9999 -9999 -9999 -9999 -9999 -9999 -9999 -9999 -9999 -9999 -9999 -9999 -9999 -9999 -9999 -9999 -9999 -9999 -9999 -9999 -9999 -9999 -9999 -9999 -9999 40.332 40.519 40.624 40.623 40.569 40.524 40.506 40.544 40.545 40.532 40.571 40.591 40.532 40.795 41.148 41.21 41.254 41.346 41.301 41.321 41.381 42.033 46.973 44.698 45.403 45.561 45.493 45.821 45.866 45.386 46.113 45.343 44.976 44.713 44.556 44.561 44.538 44.508 45.863 46.338 47.763 50.216 50.381 53.266 55.753 53.181 53.198 53.573 53.671 54.143 54.821 55.583 56.201 56.863 57.351 57.826 58.418 60.796 60.858 61.371 61.068 61.703 63.383 63.678 64.041 64.333 64.736 65.216 65.706 66.196 66.708 67.246 67.743 68.251 68.736 69.188 69.603 69.988 70.366 70.721 71.096 71.458 71.781 72.093 72.438 72.793 73.121 73.451 73.738 73.981 74.228 74.436 74.653 74.881 75.061 75.233 75.438 75.631 75.828 76.003 77.336 76.988 77.101 77.226 77.286 77.453 77.563 77.733 77.898 78.013 78.143 78.286 78.398 78.531 78.616 78.753 78.863 78.938 78.988 79.053 79.078 79.148 79.303 79.488 79.606 79.751 79.883 80.041 80.183 80.303 80.383 80.518 80.636 80.768 80.903 81.033 81.153 81.288 81.406 81.506 81.601 81.713 81.803 81.903 81.991 82.096 82.193 82.321 82.391 82.468 82.551 82.616 82.658 82.723 82.766 82.811 82.871 82.878 82.873 82.933 82.928 82.861 84.153 84.501 84.018 83.966 83.843 83.876 83.943 83.996 84.098 84.171 84.233 84.325 84.427 84.536 84.671 84.761 84.882 84.994 85.11 85.232 85.34 85.478 85.604 85.721 85.899 86.026 86.163 86.318 86.441 86.558 86.696 86.823 86.936 87.031 87.143 87.271 87.426 87.576 87.741 87.953 88.163 88.353 88.536 88.646 88.763 88.926 89.033 89.166 89.331 89.463 89.608 89.768 89.888 90.063 90.178 90.341 90.496 90.633 90.768 90.908 91.046 91.146 91.268 91.468 91.603 91.768 91.921 92.066 92.186 92.318 92.433 92.583 92.668 92.786 92.883 92.998 93.116 93.206 93.346 93.441 93.546 93.618 93.683 93.718 93.781 93.796 93.821 95.496 95.068 94.663 94.741 94.763 94.786 94.883 94.931 95.011 95.093 95.153 95.268 95.333 95.433 95.493 95.563 95.611 95.696 95.778 95.838 95.901 95.958 96.031 96.081 96.121 96.156 96.208 96.256 96.308 96.356 96.403 96.441 96.486 96.533 96.578 96.636 96.701 96.778 96.848 96.943 97.123 97.248 97.396 97.536 97.701 97.868 98.048 98.168 98.331 98.493 98.653 98.803 98.956 99.111 99.243 99.341 99.438 99.528 99.616 99.776 99.676 99.536 99.976 101.591 100.636 100.406 100.428 100.426 100.463 100.423 100.421 100.448 100.391 100.373 100.331 100.286 100.166 100.071 99.983 99.866 99.746 99.646 99.521 99.406 99.236 99.066 98.873 98.726 98.523 98.323 98.108 97.938 97.728 97.526 97.328 97.118 96.888 96.673 96.446 96.233 95.993 95.768 95.533 95.296 95.023 94.746 94.451 94.228 93.941 93.641 93.316 93.006
44.043 42.731 41.316 40.493 39.465 42.479 39.418 44.805 45.658 39.234 39.215 39.021 39.207 39.258 39.338 39.942 40.337 40.462 40.706 -9999 -9999 -9999 -9999 -9999 -9999 -9999 -9999 -9999 -9999 -9999 -9999 -9999 -9999 -9999 -9999 -9999 -9999 -9999 -9999 -9999 -9999 -9999 -9999 40.183 40.198 -9999 40.31 40.604 40.627 40.604 40.533 40.505 40.512 40.51 40.506 40.539 40.59 40.507 40.261 40.719 41.102 41.188 41.194 41.243 41.288 41.311 41.558 43.283 44.246 45.191 44.681 45.513 45.541 45.583 45.823 44.958 45.088 45.256 44.706 44.548 44.556 44.563 44.493 45.601 47.511 48.643 49.931 50.046 51.433 51.331 52.026 52.168 53.021 53.048 53.493 53.993 55.073 55.288 55.853 56.653 57.058 57.481 58.096 59.646 59.981 60.078 61.141 62.591 62.758 63.231 63.571 64.011 64.503 65.003 65.556 66.063 66.573 67.076 67.583 68.091 68.583 69.036 69.446 69.843 70.208 70.583 70.936 71.276 71.606 71.953 72.291 72.638 73.003 73.308 73.563 73.798 74.023 74.223 74.441 74.666 74.881 75.058 75.241 75.428 75.626 75.796 77.038 76.711 76.811 76.958 77.016 77.156 77.293 77.418 77.551 77.701 77.798 77.913 78.018 78.141 78.216 78.313 78.418 78.491 78.506 78.553 78.636 78.688 78.773 78.946 79.063 79.156 79.291 79.461 79.618 79.698 79.818 79.898 80.023 80.138 80.286 80.381 80.483 80.641 80.761 80.878 80.983 81.073 81.183 81.258 81.348 81.431 81.563 81.688 81.766 81.876 81.943 81.991 82.076 82.158 82.201 82.238 82.296 82.353 82.383 82.383 82.388 82.438 82.626 83.686 83.703 83.501 83.433 83.356 83.358 83.448 83.521 83.591 83.663 83.77 83.841 83.982 84.078 84.206 84.318 84.429 84.555 84.655 84.769 84.899 85.01 85.141 85.258 85.424 85.581 85.733 85.838 85.963 86.116 86.256 86.363 86.476 86.603 86.701 86.816 86.963 87.153 87.333 87.521 87.731 87.923 88.068 88.211 88.338 88.443 88.586 88.751 88.888 89.048 89.168 89.303 89.478 89.613 89.768 89.901 90.056 90.191 90.321 90.438 90.573 90.713 90.866 91.001 91.171 91.326 91.478 91.621 91.748 91.876 91.983 92.106 92.223 92.348 92.466 92.576 92.663 92.796 92.911 93.001 93.086 93.146 93.196 93.243 93.273 93.243 94.541 94.578 94.168 94.288 94.293 94.301 94.391 94.471 94.513 94.598 94.678 94.771 94.856 94.948 95.046 95.101 95.188 95.276 95.328 95.421 95.481 95.568 95.631 95.691 95.731 95.778 95.848 95.878 95.936 95.996 96.048 96.103 96.143 96.203 96.263 96.316 96.358 96.428 96.533 96.638 96.786 96.953 97.101 97.256 97.433 97.556 97.741 97.866 98.036 98.216 98.341 98.516 98.668 98.833 98.923 99.068 99.136 99.233 99.348 99.438 99.263 99.268 100.056 101.216 100.116 100.118 100.148 100.223 100.281 100.278 100.288 100.293 100.221 100.188 100.161 100.073 99.998 99.871 99.783 99.683 99.561 99.428 99.293 99.156 99.013 98.851 98.668 98.488 98.293 98.081 97.898 97.696 97.521 97.326 97.108 96.878 96.656 96.453 96.211 95.998 95.758 95.486 95.213 94.956 94.701 94.396 94.158 93.923 93.651 93.336 93.023 92.613
43.693 42.708 40.928 39.653 45.098 44.127 43.099 42.776 43.489 39.651 39.191 39.237 39.301 39.348 39.39 40.099 40.183 40.398 -9999 -9999 -9999 -9999 -9999 -9999 -9999 -9999 -9999 -9999 -9999 -9999 -9999 -9999 -9999 -9999 -9999 -9999 -9999 -9999 -9999 -9999 -9999 -9999 -9999 -9999 40.191 40.283 40.502 40.647 40.602 40.547 40.487 40.493 40.5 40.47 40.446 40.49 40.523 40.12 41.408 42.278 41.162 41.161 41.181 41.216 41.236 41.303 42.723 44.221 44.876 44.563 43.791 43.828 44.561 45.671 45.891 44.586 44.891 44.823 44.586 44.553 44.531 44.523 44.468 46.781 48.441 48.933 53.438 53.033 50.888 51.156 51.516 52.121 52.526 53.171 53.428 53.988 54.776 55.293 55.726 56.518 56.803 57.388 58.011 58.788 59.286 60.816 62.313 61.916 62.368 62.726 63.198 63.691 64.233 64.751 65.303 65.858 66.383 66.896 67.416 67.938 68.431 68.896 69.278 69.656 70.036 70.401 70.741 71.106 71.451 71.788 72.123 72.461 72.781 73.101 73.383 73.611 73.833 74.061 74.281 74.478 74.676 74.853 75.058 75.228 75.401 75.626 76.676 76.468 76.523 76.673 76.753 76.818 76.963 77.126 77.243 77.351 77.451 77.573 77.651 77.741 77.816 77.908 77.993 78.066 78.088 78.096 78.161 78.191 78.271 78.391 78.513 78.628 78.753 78.896 78.996 79.101 79.211 79.283 79.381 79.518 79.613 79.728 79.823 79.968 80.091 80.201 80.321 80.428 80.528 80.628 80.723 80.798 80.903 81.018 81.116 81.226 81.303 81.378 81.446 81.533 81.603 81.668 81.698 81.771 81.818 81.828 81.848 81.853 81.906 82.426 83.153 83.183 82.988 82.908 82.843 82.871 82.943 83.018 83.091 83.206 83.301 83.402 83.514 83.642 83.761 83.879 83.984 84.102 84.208 84.321 84.44 84.57 84.695 84.87 85.001 85.131 85.251 85.396 85.536 85.673 85.806 85.911 86.051 86.151 86.256 86.376 86.543 86.718 86.901 87.116 87.316 87.478 87.643 87.748 87.893 88.023 88.151 88.301 88.441 88.566 88.733 88.883 89.028 89.158 89.318 89.458 89.603 89.721 89.863 89.988 90.138 90.281 90.436 90.586 90.753 90.901 91.013 91.183 91.308 91.431 91.548 91.656 91.788 91.891 92.028 92.128 92.266 92.346 92.461 92.538 92.616 92.668 92.711 92.726 92.723 93.753 94.296 93.711 93.753 93.796 93.803 93.893 93.966 94.031 94.121 94.228 94.313 94.393 94.508 94.561 94.636 94.728 94.811 94.881 94.948 95.021 95.143 95.216 95.288 95.338 95.371 95.443 95.486 95.543 95.623 95.681 95.751 95.786 95.838 95.906 95.973 96.046 96.101 96.196 96.341 96.473 96.628 96.793 96.936 97.111 97.266 97.421 97.581 97.748 97.928 98.056 98.233 98.411 98.513 98.658 98.753 98.876 98.928 99.041 99.053 98.848 99.058 100.161 101.008 99.788 99.793 99.803 99.853 99.966 100.036 100.078 100.076 100.063 100.043 100.018 99.928 99.853 99.733 99.631 99.531 99.388 99.256 99.128 98.993 98.828 98.666 98.531 98.306 98.106 97.938 97.716 97.511 97.321 97.118 96.903 96.683 96.478 96.248 95.968 95.698 95.431 95.138 94.848 94.618 94.368 94.101 93.886 93.651 93.331 93.008 92.643 92.163
43.106 41.663 40.126 45.056 40.285 43.331 44.87 45.894 44.818 42.612 39.401 39.144 39.224 39.303 39.322 39.673 40.21 40.374 40.168 -9999 -9999 40.168 -9999 -9999 -9999 -9999 -9999 -9999 -9999 -9999 -9999 -9999 -9999 -9999 -9999 40.138 -9999 -9999 -9999 -9999 -9999 -9999 -9999 -9999 41.978 40.615 40.643 40.629 40.585 40.52 40.467 40.48 40.465 40.454 40.468 40.475 40.319 40.498 41.084 43.181 41.181 41.071 41.136 41.186 41.453 41.541 44.083 44.791 44.601 43.818 43.843 43.851 43.943 44.363 45.721 45.528 45.146 44.741 44.566 44.553 44.521 44.473 50.418 52.923 48.551 49.253 50.973 51.998 50.758 51.051 51.496 52.131 52.393 53.051 53.581 54.088 54.933 55.033 55.566 56.143 56.936 57.026 57.588 58.431 60.421 61.346 60.988 61.453 61.876 62.363 62.863 63.408 63.966 64.503 65.061 65.623 66.163 66.678 67.203 67.743 68.228 68.661 69.086 69.488 69.861 70.226 70.588 70.936 71.278 71.591 71.933 72.291 72.606 72.906 73.176 73.431 73.636 73.851 74.038 74.248 74.461 74.668 74.861 75.001 75.166 75.401 75.813 76.318 76.251 76.381 76.438 76.538 76.653 76.773 76.911 77.016 77.098 77.203 77.268 77.361 77.421 77.508 77.566 77.636 77.688 77.683 77.698 77.741 77.786 77.893 77.986 78.086 78.171 78.308 78.421 78.508 78.591 78.688 78.786 78.886 78.993 79.086 79.181 79.311 79.448 79.528 79.633 79.763 79.856 79.966 80.071 80.163 80.236 80.336 80.451 80.561 80.653 80.753 80.826 80.906 80.981 81.038 81.101 81.153 81.211 81.251 81.263 81.313 81.276 81.321 83.056 82.851 82.538 82.483 82.403 82.318 82.371 82.423 82.536 82.618 82.708 82.82 82.941 83.055 83.157 83.295 83.409 83.535 83.636 83.746 83.859 84.005 84.116 84.275 84.433 84.576 84.703 84.853 84.986 85.113 85.236 85.356 85.471 85.586 85.701 85.813 85.953 86.126 86.326 86.526 86.716 86.898 87.043 87.186 87.336 87.466 87.601 87.748 87.891 88.026 88.178 88.303 88.451 88.606 88.756 88.886 89.026 89.153 89.291 89.431 89.561 89.723 89.858 90.033 90.188 90.311 90.458 90.623 90.756 90.881 90.996 91.116 91.233 91.343 91.473 91.566 91.683 91.816 91.916 91.978 92.071 92.136 92.196 92.228 92.243 92.808 93.898 93.221 93.231 93.316 93.333 93.388 93.476 93.543 93.631 93.726 93.823 93.896 94.018 94.108 94.176 94.253 94.363 94.418 94.503 94.601 94.716 94.776 94.833 94.906 94.953 95.003 95.081 95.131 95.226 95.278 95.348 95.418 95.468 95.576 95.656 95.693 95.791 95.871 96.001 96.153 96.298 96.441 96.626 96.803 96.961 97.116 97.278 97.431 97.596 97.791 97.956 98.081 98.216 98.346 98.488 98.573 98.626 98.728 98.658 98.563 98.973 100.348 100.251 99.443 99.456 99.503 99.548 99.601 99.721 99.801 99.791 99.791 99.811 99.798 99.761 99.656 99.568 99.468 99.371 99.228 99.118 98.996 98.831 98.708 98.546 98.353 98.188 98.003 97.811 97.601 97.381 97.166 96.941 96.716 96.483 96.226 95.968 95.656 95.363 95.093 94.833 94.523 94.348 94.071 93.838 93.531 93.213 92.876 92.566 92.206 91.803
42.433 42.561 40.356 39.651 40.202 40.054 40.065 43.11 42.467 39.434 39.183 39.212 39.21 39.25 39.351 39.812 40.264 40.375 40.736 -9999 40.173 40.176 -9999 -9999 -9999 41.561 41.489 -9999 -9999 -9999 -9999 -9999 -9999 -9999 -9999 -9999 -9999 -9999 40.181 -9999 -9999 -9999 -9999 41.011 41.001 40.668 40.634 40.588 40.542 40.458 40.456 40.459 40.45 40.416 40.474 40.419 40.06 40.891 41.496 42.712 41.052 41.113 41.103 41.156 41.233 42.778 44.741 44.756 43.848 43.828 43.858 43.941 44.003 44.051 44.193 45.426 44.781 44.556 44.551 44.541 47.228 47.683 46.783 48.231 48.993 50.061 50.253 50.371 50.651 51.046 51.476 51.833 52.553 53.056 53.593 54.401 54.576 55.048 55.238 56.206 56.238 56.838 58.526 59.213 59.598 59.988 60.538 61.001 61.518 62.041 62.601 63.128 63.676 64.246 64.801 65.373 65.918 66.468 66.986 67.491 68.011 68.501 68.903 69.273 69.668 70.203 70.381 70.738 71.083 71.388 71.716 72.066 72.388 72.706 72.966 73.208 73.416 73.621 73.846 74.026 74.243 74.433 74.623 74.753 74.896 75.128 75.606 76.008 75.981 76.101 76.171 76.228 76.326 76.423 76.528 76.656 76.741 76.828 76.873 76.958 77.028 77.076 77.136 77.213 77.243 77.246 77.263 77.291 77.303 77.396 77.471 77.568 77.651 77.756 77.853 77.926 77.986 78.086 78.191 78.256 78.351 78.438 78.536 78.651 78.783 78.891 78.973 79.106 79.193 79.301 79.398 79.491 79.603 79.666 79.753 79.883 79.966 80.081 80.151 80.221 80.313 80.393 80.448 80.518 80.588 80.636 80.673 80.663 80.666 80.678 80.648 81.858 82.086 82.006 81.928 81.866 81.808 81.863 81.926 82.008 82.133 82.254 82.342 82.454 82.591 82.693 82.852 82.963 83.081 83.189 83.29 83.455 83.559 83.7 83.856 84.008 84.153 84.286 84.403 84.543 84.663 84.763 84.916 85.003 85.151 85.268 85.378 85.553 85.716 85.913 86.151 86.313 86.471 86.663 86.788 86.911 87.043 87.173 87.318 87.461 87.613 87.753 87.901 88.051 88.188 88.331 88.468 88.623 88.741 88.886 89.013 89.186 89.311 89.468 89.613 89.758 89.928 90.071 90.206 90.353 90.473 90.571 90.688 90.808 90.916 91.016 91.153 91.266 91.371 91.446 91.523 91.608 91.653 91.731 91.718 92.183 93.521 92.856 92.718 92.828 92.838 92.886 92.981 93.038 93.121 93.251 93.338 93.423 93.518 93.616 93.688 93.786 93.871 93.958 94.031 94.128 94.258 94.323 94.408 94.468 94.523 94.581 94.696 94.756 94.823 94.903 94.976 95.036 95.128 95.208 95.266 95.333 95.438 95.531 95.666 95.821 95.971 96.113 96.298 96.471 96.643 96.791 96.971 97.133 97.291 97.468 97.626 97.773 97.918 98.043 98.178 98.273 98.318 98.436 98.271 98.263 99.123 100.496 99.561 99.053 99.106 99.163 99.236 99.258 99.406 99.463 99.453 99.468 99.496 99.516 99.476 99.406 99.341 99.258 99.146 99.021 98.893 98.786 98.631 98.493 98.331 98.161 98.003 97.808 97.621 97.368 97.146 96.923 96.686 96.461 96.208 95.961 95.686 95.368 95.071 94.743 94.518 94.276 94.036 93.788 93.493 93.166 92.828 92.503 92.218 91.921 91.563
47.781 48.133 46.538 43.038 47.977 46.948 42.041 41.246 39.238 39.224 39.714 39.185 39.145 39.277 39.383 39.739 40.294 40.363 40.878 40.493 -9999 -9999 -9999 -9999 40.528 40.624 40.589 40.927 40.507 -9999 -9999 -9999 -9999 -9999 -9999 -9999 40.161 40.168 40.171 -9999 -9999 40.233 40.339 40.48 40.598 40.575 40.58 40.514 40.461 40.425 40.462 40.411 40.424 40.393 40.376 40.177 40.675 41.108 43.244 41.214 41.083 41.098 41.143 41.351 41.246 43.883 44.986 43.866 43.836 43.851 43.931 44.021 44.011 44.016 44.328 44.853 44.731 44.551 44.533 44.483 44.428 45.861 50.386 48.636 49.221 49.778 50.066 50.316 50.666 51.028 51.433 51.861 52.258 52.708 53.328 54.098 54.273 54.796 55.011 55.411 56.428 57.948 58.268 58.726 59.188 59.603 60.133 60.641 61.196 61.761 62.301 62.863 63.403 63.991 64.561 65.111 65.678 66.231 66.758 67.291 67.818 68.278 68.711 69.098 69.463 69.836 70.176 70.513 70.828 71.143 71.503 71.836 72.173 72.486 72.771 73.028 73.228 73.398 73.618 73.818 74.018 74.213 74.376 74.538 74.651 74.853 75.213 75.916 75.691 75.773 75.881 75.921 75.973 76.091 76.173 76.263 76.368 76.438 76.488 76.556 76.611 76.666 76.706 76.766 76.803 76.803 76.808 76.841 76.853 76.883 76.966 77.048 77.113 77.186 77.288 77.351 77.401 77.498 77.603 77.618 77.696 77.793 77.913 78.033 78.126 78.213 78.296 78.408 78.516 78.606 78.708 78.798 78.888 78.983 79.076 79.148 79.241 79.341 79.441 79.516 79.616 79.711 79.773 79.833 79.868 79.903 79.971 80.036 80.051 80.051 80.036 80.478 81.351 81.583 81.436 81.376 81.273 81.241 81.348 81.436 81.511 81.624 81.733 81.857 81.995 82.083 82.233 82.377 82.487 82.632 82.754 82.868 83.01 83.138 83.282 83.416 83.566 83.713 83.846 83.961 84.083 84.221 84.333 84.468 84.616 84.713 84.831 84.981 85.138 85.336 85.541 85.723 85.918 86.071 86.226 86.366 86.478 86.618 86.763 86.891 87.036 87.188 87.351 87.476 87.663 87.786 87.918 88.066 88.183 88.323 88.471 88.596 88.761 88.908 89.056 89.201 89.361 89.511 89.646 89.788 89.921 90.041 90.156 90.258 90.376 90.478 90.616 90.721 90.838 90.886 90.993 91.051 91.143 91.168 91.203 91.551 92.723 92.531 92.191 92.306 92.346 92.378 92.471 92.558 92.603 92.713 92.846 92.948 93.021 93.118 93.191 93.301 93.381 93.466 93.551 93.646 93.766 93.853 93.918 94.013 94.081 94.168 94.258 94.341 94.448 94.486 94.573 94.653 94.723 94.818 94.921 94.973 95.081 95.171 95.311 95.466 95.648 95.796 95.971 96.131 96.288 96.488 96.641 96.808 96.976 97.136 97.313 97.446 97.573 97.706 97.843 97.936 98.048 98.131 97.853 98.118 99.203 100.383 98.888 98.771 98.813 98.886 98.911 98.943 99.001 99.041 99.078 99.113 99.113 99.136 99.163 99.121 99.048 98.946 98.873 98.778 98.628 98.531 98.376 98.188 98.001 97.861 97.656 97.473 97.278 97.011 96.783 96.543 96.273 96.076 95.828 95.628 95.381 95.056 94.723 94.471 94.231 94.006 93.773 93.528 93.221 92.901 92.546 92.208 91.893 91.678 91.376
46.608 48.303 48.511 45.308 45.137 45.041 43.337 42.491 40.223 39.111 39.16 39.133 39.135 39.288 39.367 39.584 40.237 40.336 40.465 40.248 -9999 -9999 40.168 -9999 -9999 40.53 40.475 40.679 40.463 -9999 -9999 -9999 -9999 -9999 -9999 -9999 40.403 -9999 -9999 -9999 40.503 40.453 40.527 40.618 40.574 40.554 40.521 40.467 40.424 40.426 40.42 40.413 40.432 40.434 40.299 40.614 40.97 41.51 41.052 41.033 41.083 41.083 41.171 42.216 45.278 44.678 44.073 43.848 43.883 43.923 43.976 43.998 44.016 44.038 45.436 44.721 44.561 44.546 44.503 44.456 44.771 47.703 48.106 48.788 50.511 49.751 49.966 50.258 50.631 51.038 51.451 51.801 52.191 52.581 53.143 53.786 53.808 54.188 54.776 55.958 57.963 57.266 57.783 58.268 58.728 59.266 59.798 60.351 60.911 61.486 62.043 62.586 63.158 63.738 64.321 64.856 65.418 65.991 66.533 67.093 67.611 68.051 68.468 68.846 69.223 69.586 69.938 70.273 70.596 70.938 71.286 71.618 71.953 72.266 72.528 72.763 72.976 73.163 73.371 73.563 73.771 73.986 74.108 74.261 74.396 74.541 74.776 75.763 75.391 75.453 75.576 75.598 75.628 75.716 75.801 75.896 75.978 76.033 76.083 76.143 76.181 76.226 76.271 76.328 76.371 76.378 76.376 76.376 76.373 76.403 76.453 76.513 76.576 76.646 76.731 76.806 76.851 76.916 76.981 77.028 77.086 77.176 77.266 77.348 77.461 77.571 77.663 77.733 77.833 77.926 78.003 78.101 78.206 78.276 78.338 78.448 78.528 78.641 78.733 78.818 78.881 78.943 79.013 79.108 79.181 79.241 79.318 79.408 79.441 79.436 79.421 79.376 80.403 80.796 80.938 80.866 80.791 80.698 80.713 80.788 80.88 80.987 81.13 81.249 81.37 81.503 81.651 81.747 81.896 82.045 82.202 82.315 82.451 82.587 82.733 82.843 82.976 83.141 83.268 83.386 83.526 83.651 83.781 83.936 84.051 84.176 84.286 84.421 84.576 84.746 84.938 85.128 85.343 85.476 85.638 85.793 85.933 86.071 86.218 86.366 86.488 86.633 86.771 86.923 87.076 87.206 87.351 87.506 87.641 87.773 87.926 88.061 88.198 88.348 88.488 88.643 88.811 88.961 89.098 89.223 89.363 89.483 89.618 89.708 89.806 89.936 90.063 90.158 90.266 90.366 90.458 90.536 90.598 90.658 90.698 90.673 91.898 92.106 91.681 91.778 91.826 91.873 91.951 92.036 92.111 92.211 92.333 92.451 92.531 92.621 92.683 92.791 92.876 92.986 93.088 93.191 93.286 93.396 93.458 93.568 93.651 93.731 93.828 93.918 94.011 94.106 94.201 94.291 94.366 94.451 94.556 94.643 94.721 94.806 94.953 95.123 95.303 95.471 95.646 95.801 95.983 96.131 96.326 96.483 96.651 96.823 96.983 97.091 97.236 97.373 97.513 97.618 97.793 97.718 97.448 98.131 99.498 99.553 98.458 98.511 98.561 98.618 98.648 98.648 98.658 98.743 98.778 98.751 98.751 98.761 98.768 98.751 98.671 98.591 98.523 98.398 98.308 98.186 98.016 97.883 97.686 97.543 97.336 97.106 96.911 96.706 96.451 96.213 95.953 95.733 95.483 95.276 95.078 94.798 94.458 94.188 93.968 93.716 93.503 93.246 92.953 92.631 92.301 91.943 91.663 91.438 91.211
