ncols 493
nrows 32
xllcorner    249014
yllcorner    134180
cellsize     2
NODATA_value -9999
6.259 6.244 6.257 6.259 6.259 6.232 6.224 6.227 6.209 6.229 6.232 6.242 6.262 6.239 6.239 6.229 6.227 6.212 6.174 6.169 6.172 6.154 6.142 6.149 6.112 6.072 6.137 6.129 6.132 6.147 6.154 6.139 6.152 6.169 6.182 6.187 6.192 6.194 6.197 6.232 6.242 6.234 6.222 6.217 6.232 6.244 6.229 6.232 6.227 6.239 6.247 6.252 6.264 6.284 6.274 6.229 6.289 6.317 6.314 6.332 6.297 6.299 6.322 6.327 6.302 6.322 6.307 6.292 6.302 6.319 6.322 6.319 6.302 6.317 6.297 6.322 6.319 6.319 6.337 6.342 6.324 6.339 6.324 6.322 6.284 6.314 6.314 6.312 6.297 6.309 6.314 6.359 6.349 6.374 6.369 6.399 6.407 6.397 6.389 6.389 6.397 6.402 6.409 6.397 6.384 6.387 6.362 6.359 6.352 6.352 6.342 6.347 6.354 6.369 6.369 6.369 6.399 6.409 6.434 6.422 6.409 6.419 6.449 6.437 6.439 6.442 6.424 6.402 6.399 6.419 6.419 6.424 6.409 6.434 6.429 6.404 6.422 6.427 6.404 6.384 6.367 6.347 6.352 6.334 6.354 6.384 6.412 6.424 6.417 6.429 6.439 6.439 6.487 6.517 6.477 6.477 6.459 6.454 6.459 6.462 6.462 6.459 6.447 6.404 6.424 6.432 6.427 6.427 6.427 6.424 6.407 6.389 6.389 6.362 6.339 6.332 6.362 6.374 6.382 6.369 6.367 6.387 6.384 6.347 6.332 6.337 6.302 6.284 6.279 6.252 6.272 6.264 6.227 6.207 6.209 6.214 6.189 6.194 6.197 6.187 6.184 6.202 6.192 6.202 6.207 6.207 6.204 6.214 6.204 6.237 6.204 6.192 6.21 6.195 6.19 6.169 6.16 6.14 6.123 6.097 6.088 6.085 6.067 6.034 5.99 5.976 5.946 5.935 5.908 5.917 5.939 6.047 6.009 5.989 5.997 6.022 6.027 6.042 6.064 6.054 6.062 6.082 6.062 6.101 6.101 6.089 6.094 6.059 6.029 5.996 5.989 6.014 5.986 5.991 5.964 5.981 5.926 5.966 6.026 6.059 6.021 5.956 5.944 5.956 5.939 5.954 5.994 5.966 5.964 5.954 5.924 5.934 5.961 5.889 5.894 5.884 5.871 5.926 5.911 5.936 5.961 5.971 5.969 5.986 6.001 5.991 5.969 6.026 5.969 5.989 6.016 5.919 5.871 5.989 5.986 5.969 5.964 5.991 5.986 6.036 6.016 5.999 5.974 5.951 5.931 5.906 5.916 5.951 5.944 5.899 5.886 5.899 5.921 5.931 5.876 5.886 5.859 5.791 5.776 5.796 5.809 5.804 5.814 5.844 5.881 5.879 5.896 5.871 5.859 5.839 5.869 5.921 5.936 5.929 5.969 5.986 5.939 5.954 6.001 5.996 6.021 6.031 6.059 6.099 6.066 6.001 6.024 6.064 6.114 6.106 6.104 6.101 6.074 6.106 6.116 6.156 6.146 6.149 6.201 6.244 6.264 6.304 6.301 6.286 6.309 6.309 6.339 6.329 6.309 6.344 6.344 6.384 6.391 6.399 6.449 6.461 6.446 6.501 6.534 6.579 6.554 6.549 6.579 6.594 6.559 6.539 6.564 6.586 6.606 6.599 6.554 6.564 6.571 6.566 6.571 6.584 6.591 6.584 6.591 6.596 6.609 6.611 6.676 6.791 6.821 6.756 6.776 6.786 6.761 6.754 6.794 6.754 6.741 6.769 6.809 6.736 6.714 6.686 6.696 6.686 6.684 6.701 6.744 6.764 6.764 6.781 6.799 6.779 6.776 6.756 6.761 6.774 6.774 6.834 6.829 6.821 6.854 6.834 6.834 6.816 6.839 6.811 6.851 6.864 6.856 6.881 6.866 6.856 6.849 6.866 6.854 6.856 6.839 6.889 6.926 6.926 6.914 6.939 6.939 6.974 7.019 7.006 7.016 7.046 7.019 6.996 7.004 7.029 7.069 7.089 7.109 7.094 7.106 7.099 7.079 7.094 7.091 7.104 7.099 7.066 7.076 7.041 7.014 7.004 6.976 6.961 6.974 6.984 7.026 7.061 7.089 7.106 7.121
6.267 6.254 6.239 6.247 6.229 6.222 6.242 6.227 6.212 6.239 6.254 6.259 6.239 6.242 6.242 6.272 6.242 6.212 6.224 6.194 6.194 6.182 6.192 6.172 6.129 6.109 6.152 6.164 6.149 6.149 6.144 6.139 6.177 6.172 6.199 6.209 6.234 6.244 6.219 6.222 6.237 6.264 6.244 6.252 6.264 6.249 6.267 6.272 6.279 6.254 6.244 6.252 6.272 6.272 6.277 6.244 6.267 6.279 6.297 6.292 6.302 6.307 6.307 6.302 6.307 6.312 6.312 6.312 6.322 6.329 6.339 6.332 6.334 6.337 6.322 6.329 6.337 6.334 6.372 6.347 6.352 6.314 6.304 6.294 6.294 6.317 6.332 6.302 6.294 6.294 6.319 6.337 6.339 6.349 6.349 6.354 6.359 6.369 6.369 6.354 6.354 6.374 6.399 6.397 6.372 6.397 6.334 6.312 6.304 6.322 6.327 6.342 6.339 6.329 6.314 6.362 6.374 6.379 6.384 6.412 6.377 6.419 6.439 6.432 6.424 6.434 6.452 6.414 6.409 6.414 6.402 6.404 6.422 6.427 6.419 6.424 6.444 6.414 6.402 6.387 6.397 6.359 6.362 6.332 6.367 6.389 6.399 6.402 6.384 6.422 6.439 6.447 6.459 6.457 6.467 6.464 6.437 6.434 6.472 6.454 6.454 6.427 6.412 6.414 6.412 6.419 6.442 6.417 6.419 6.414 6.399 6.397 6.384 6.362 6.357 6.359 6.347 6.354 6.384 6.369 6.377 6.394 6.379 6.332 6.339 6.334 6.307 6.262 6.252 6.257 6.247 6.252 6.232 6.209 6.204 6.194 6.202 6.199 6.214 6.194 6.197 6.199 6.204 6.199 6.214 6.212 6.222 6.219 6.227 6.232 6.217 6.202 6.218 6.206 6.205 6.163 6.146 6.123 6.115 6.08 6.066 6.068 6.067 6.026 5.989 5.952 5.932 5.922 5.906 5.884 5.905 5.984 6.027 5.979 6.007 6.024 6.019 6.012 6.027 6.064 6.064 6.049 6.062 6.089 6.084 6.064 6.086 6.049 6.036 6.014 5.989 5.996 5.964 5.999 5.979 5.969 5.981 5.971 5.981 6.084 6.031 5.969 5.946 5.886 5.909 5.946 5.959 5.931 5.934 5.949 5.911 5.909 5.929 5.929 5.919 5.871 5.886 5.941 5.924 5.936 5.961 5.981 6.016 6.011 6.029 5.986 5.964 5.971 5.996 6.014 6.011 5.874 5.891 5.974 5.964 5.951 5.941 5.969 5.996 6.006 6.011 5.969 5.951 5.939 5.929 5.901 5.911 5.921 5.934 5.896 5.919 5.916 5.924 5.946 5.931 5.904 5.864 5.844 5.841 5.821 5.831 5.826 5.821 5.844 5.891 5.899 5.939 5.889 5.851 5.894 5.859 5.931 5.944 5.914 5.979 5.996 5.999 5.986 6.041 6.064 6.036 6.069 6.066 6.089 6.051 5.994 6.049 6.096 6.069 6.084 6.129 6.091 6.111 6.086 6.141 6.139 6.161 6.159 6.221 6.254 6.261 6.289 6.289 6.264 6.299 6.341 6.341 6.341 6.329 6.349 6.376 6.376 6.401 6.446 6.459 6.489 6.481 6.531 6.569 6.579 6.564 6.589 6.591 6.611 6.571 6.571 6.564 6.599 6.586 6.586 6.561 6.539 6.609 6.581 6.576 6.546 6.569 6.576 6.589 6.586 6.616 6.606 6.649 6.789 6.826 6.759 6.749 6.769 6.791 6.771 6.794 6.741 6.751 6.774 6.831 6.796 6.736 6.719 6.694 6.669 6.689 6.729 6.741 6.746 6.776 6.779 6.791 6.809 6.789 6.796 6.756 6.819 6.824 6.839 6.859 6.861 6.829 6.841 6.809 6.821 6.831 6.824 6.851 6.861 6.869 6.866 6.886 6.881 6.859 6.859 6.851 6.839 6.859 6.904 6.924 6.921 6.884 6.904 6.911 6.959 6.986 7.016 7.009 7.011 7.031 7.036 7.041 7.069 7.086 7.114 7.119 7.119 7.124 7.109 7.079 7.086 7.081 7.089 7.079 7.049 7.061 7.054 7.004 6.996 6.986 6.964 6.989 7.034 7.046 7.104 7.099 7.114 7.134
6.249 6.239 6.234 6.239 6.234 6.227 6.249 6.242 6.249 6.259 6.262 6.257 6.259 6.252 6.272 6.267 6.262 6.224 6.204 6.202 6.212 6.199 6.172 6.174 6.122 6.092 6.167 6.159 6.152 6.152 6.149 6.152 6.179 6.212 6.192 6.222 6.209 6.237 6.249 6.254 6.254 6.234 6.269 6.269 6.272 6.264 6.262 6.287 6.269 6.274 6.249 6.274 6.287 6.302 6.292 6.239 6.277 6.297 6.292 6.292 6.289 6.292 6.277 6.294 6.307 6.314 6.339 6.329 6.334 6.352 6.332 6.334 6.347 6.332 6.309 6.312 6.337 6.359 6.379 6.359 6.342 6.339 6.339 6.329 6.334 6.324 6.334 6.309 6.319 6.297 6.322 6.339 6.312 6.337 6.329 6.342 6.342 6.359 6.357 6.324 6.332 6.354 6.379 6.379 6.354 6.374 6.354 6.314 6.314 6.334 6.327 6.322 6.319 6.314 6.322 6.352 6.337 6.362 6.357 6.354 6.379 6.372 6.407 6.397 6.397 6.407 6.417 6.427 6.434 6.419 6.414 6.412 6.414 6.422 6.429 6.437 6.437 6.419 6.412 6.392 6.384 6.394 6.357 6.347 6.384 6.397 6.369 6.364 6.387 6.397 6.434 6.444 6.439 6.422 6.439 6.422 6.427 6.439 6.459 6.462 6.439 6.434 6.404 6.404 6.397 6.419 6.419 6.424 6.399 6.384 6.387 6.389 6.384 6.364 6.372 6.362 6.339 6.369 6.394 6.374 6.372 6.364 6.357 6.347 6.314 6.297 6.264 6.239 6.222 6.229 6.234 6.212 6.224 6.199 6.174 6.164 6.182 6.167 6.172 6.164 6.167 6.177 6.194 6.179 6.209 6.199 6.212 6.222 6.229 6.242 6.226 6.223 6.219 6.204 6.179 6.17 6.145 6.113 6.12 6.099 6.076 6.061 6.057 6.026 5.988 5.927 5.901 5.906 5.863 5.856 5.872 5.939 6.024 5.957 5.977 6.004 6.009 6.009 6.027 6.034 6.064 6.032 6.044 6.069 6.071 6.054 6.076 6.069 6.044 6.019 6.009 6.011 5.991 5.971 6.014 5.989 5.961 5.934 5.936 5.989 6.034 5.966 5.931 5.944 5.944 5.944 5.954 5.906 5.949 5.911 5.899 5.911 5.924 5.901 5.904 5.894 5.904 5.899 5.909 5.941 5.946 5.969 5.969 5.996 6.014 5.986 5.944 5.959 5.951 5.969 5.981 5.859 5.899 5.939 5.959 5.919 5.956 5.989 5.994 5.984 6.029 5.979 5.971 5.951 5.981 5.969 5.914 5.924 5.921 5.919 5.921 5.936 5.934 5.976 5.921 5.869 5.831 5.824 5.796 5.779 5.819 5.874 5.871 5.871 5.881 5.946 5.946 5.941 5.914 5.904 5.901 5.931 5.934 5.941 5.971 5.991 6.001 6.026 6.031 6.074 6.081 6.071 6.079 6.066 6.056 6.061 6.076 6.076 6.076 6.099 6.096 6.099 6.124 6.124 6.146 6.161 6.169 6.196 6.219 6.264 6.289 6.326 6.349 6.316 6.311 6.359 6.371 6.346 6.349 6.369 6.386 6.396 6.411 6.474 6.464 6.494 6.479 6.561 6.574 6.611 6.589 6.634 6.584 6.601 6.574 6.566 6.551 6.584 6.581 6.589 6.564 6.586 6.589 6.611 6.601 6.589 6.594 6.589 6.589 6.584 6.661 6.654 6.691 6.769 6.849 6.794 6.771 6.769 6.751 6.804 6.781 6.771 6.759 6.774 6.819 6.809 6.754 6.696 6.696 6.704 6.711 6.724 6.756 6.794 6.809 6.844 6.859 6.829 6.819 6.819 6.819 6.831 6.879 6.834 6.839 6.839 6.811 6.856 6.834 6.841 6.846 6.846 6.861 6.864 6.884 6.899 6.879 6.881 6.846 6.874 6.871 6.869 6.889 6.919 6.934 6.944 6.891 6.906 6.934 6.979 7.009 7.021 7.014 7.021 7.044 7.044 7.051 7.059 7.086 7.089 7.091 7.116 7.109 7.096 7.091 7.086 7.104 7.106 7.074 7.074 7.039 7.026 7.026 7.016 7.001 6.971 6.986 7.024 7.076 7.074 7.094 7.106 7.129
6.249 6.254 6.254 6.262 6.254 6.282 6.274 6.262 6.259 6.264 6.267 6.282 6.247 6.237 6.269 6.282 6.244 6.229 6.222 6.199 6.212 6.197 6.204 6.169 6.134 6.102 6.182 6.167 6.152 6.157 6.182 6.169 6.174 6.182 6.199 6.199 6.217 6.222 6.242 6.242 6.249 6.232 6.254 6.272 6.254 6.259 6.242 6.252 6.269 6.267 6.259 6.279 6.272 6.307 6.289 6.242 6.277 6.294 6.272 6.262 6.277 6.249 6.269 6.252 6.292 6.292 6.299 6.317 6.324 6.314 6.329 6.327 6.324 6.327 6.339 6.332 6.349 6.387 6.372 6.344 6.337 6.327 6.327 6.319 6.302 6.299 6.322 6.302 6.424 6.302 6.319 6.339 6.314 6.307 6.324 6.344 6.367 6.347 6.344 6.314 6.324 6.337 6.337 6.367 6.364 6.329 6.337 6.322 6.339 6.359 6.327 6.277 6.312 6.314 6.342 6.344 6.324 6.349 6.354 6.357 6.384 6.377 6.354 6.374 6.379 6.417 6.419 6.427 6.429 6.419 6.417 6.414 6.402 6.409 6.439 6.434 6.432 6.409 6.412 6.397 6.414 6.394 6.357 6.374 6.377 6.384 6.367 6.384 6.387 6.407 6.409 6.389 6.412 6.407 6.407 6.404 6.412 6.419 6.452 6.444 6.432 6.417 6.404 6.394 6.397 6.402 6.402 6.384 6.372 6.394 6.372 6.387 6.357 6.334 6.342 6.342 6.349 6.339 6.357 6.352 6.367 6.362 6.339 6.322 6.297 6.264 6.249 6.244 6.232 6.212 6.207 6.197 6.197 6.197 6.184 6.169 6.159 6.132 6.127 6.142 6.142 6.192 6.187 6.177 6.174 6.172 6.192 6.207 6.229 6.224 6.225 6.214 6.2 6.195 6.177 6.156 6.136 6.111 6.091 6.089 6.072 6.062 6.057 6.027 5.967 5.934 5.901 5.877 5.863 5.834 5.854 5.929 6.012 6.019 5.977 5.972 5.984 6.007 6.032 6.027 6.019 6.057 6.072 6.034 6.036 6.056 6.074 6.044 6.059 6.086 6.026 6.004 6.011 5.981 5.971 5.979 5.949 5.934 5.944 5.936 5.981 5.999 5.979 5.976 5.934 5.939 5.966 5.926 5.951 5.924 5.924 5.906 5.916 5.909 5.879 5.831 5.894 5.881 5.916 5.921 5.969 5.946 5.969 5.986 5.966 5.976 5.961 5.961 5.949 5.994 5.984 5.861 5.901 5.991 5.981 5.974 5.946 5.974 5.961 5.994 5.996 5.976 5.966 5.969 5.969 5.951 5.929 5.901 5.899 5.891 5.919 5.929 5.941 5.954 5.931 5.899 5.871 5.811 5.824 5.844 5.901 5.914 5.874 5.891 5.941 5.961 5.966 5.941 5.936 5.961 5.939 5.936 5.941 5.991 6.006 6.016 6.021 6.046 6.054 6.081 6.094 6.086 6.046 6.046 6.099 6.061 6.061 6.094 6.094 6.111 6.111 6.144 6.141 6.129 6.174 6.171 6.174 6.194 6.239 6.286 6.301 6.354 6.339 6.314 6.316 6.329 6.334 6.341 6.351 6.361 6.419 6.409 6.444 6.459 6.454 6.514 6.516 6.546 6.589 6.579 6.614 6.574 6.576 6.614 6.601 6.581 6.591 6.611 6.619 6.586 6.589 6.609 6.599 6.606 6.586 6.646 6.611 6.619 6.639 6.644 6.711 6.721 6.744 6.794 6.866 6.844 6.754 6.756 6.776 6.794 6.774 6.761 6.749 6.754 6.761 6.809 6.776 6.711 6.671 6.701 6.759 6.754 6.786 6.814 6.816 6.834 6.824 6.784 6.819 6.771 6.784 6.799 6.816 6.846 6.856 6.831 6.829 6.839 6.826 6.826 6.864 6.881 6.879 6.859 6.884 6.879 6.876 6.854 6.849 6.856 6.884 6.879 6.904 6.906 6.876 6.916 6.919 6.919 6.944 6.964 6.986 6.984 7.019 7.044 7.031 7.054 7.056 7.049 7.054 7.081 7.119 7.146 7.124 7.111 7.104 7.121 7.094 7.084 7.079 7.061 7.051 7.041 7.041 7.021 6.999 6.986 7.006 7.019 7.031 7.079 7.126 7.134 7.141
6.262 6.269 6.277 6.297 6.272 6.262 6.252 6.224 6.239 6.209 6.254 6.254 6.227 6.227 6.252 6.289 6.259 6.239 6.249 6.232 6.209 6.214 6.217 6.194 6.139 6.129 6.169 6.144 6.174 6.174 6.162 6.172 6.199 6.209 6.222 6.214 6.229 6.242 6.232 6.252 6.237 6.247 6.272 6.274 6.264 6.267 6.267 6.267 6.264 6.284 6.282 6.282 6.282 6.329 6.307 6.272 6.287 6.299 6.287 6.282 6.287 6.284 6.284 6.269 6.269 6.292 6.307 6.317 6.307 6.302 6.332 6.312 6.319 6.322 6.302 6.329 6.347 6.339 6.332 6.339 6.337 6.339 6.309 6.294 6.272 6.284 6.279 6.274 6.289 6.287 6.297 6.322 6.299 6.299 6.322 6.342 6.344 6.339 6.324 6.307 6.319 6.322 6.322 6.309 6.317 6.314 6.324 6.314 6.329 6.312 6.297 6.287 6.304 6.309 6.329 6.347 6.319 6.342 6.337 6.359 6.367 6.372 6.367 6.357 6.379 6.387 6.407 6.417 6.409 6.412 6.417 6.399 6.404 6.424 6.417 6.407 6.429 6.417 6.419 6.422 6.412 6.424 6.397 6.379 6.384 6.367 6.379 6.392 6.399 6.404 6.409 6.387 6.399 6.389 6.412 6.409 6.412 6.407 6.444 6.434 6.414 6.412 6.404 6.409 6.429 6.434 6.412 6.397 6.384 6.384 6.367 6.382 6.357 6.319 6.352 6.347 6.342 6.332 6.369 6.372 6.357 6.337 6.334 6.299 6.302 6.272 6.227 6.257 6.229 6.167 6.169 6.169 6.184 6.179 6.174 6.162 6.139 6.147 6.142 6.127 6.117 6.159 6.169 6.172 6.179 6.202 6.197 6.217 6.207 6.235 6.198 6.202 6.209 6.207 6.177 6.142 6.126 6.118 6.079 6.083 6.058 6.056 6.034 5.983 5.975 5.897 5.905 5.874 5.877 5.864 5.899 5.907 5.962 6.034 6.017 5.969 6.007 5.979 6.012 6.039 6.007 6.007 6.042 6.016 6.066 6.069 6.061 6.079 6.064 6.011 5.986 5.961 6.006 5.981 5.971 5.974 5.949 5.949 5.929 5.919 5.981 6.024 5.971 5.976 5.964 5.986 6.001 5.919 5.931 5.926 5.906 5.864 5.851 5.839 5.834 5.819 5.851 5.881 5.886 5.901 5.954 5.959 5.954 5.959 5.964 5.946 5.941 5.959 5.974 5.996 5.979 5.831 5.906 5.991 5.976 5.976 5.936 5.921 5.954 5.981 5.994 5.939 5.959 5.959 5.919 5.921 5.934 5.879 5.871 5.919 5.969 5.964 5.971 5.959 5.924 5.921 5.839 5.824 5.829 5.849 5.906 5.894 5.899 5.906 5.951 5.969 5.981 5.959 5.976 5.949 5.936 5.931 5.949 5.996 6.026 6.029 6.044 6.056 6.071 6.109 6.124 6.081 6.064 6.121 6.126 6.086 6.106 6.106 6.106 6.106 6.146 6.156 6.166 6.146 6.196 6.199 6.186 6.191 6.236 6.306 6.304 6.344 6.339 6.281 6.319 6.324 6.369 6.376 6.366 6.381 6.429 6.424 6.459 6.466 6.504 6.509 6.521 6.569 6.599 6.601 6.611 6.611 6.626 6.636 6.609 6.591 6.584 6.604 6.609 6.606 6.621 6.659 6.636 6.656 6.689 6.694 6.659 6.651 6.696 6.706 6.741 6.754 6.799 6.796 6.841 6.864 6.791 6.789 6.804 6.809 6.809 6.779 6.759 6.761 6.764 6.831 6.784 6.746 6.726 6.754 6.754 6.734 6.754 6.784 6.806 6.796 6.784 6.791 6.779 6.804 6.794 6.861 6.851 6.869 6.856 6.839 6.849 6.854 6.849 6.831 6.859 6.871 6.864 6.874 6.864 6.876 6.869 6.876 6.874 6.866 6.866 6.876 6.906 6.909 6.886 6.896 6.896 6.901 6.934 6.926 6.974 6.976 7.009 7.029 7.011 6.991 7.029 7.004 7.056 7.076 7.096 7.131 7.104 7.129 7.104 7.099 7.094 7.109 7.111 7.084 7.056 7.061 7.044 7.024 6.991 6.994 7.026 7.059 7.081 7.104 7.134 7.149 7.141
6.232 6.239 6.269 6.279 6.247 6.217 6.177 6.167 6.159 6.159 6.187 6.204 6.197 6.212 6.247 6.249 6.257 6.249 6.262 6.244 6.239 6.234 6.229 6.214 6.152 6.127 6.182 6.162 6.152 6.197 6.182 6.182 6.202 6.197 6.232 6.227 6.234 6.247 6.269 6.282 6.237 6.277 6.272 6.274 6.274 6.274 6.257 6.272 6.289 6.289 6.279 6.294 6.304 6.312 6.287 6.287 6.292 6.294 6.242 6.272 6.282 6.267 6.274 6.247 6.277 6.284 6.297 6.297 6.289 6.314 6.312 6.327 6.312 6.322 6.349 6.347 6.344 6.352 6.332 6.362 6.319 6.319 6.324 6.304 6.274 6.289 6.262 6.257 6.279 6.264 6.299 6.299 6.289 6.302 6.294 6.307 6.327 6.312 6.274 6.287 6.307 6.319 6.319 6.304 6.289 6.307 6.309 6.307 6.307 6.274 6.267 6.289 6.292 6.304 6.314 6.337 6.342 6.347 6.309 6.317 6.324 6.344 6.339 6.347 6.359 6.387 6.382 6.389 6.382 6.412 6.407 6.407 6.412 6.397 6.404 6.402 6.419 6.437 6.429 6.447 6.459 6.434 6.387 6.372 6.392 6.389 6.384 6.404 6.374 6.384 6.387 6.412 6.404 6.387 6.397 6.407 6.412 6.437 6.427 6.429 6.427 6.417 6.414 6.432 6.434 6.432 6.422 6.389 6.382 6.384 6.372 6.384 6.344 6.347 6.332 6.337 6.334 6.347 6.367 6.354 6.334 6.324 6.264 6.269 6.257 6.254 6.214 6.224 6.189 6.189 6.177 6.149 6.152 6.179 6.169 6.159 6.147 6.152 6.124 6.107 6.117 6.159 6.169 6.134 6.157 6.164 6.187 6.192 6.209 6.228 6.211 6.207 6.201 6.169 6.158 6.138 6.119 6.088 6.087 6.057 6.039 6.04 6.029 5.991 5.96 5.916 5.887 5.889 5.892 5.879 5.899 5.949 5.952 5.974 5.987 5.982 5.974 6.002 5.974 5.994 5.997 5.987 5.984 5.976 6.029 6.024 6.041 6.091 6.079 6.041 5.989 5.996 5.999 5.984 5.931 5.951 5.974 5.939 5.936 5.899 5.949 5.991 6.011 5.976 5.959 5.956 5.946 5.906 5.891 5.874 5.836 5.824 5.831 5.786 5.794 5.784 5.799 5.879 5.881 5.906 5.946 5.959 5.941 5.964 5.969 5.964 5.936 5.941 5.939 5.976 5.924 5.846 5.931 5.984 5.964 5.929 5.914 5.934 5.931 5.946 5.966 5.914 5.956 5.949 5.939 5.949 5.956 5.901 5.914 5.969 5.981 5.999 5.964 6.001 5.969 5.969 5.884 5.869 5.914 5.899 5.896 5.889 5.926 5.941 5.976 5.979 5.996 5.969 6.006 5.929 5.919 5.959 6.014 6.024 6.064 6.061 6.069 6.099 6.096 6.104 6.131 6.109 6.136 6.154 6.169 6.171 6.169 6.154 6.204 6.194 6.226 6.204 6.184 6.204 6.204 6.184 6.206 6.226 6.276 6.271 6.314 6.331 6.321 6.311 6.309 6.366 6.369 6.354 6.381 6.394 6.424 6.419 6.436 6.491 6.501 6.519 6.559 6.586 6.631 6.614 6.614 6.619 6.639 6.606 6.614 6.641 6.611 6.641 6.649 6.669 6.674 6.691 6.689 6.691 6.729 6.731 6.724 6.749 6.759 6.774 6.834 6.856 6.844 6.866 6.914 6.916 6.854 6.769 6.809 6.794 6.829 6.779 6.764 6.774 6.774 6.826 6.771 6.774 6.781 6.744 6.766 6.744 6.769 6.774 6.801 6.819 6.801 6.809 6.819 6.831 6.829 6.871 6.864 6.839 6.859 6.844 6.836 6.831 6.834 6.839 6.831 6.854 6.874 6.866 6.864 6.856 6.889 6.896 6.919 6.916 6.901 6.871 6.921 6.906 6.886 6.891 6.904 6.916 6.904 6.946 6.979 6.999 6.996 7.029 7.049 7.029 7.029 7.049 7.016 7.056 7.056 7.089 7.084 7.111 7.101 7.086 7.094 7.089 7.094 7.066 7.021 7.036 7.044 7.024 6.984 7.021 7.014 7.064 7.071 7.111 7.141 7.171 7.134
6.199 6.224 6.222 6.242 6.232 6.192 6.154 6.142 6.144 6.162 6.172 6.187 6.212 6.222 6.232 6.242 6.244 6.247 6.257 6.264 6.274 6.262 6.254 6.232 6.174 6.182 6.214 6.209 6.197 6.199 6.202 6.227 6.237 6.234 6.252 6.247 6.259 6.269 6.262 6.247 6.249 6.279 6.314 6.309 6.297 6.307 6.307 6.302 6.317 6.317 6.297 6.317 6.317 6.307 6.299 6.287 6.264 6.277 6.277 6.317 6.289 6.284 6.269 6.252 6.264 6.274 6.289 6.279 6.282 6.322 6.309 6.322 6.319 6.332 6.347 6.372 6.377 6.367 6.342 6.337 6.312 6.327 6.299 6.289 6.297 6.279 6.259 6.249 6.299 6.282 6.284 6.269 6.274 6.287 6.277 6.289 6.274 6.244 6.272 6.292 6.294 6.314 6.312 6.312 6.312 6.317 6.314 6.309 6.292 6.282 6.269 6.312 6.297 6.297 6.307 6.314 6.327 6.347 6.327 6.317 6.322 6.344 6.347 6.364 6.399 6.399 6.407 6.407 6.419 6.397 6.394 6.402 6.387 6.392 6.409 6.422 6.429 6.452 6.464 6.452 6.462 6.447 6.389 6.387 6.377 6.392 6.392 6.379 6.359 6.354 6.387 6.404 6.404 6.387 6.394 6.402 6.402 6.417 6.424 6.414 6.404 6.427 6.432 6.447 6.432 6.439 6.429 6.379 6.349 6.362 6.369 6.349 6.347 6.329 6.319 6.319 6.314 6.319 6.334 6.332 6.324 6.277 6.247 6.262 6.222 6.212 6.199 6.174 6.149 6.159 6.169 6.162 6.144 6.159 6.157 6.157 6.139 6.142 6.134 6.107 6.122 6.134 6.157 6.164 6.177 6.159 6.199 6.195 6.202 6.207 6.225 6.197 6.181 6.172 6.16 6.139 6.113 6.093 6.083 6.073 6.048 6.03 6.039 6.197 5.929 5.921 5.919 5.874 5.864 5.899 5.927 5.987 5.982 5.947 6.024 5.987 5.947 5.974 5.987 5.987 5.979 5.957 5.984 6.016 6.019 6.034 6.049 6.041 6.021 6.051 6.034 6.019 6.036 6.006 5.976 5.949 5.944 5.954 5.956 5.944 5.921 5.966 6.046 6.041 5.946 5.904 5.914 5.886 5.861 5.861 5.836 5.831 5.819 5.761 5.774 5.771 5.799 5.851 5.859 5.886 5.909 5.921 5.926 5.941 5.994 5.936 5.911 5.899 5.901 5.931 5.956 5.914 5.961 5.916 5.911 5.899 5.924 5.901 5.909 5.959 5.969 5.946 5.931 5.906 5.944 5.934 5.929 5.889 5.889 5.956 5.931 5.959 5.994 5.959 5.971 5.939 5.931 5.901 5.909 5.924 5.906 5.964 5.974 5.959 6.014 6.019 6.041 6.041 6.031 6.001 5.991 6.031 6.079 6.099 6.081 6.069 6.069 6.129 6.104 6.129 6.174 6.199 6.216 6.234 6.221 6.249 6.199 6.199 6.241 6.261 6.256 6.261 6.241 6.204 6.186 6.259 6.249 6.316 6.314 6.329 6.331 6.364 6.321 6.346 6.314 6.349 6.391 6.374 6.399 6.419 6.429 6.446 6.506 6.514 6.509 6.501 6.564 6.546 6.606 6.596 6.629 6.626 6.626 6.641 6.629 6.636 6.624 6.651 6.691 6.691 6.706 6.716 6.726 6.729 6.759 6.759 6.809 6.806 6.806 6.861 6.866 6.866 6.874 6.886 6.924 6.906 6.924 6.791 6.809 6.821 6.796 6.791 6.781 6.804 6.769 6.834 6.859 6.859 6.814 6.779 6.801 6.776 6.784 6.791 6.829 6.811 6.831 6.816 6.826 6.826 6.811 6.846 6.836 6.836 6.826 6.829 6.826 6.859 6.851 6.861 6.866 6.856 6.886 6.906 6.886 6.874 6.911 6.904 6.916 6.884 6.904 6.889 6.909 6.929 6.914 6.926 6.899 6.901 6.946 6.974 7.001 7.006 7.006 7.034 7.031 7.051 7.051 7.039 7.054 7.046 7.079 7.061 7.119 7.124 7.099 7.094 7.114 7.084 7.096 7.071 7.056 7.051 7.034 7.024 6.991 7.019 7.019 7.066 7.101 7.121 7.134 7.139 7.154
6.177 6.209 6.242 6.252 6.214 6.182 6.187 6.157 6.164 6.192 6.182 6.209 6.224 6.212 6.234 6.259 6.254 6.252 6.274 6.267 6.277 6.262 6.254 6.224 6.187 6.194 6.222 6.214 6.249 6.202 6.204 6.202 6.219 6.234 6.272 6.277 6.264 6.292 6.304 6.302 6.292 6.284 6.314 6.324 6.352 6.362 6.364 6.364 6.337 6.329 6.314 6.302 6.299 6.299 6.327 6.302 6.294 6.329 6.349 6.337 6.317 6.319 6.297 6.304 6.297 6.304 6.304 6.309 6.329 6.332 6.329 6.352 6.374 6.392 6.409 6.417 6.404 6.382 6.352 6.357 6.344 6.352 6.342 6.337 6.352 6.302 6.284 6.284 6.287 6.287 6.312 6.297 6.289 6.312 6.302 6.259 6.264 6.242 6.279 6.269 6.287 6.297 6.329 6.319 6.312 6.294 6.284 6.264 6.274 6.299 6.294 6.312 6.317 6.282 6.284 6.307 6.299 6.259 6.299 6.299 6.339 6.322 6.339 6.314 6.367 6.367 6.384 6.399 6.407 6.399 6.392 6.404 6.377 6.362 6.379 6.394 6.424 6.429 6.429 6.432 6.447 6.434 6.367 6.359 6.382 6.362 6.364 6.359 6.359 6.357 6.372 6.399 6.387 6.384 6.384 6.399 6.394 6.377 6.399 6.424 6.409 6.424 6.427 6.434 6.434 6.404 6.399 6.359 6.339 6.344 6.359 6.317 6.304 6.289 6.262 6.267 6.269 6.282 6.269 6.284 6.249 6.232 6.237 6.239 6.219 6.184 6.167 6.167 6.149 6.139 6.167 6.162 6.149 6.184 6.179 6.159 6.139 6.142 6.119 6.134 6.142 6.142 6.149 6.149 6.142 6.167 6.171 6.169 6.177 6.183 6.188 6.185 6.176 6.18 6.154 6.145 6.129 6.075 6.082 6.068 6.057 6.041 6.019 5.99 5.944 5.962 5.939 5.919 5.904 5.909 5.937 5.914 5.949 5.954 6.082 5.999 5.959 5.962 6.019 5.969 5.989 6.009 6.017 5.986 6.004 6.044 6.051 6.029 6.064 6.069 6.026 5.999 5.986 5.991 6.004 5.931 5.931 5.939 5.934 5.956 5.909 5.921 5.999 6.044 5.976 5.954 5.909 5.874 5.891 5.851 5.826 5.829 5.829 5.764 5.761 5.794 5.821 5.879 5.896 5.896 5.896 5.916 5.956 5.919 5.939 5.899 5.906 5.884 5.859 5.891 5.949 5.964 5.971 5.926 5.914 5.904 5.914 5.894 5.894 5.934 5.959 5.904 5.899 5.926 5.909 5.911 5.909 5.916 5.911 5.936 5.939 5.956 5.976 5.941 5.939 5.939 5.924 5.909 5.926 5.936 5.961 6.014 5.999 6.044 6.079 6.059 6.094 6.094 6.026 6.034 6.009 6.086 6.089 6.096 6.094 6.059 6.126 6.149 6.154 6.171 6.206 6.184 6.214 6.211 6.251 6.259 6.256 6.281 6.304 6.289 6.294 6.251 6.269 6.239 6.229 6.291 6.304 6.321 6.381 6.369 6.359 6.349 6.351 6.369 6.374 6.406 6.431 6.394 6.384 6.409 6.411 6.441 6.471 6.479 6.494 6.511 6.566 6.574 6.579 6.634 6.651 6.631 6.646 6.659 6.671 6.664 6.646 6.686 6.726 6.724 6.741 6.759 6.749 6.741 6.759 6.791 6.799 6.799 6.786 6.811 6.814 6.811 6.851 6.844 6.866 6.886 6.949 6.796 6.834 6.806 6.796 6.821 6.799 6.809 6.824 6.894 6.914 6.874 6.841 6.871 6.846 6.824 6.819 6.806 6.809 6.791 6.781 6.794 6.836 6.826 6.844 6.881 6.859 6.856 6.871 6.849 6.861 6.856 6.861 6.866 6.869 6.874 6.859 6.869 6.879 6.886 6.894 6.894 6.884 6.849 6.904 6.896 6.941 6.916 6.941 6.906 6.894 6.916 6.949 6.996 7.011 7.014 7.044 7.084 7.061 7.069 7.044 7.036 7.046 7.044 7.056 7.054 7.054 7.076 7.119 7.106 7.089 7.086 7.104 7.091 7.066 7.081 7.071 7.039 7.011 7.051 7.051 7.099 7.124 7.151 7.191 7.164 7.179
6.214 6.239 6.244 6.239 6.229 6.224 6.232 6.204 6.217 6.199 6.247 6.244 6.252 6.254 6.294 6.292 6.299 6.297 6.262 6.264 6.294 6.282 6.282 6.264 6.239 6.232 6.252 6.254 6.252 6.244 6.249 6.269 6.232 6.232 6.244 6.269 6.272 6.309 6.319 6.339 6.334 6.327 6.349 6.374 6.384 6.364 6.339 6.357 6.369 6.349 6.324 6.304 6.312 6.317 6.307 6.312 6.344 6.374 6.349 6.357 6.357 6.329 6.312 6.322 6.349 6.334 6.349 6.327 6.362 6.359 6.379 6.407 6.424 6.429 6.434 6.437 6.424 6.374 6.384 6.374 6.374 6.374 6.384 6.389 6.392 6.379 6.372 6.339 6.327 6.329 6.352 6.344 6.344 6.347 6.299 6.334 6.307 6.279 6.289 6.297 6.314 6.314 6.317 6.337 6.322 6.307 6.302 6.274 6.304 6.307 6.324 6.304 6.284 6.262 6.284 6.299 6.297 6.287 6.277 6.317 6.342 6.329 6.304 6.332 6.347 6.364 6.349 6.354 6.374 6.349 6.349 6.354 6.362 6.382 6.362 6.374 6.372 6.402 6.387 6.404 6.382 6.372 6.322 6.317 6.339 6.342 6.364 6.334 6.344 6.327 6.344 6.372 6.347 6.367 6.379 6.369 6.369 6.392 6.377 6.392 6.414 6.412 6.427 6.439 6.432 6.397 6.369 6.337 6.327 6.324 6.304 6.312 6.284 6.262 6.252 6.239 6.239 6.274 6.252 6.257 6.262 6.242 6.232 6.212 6.199 6.189 6.182 6.167 6.157 6.159 6.139 6.162 6.157 6.152 6.144 6.157 6.124 6.122 6.129 6.112 6.142 6.132 6.149 6.132 6.136 6.176 6.166 6.177 6.166 6.177 6.18 6.182 6.166 6.156 6.149 6.134 6.105 6.072 6.077 6.067 6.022 6.021 6.018 5.979 5.927 5.982 5.954 5.899 5.914 5.904 5.912 5.897 5.947 5.967 6.034 6.059 5.977 5.947 5.954 5.972 5.997 6.004 5.987 6.021 5.999 6.016 6.011 5.996 6.054 6.079 6.049 6.021 6.006 5.976 5.931 5.896 5.929 5.941 5.949 5.949 5.934 5.936 5.961 5.989 5.959 5.971 5.919 5.851 5.894 5.871 5.839 5.799 5.761 5.714 5.741 5.771 5.799 5.856 5.884 5.876 5.886 5.914 5.931 5.896 5.906 5.904 5.856 5.894 5.919 5.931 5.979 5.986 5.941 5.904 5.909 5.919 5.894 5.856 5.891 5.919 5.929 5.896 5.914 5.924 5.906 5.916 5.951 5.944 5.934 5.941 5.964 5.969 5.979 5.971 5.974 5.976 5.946 5.956 5.986 5.991 5.976 6.026 6.046 6.074 6.076 6.076 6.109 6.081 6.066 6.064 6.059 6.104 6.104 6.124 6.129 6.119 6.139 6.184 6.154 6.224 6.216 6.221 6.191 6.234 6.256 6.256 6.236 6.279 6.306 6.294 6.286 6.274 6.286 6.284 6.279 6.276 6.296 6.326 6.381 6.386 6.366 6.369 6.366 6.356 6.339 6.389 6.419 6.411 6.389 6.394 6.421 6.446 6.484 6.524 6.554 6.549 6.534 6.604 6.644 6.661 6.666 6.644 6.674 6.689 6.714 6.734 6.741 6.769 6.774 6.799 6.786 6.779 6.761 6.791 6.789 6.804 6.794 6.774 6.799 6.841 6.824 6.824 6.839 6.829 6.851 6.919 6.929 6.849 6.824 6.841 6.789 6.846 6.839 6.839 6.809 6.871 6.964 6.911 6.869 6.874 6.866 6.849 6.841 6.834 6.826 6.839 6.821 6.791 6.831 6.839 6.856 6.861 6.824 6.839 6.836 6.859 6.851 6.834 6.834 6.846 6.869 6.874 6.876 6.886 6.876 6.896 6.896 6.894 6.894 6.889 6.916 6.931 6.944 6.924 6.914 6.904 6.901 6.904 6.929 6.974 6.994 7.036 7.044 7.049 7.056 7.046 7.031 7.039 7.054 7.059 7.036 7.039 7.066 7.094 7.101 7.121 7.096 7.084 7.076 7.059 7.086 7.044 7.029 7.051 7.019 7.041 7.054 7.091 7.101 7.139 7.151 7.156 7.169
6.259 6.272 6.284 6.279 6.279 6.259 6.262 6.257 6.254 6.257 6.284 6.292 6.289 6.282 6.319 6.304 6.292 6.299 6.289 6.274 6.294 6.309 6.292 6.289 6.269 6.277 6.294 6.284 6.269 6.279 6.292 6.289 6.279 6.324 6.337 6.347 6.339 6.337 6.357 6.342 6.342 6.327 6.342 6.384 6.392 6.382 6.384 6.387 6.377 6.392 6.364 6.357 6.387 6.379 6.357 6.349 6.377 6.397 6.404 6.404 6.389 6.392 6.379 6.382 6.397 6.404 6.387 6.384 6.399 6.402 6.427 6.439 6.432 6.447 6.459 6.454 6.422 6.424 6.392 6.399 6.424 6.422 6.414 6.444 6.422 6.439 6.407 6.392 6.352 6.389 6.367 6.372 6.349 6.309 6.329 6.347 6.337 6.329 6.304 6.304 6.342 6.327 6.322 6.337 6.327 6.294 6.279 6.294 6.284 6.302 6.299 6.289 6.262 6.299 6.297 6.287 6.304 6.334 6.302 6.334 6.319 6.334 6.322 6.309 6.319 6.332 6.332 6.352 6.339 6.337 6.354 6.354 6.382 6.394 6.402 6.409 6.392 6.424 6.397 6.379 6.374 6.369 6.304 6.314 6.329 6.354 6.349 6.342 6.339 6.349 6.349 6.349 6.357 6.349 6.352 6.367 6.352 6.359 6.372 6.362 6.389 6.402 6.404 6.414 6.392 6.364 6.352 6.334 6.332 6.317 6.299 6.284 6.264 6.247 6.247 6.219 6.244 6.209 6.209 6.239 6.234 6.224 6.199 6.184 6.162 6.184 6.162 6.162 6.169 6.134 6.139 6.129 6.114 6.134 6.124 6.114 6.122 6.124 6.119 6.124 6.139 6.129 6.142 6.144 6.159 6.169 6.172 6.166 6.162 6.166 6.177 6.179 6.19 6.174 6.141 6.132 6.107 6.082 6.066 6.045 5.989 5.991 6.004 5.994 5.939 6.002 5.974 5.904 5.937 5.912 5.919 5.947 5.947 5.982 6.024 6.044 6.012 5.954 5.939 5.964 5.962 5.974 5.964 6.016 5.994 5.981 5.981 5.999 6.031 6.021 6.001 5.991 6.016 5.976 5.984 5.939 5.961 5.959 5.946 5.974 5.964 5.949 5.894 6.009 6.021 5.951 5.979 5.889 5.904 5.901 5.869 5.809 5.754 5.751 5.749 5.784 5.791 5.836 5.851 5.891 5.916 5.899 5.901 5.881 5.879 5.904 5.851 5.869 5.894 5.964 5.984 5.959 5.944 5.939 5.951 5.931 5.921 5.904 5.904 5.911 5.956 5.936 5.976 5.914 5.926 5.966 5.976 5.991 5.974 5.971 6.011 6.021 6.021 6.039 6.051 6.024 6.026 6.059 6.049 6.024 5.981 6.066 6.061 6.064 6.089 6.096 6.124 6.104 6.129 6.111 6.129 6.131 6.151 6.151 6.184 6.164 6.186 6.196 6.219 6.226 6.214 6.259 6.251 6.216 6.231 6.264 6.279 6.269 6.274 6.304 6.311 6.299 6.331 6.319 6.321 6.341 6.391 6.404 6.404 6.399 6.429 6.431 6.451 6.431 6.421 6.441 6.469 6.441 6.434 6.439 6.479 6.509 6.524 6.509 6.574 6.569 6.559 6.621 6.659 6.654 6.641 6.681 6.656 6.736 6.759 6.779 6.746 6.754 6.801 6.819 6.791 6.796 6.834 6.809 6.816 6.829 6.829 6.824 6.829 6.846 6.846 6.901 6.886 6.866 6.859 6.911 6.929 6.884 6.824 6.849 6.834 6.831 6.846 6.861 6.861 6.876 6.986 6.976 6.964 6.921 6.899 6.896 6.869 6.859 6.886 6.876 6.876 6.889 6.869 6.844 6.841 6.834 6.861 6.864 6.839 6.846 6.844 6.834 6.861 6.884 6.889 6.896 6.896 6.889 6.886 6.924 6.936 6.899 6.884 6.916 6.939 6.944 6.939 6.939 6.896 6.876 6.899 6.926 6.974 6.961 7.011 7.011 7.066 7.084 7.081 7.096 7.099 7.084 7.076 7.054 7.064 7.039 7.056 7.049 7.071 7.124 7.116 7.089 7.074 7.076 7.076 7.066 7.046 7.039 7.034 7.059 7.064 7.114 7.134 7.141 7.176 7.184 7.189
6.289 6.309 6.297 6.304 6.312 6.302 6.322 6.314 6.292 6.282 6.299 6.319 6.317 6.304 6.312 6.304 6.317 6.314 6.317 6.319 6.329 6.314 6.329 6.319 6.287 6.342 6.324 6.329 6.332 6.337 6.327 6.317 6.322 6.357 6.394 6.402 6.389 6.397 6.409 6.387 6.387 6.389 6.417 6.407 6.414 6.417 6.417 6.414 6.442 6.454 6.432 6.397 6.409 6.404 6.404 6.384 6.417 6.434 6.434 6.432 6.437 6.449 6.419 6.439 6.444 6.464 6.439 6.439 6.469 6.487 6.489 6.472 6.472 6.482 6.492 6.479 6.477 6.459 6.454 6.427 6.427 6.437 6.442 6.467 6.459 6.444 6.414 6.404 6.389 6.369 6.342 6.359 6.347 6.327 6.352 6.342 6.319 6.352 6.349 6.372 6.369 6.367 6.374 6.369 6.342 6.317 6.307 6.304 6.329 6.304 6.304 6.307 6.314 6.322 6.314 6.287 6.302 6.329 6.339 6.319 6.324 6.329 6.319 6.309 6.334 6.319 6.334 6.334 6.347 6.364 6.377 6.384 6.399 6.422 6.417 6.422 6.432 6.444 6.417 6.394 6.397 6.389 6.339 6.352 6.362 6.352 6.329 6.334 6.317 6.347 6.317 6.324 6.317 6.294 6.334 6.332 6.324 6.332 6.357 6.347 6.369 6.379 6.389 6.389 6.374 6.354 6.347 6.329 6.322 6.289 6.287 6.249 6.234 6.219 6.204 6.224 6.234 6.207 6.212 6.202 6.194 6.219 6.197 6.177 6.174 6.169 6.149 6.139 6.159 6.124 6.147 6.132 6.109 6.109 6.112 6.109 6.117 6.157 6.114 6.124 6.102 6.112 6.141 6.142 6.149 6.142 6.144 6.166 6.176 6.168 6.17 6.185 6.177 6.181 6.142 6.133 6.111 6.12 6.08 6.037 6.024 6 6.064 6.034 5.964 5.992 5.987 5.972 5.937 5.959 5.934 5.964 5.952 5.987 6.054 6.059 6.044 5.977 5.904 5.949 5.942 5.952 5.942 5.986 5.974 5.986 5.969 6.034 6.031 6.036 6.041 6.044 5.991 5.986 5.991 5.976 5.966 5.911 5.951 5.944 5.966 5.909 5.919 5.949 5.999 5.951 5.956 5.939 5.901 5.884 5.904 5.844 5.831 5.806 5.804 5.849 5.831 5.814 5.839 5.891 5.894 5.904 5.894 5.889 5.906 5.919 5.899 5.879 5.914 5.949 5.949 5.956 6.009 5.926 5.926 5.939 5.986 5.956 5.961 6.009 5.991 5.996 5.969 5.984 6.019 6.034 6.016 6.034 6.039 6.044 6.081 6.056 6.089 6.094 6.084 6.074 6.066 6.106 6.091 6.099 6.059 6.111 6.109 6.089 6.114 6.134 6.146 6.146 6.139 6.154 6.156 6.186 6.204 6.191 6.194 6.226 6.216 6.249 6.244 6.224 6.244 6.296 6.261 6.271 6.274 6.271 6.301 6.314 6.319 6.321 6.329 6.314 6.356 6.376 6.379 6.364 6.409 6.424 6.414 6.416 6.416 6.436 6.444 6.461 6.489 6.449 6.456 6.451 6.461 6.479 6.494 6.516 6.501 6.496 6.509 6.544 6.591 6.624 6.634 6.681 6.676 6.759 6.751 6.751 6.796 6.826 6.836 6.834 6.826 6.811 6.841 6.811 6.856 6.884 6.879 6.866 6.844 6.841 6.846 6.879 6.901 6.914 6.899 6.879 6.899 6.911 6.949 6.911 6.821 6.851 6.871 6.879 6.899 6.911 6.911 6.936 7.044 7.054 7.014 6.956 6.944 6.916 6.891 6.891 6.899 6.899 6.906 6.874 6.884 6.869 6.854 6.846 6.851 6.891 6.874 6.894 6.891 6.889 6.866 6.871 6.889 6.906 6.904 6.901 6.884 6.906 6.904 6.879 6.874 6.914 6.919 6.959 6.944 6.926 6.934 6.921 6.906 6.929 6.986 6.999 7.041 7.066 7.106 7.121 7.119 7.096 7.076 7.084 7.069 7.066 7.044 7.044 7.049 7.086 7.096 7.146 7.114 7.089 7.104 7.106 7.096 7.071 7.059 7.034 7.041 7.064 7.091 7.111 7.124 7.166 7.151 7.189 7.206
6.267 6.282 6.312 6.307 6.309 6.297 6.322 6.304 6.297 6.294 6.284 6.314 6.304 6.309 6.312 6.299 6.329 6.312 6.322 6.307 6.337 6.339 6.352 6.337 6.329 6.359 6.359 6.342 6.342 6.359 6.359 6.347 6.372 6.384 6.399 6.384 6.404 6.432 6.429 6.417 6.447 6.439 6.434 6.432 6.427 6.457 6.454 6.464 6.477 6.434 6.427 6.424 6.447 6.419 6.419 6.417 6.419 6.437 6.444 6.462 6.437 6.459 6.477 6.452 6.464 6.482 6.472 6.472 6.494 6.517 6.514 6.494 6.517 6.497 6.502 6.489 6.502 6.504 6.504 6.469 6.474 6.462 6.452 6.457 6.457 6.417 6.417 6.419 6.377 6.357 6.369 6.364 6.344 6.334 6.349 6.339 6.364 6.364 6.407 6.409 6.407 6.397 6.379 6.407 6.387 6.349 6.332 6.357 6.362 6.324 6.349 6.339 6.357 6.357 6.317 6.334 6.332 6.342 6.349 6.327 6.339 6.347 6.354 6.362 6.347 6.374 6.357 6.367 6.374 6.377 6.399 6.404 6.414 6.444 6.417 6.409 6.432 6.412 6.392 6.397 6.407 6.399 6.357 6.334 6.364 6.357 6.344 6.354 6.329 6.319 6.299 6.309 6.297 6.294 6.309 6.314 6.312 6.324 6.334 6.357 6.374 6.384 6.407 6.399 6.387 6.374 6.379 6.349 6.322 6.307 6.289 6.267 6.244 6.209 6.232 6.232 6.234 6.232 6.244 6.237 6.242 6.232 6.212 6.189 6.182 6.159 6.172 6.154 6.134 6.159 6.142 6.139 6.124 6.137 6.112 6.122 6.137 6.129 6.117 6.089 6.122 6.134 6.124 6.12 6.126 6.126 6.112 6.121 6.15 6.161 6.154 6.159 6.138 6.113 6.089 6.112 6.097 6.078 6.077 6.059 6.052 6.087 6.064 6.044 5.989 5.997 6.012 6.017 6.017 5.999 5.997 6.029 5.984 5.987 5.969 5.994 6.022 6.029 5.954 5.939 5.957 5.972 5.959 5.971 5.956 5.986 6.009 6.009 6.009 6.046 5.989 5.991 5.984 6.004 6.011 5.991 5.936 5.941 5.979 5.944 5.941 5.924 5.946 5.934 5.989 5.954 5.961 5.929 5.876 5.894 5.909 5.879 5.881 5.861 5.876 5.891 5.884 5.861 5.864 5.876 5.899 5.901 5.909 5.914 5.921 5.971 5.969 5.941 5.926 5.961 5.949 5.971 5.999 5.979 5.974 5.961 5.999 6.016 6.001 6.004 5.996 6.009 6.009 6.034 6.051 6.061 6.059 6.074 6.056 6.061 6.084 6.091 6.094 6.104 6.101 6.086 6.121 6.096 6.109 6.121 6.094 6.086 6.136 6.151 6.141 6.169 6.169 6.174 6.179 6.181 6.151 6.161 6.241 6.209 6.224 6.234 6.226 6.256 6.249 6.259 6.266 6.289 6.304 6.334 6.321 6.341 6.319 6.339 6.359 6.366 6.354 6.381 6.424 6.396 6.406 6.399 6.409 6.434 6.434 6.444 6.451 6.461 6.489 6.466 6.521 6.471 6.506 6.499 6.549 6.536 6.531 6.549 6.546 6.541 6.541 6.591 6.634 6.641 6.651 6.686 6.706 6.706 6.714 6.764 6.779 6.806 6.819 6.836 6.839 6.866 6.834 6.871 6.849 6.886 6.894 6.876 6.831 6.861 6.866 6.894 6.924 6.914 6.884 6.894 6.929 6.956 6.989 6.989 6.879 6.866 6.881 6.864 6.901 6.939 6.926 6.939 7.006 7.046 7.039 7.004 7.001 6.989 6.961 6.966 6.954 6.954 6.969 6.939 6.899 6.896 6.921 6.904 6.896 6.874 6.896 6.871 6.899 6.891 6.874 6.859 6.886 6.891 6.896 6.901 6.879 6.906 6.914 6.924 6.934 6.939 6.936 6.951 6.944 6.921 6.941 6.951 6.961 6.961 6.994 6.984 6.991 7.049 7.054 7.081 7.084 7.094 7.094 7.106 7.089 7.096 7.049 7.049 7.054 7.096 7.104 7.114 7.131 7.084 7.111 7.104 7.106 7.066 7.066 7.044 7.044 7.064 7.091 7.116 7.134 7.196 7.196 7.219 7.219
6.267 6.272 6.272 6.289 6.289 6.274 6.277 6.277 6.274 6.284 6.274 6.299 6.302 6.279 6.257 6.307 6.314 6.284 6.262 6.304 6.319 6.347 6.332 6.297 6.322 6.362 6.352 6.334 6.329 6.322 6.354 6.384 6.384 6.354 6.352 6.372 6.387 6.402 6.389 6.419 6.442 6.427 6.422 6.427 6.427 6.422 6.434 6.427 6.424 6.427 6.409 6.422 6.419 6.417 6.437 6.427 6.409 6.424 6.449 6.444 6.429 6.454 6.474 6.472 6.469 6.464 6.464 6.512 6.512 6.537 6.539 6.524 6.517 6.527 6.539 6.532 6.527 6.547 6.542 6.539 6.479 6.499 6.482 6.462 6.472 6.442 6.427 6.422 6.409 6.382 6.392 6.412 6.414 6.392 6.417 6.397 6.407 6.454 6.447 6.444 6.444 6.409 6.432 6.412 6.412 6.399 6.412 6.422 6.389 6.392 6.397 6.384 6.394 6.389 6.387 6.387 6.389 6.364 6.364 6.369 6.357 6.364 6.387 6.402 6.407 6.399 6.394 6.392 6.387 6.404 6.419 6.414 6.414 6.412 6.427 6.434 6.409 6.414 6.392 6.389 6.394 6.369 6.322 6.344 6.324 6.362 6.367 6.317 6.319 6.342 6.332 6.342 6.319 6.322 6.329 6.332 6.322 6.337 6.334 6.362 6.364 6.392 6.392 6.392 6.384 6.404 6.387 6.389 6.377 6.337 6.289 6.277 6.297 6.262 6.259 6.262 6.277 6.267 6.277 6.289 6.284 6.269 6.239 6.229 6.249 6.209 6.212 6.189 6.187 6.159 6.177 6.169 6.149 6.157 6.144 6.152 6.167 6.134 6.127 6.114 6.112 6.143 6.127 6.115 6.139 6.112 6.104 6.114 6.132 6.141 6.128 6.145 6.133 6.106 6.114 6.154 6.113 6.108 6.091 6.081 6.07 6.102 6.099 6.097 6.057 6.057 6.044 6.027 6.049 6.022 6.049 6.034 6.032 5.969 5.987 6.007 6.037 6.072 6.054 5.954 5.939 5.937 5.957 5.954 5.989 5.966 5.981 5.964 5.956 6.009 5.986 5.996 5.989 6.021 5.984 5.966 5.969 5.969 5.956 5.931 5.951 5.936 5.931 5.909 5.946 6.026 6.009 5.954 5.919 5.919 5.931 5.914 5.901 5.876 5.909 5.904 5.859 5.879 5.891 5.884 5.914 5.934 5.936 5.941 5.971 5.991 5.996 5.996 5.974 5.999 6.016 6.016 5.999 6.054 6.016 5.981 5.989 6.004 5.989 5.996 5.974 5.999 6.026 6.049 6.014 6.041 6.049 6.079 6.071 6.086 6.061 6.124 6.114 6.116 6.124 6.131 6.151 6.161 6.151 6.159 6.164 6.139 6.161 6.174 6.176 6.184 6.181 6.174 6.174 6.174 6.209 6.209 6.244 6.234 6.204 6.259 6.261 6.229 6.281 6.291 6.309 6.324 6.356 6.359 6.404 6.371 6.404 6.381 6.381 6.404 6.404 6.439 6.429 6.454 6.444 6.431 6.451 6.454 6.476 6.479 6.489 6.504 6.536 6.514 6.506 6.524 6.561 6.574 6.566 6.591 6.586 6.611 6.606 6.586 6.614 6.654 6.676 6.686 6.686 6.706 6.701 6.679 6.734 6.784 6.784 6.859 6.856 6.839 6.816 6.871 6.884 6.884 6.861 6.886 6.901 6.879 6.859 6.896 6.891 6.884 6.899 6.901 6.904 6.901 6.939 6.941 6.984 7.026 6.906 6.881 6.894 6.881 6.941 6.956 6.936 6.956 6.994 7.039 7.046 7.026 6.999 6.964 6.981 6.981 7.006 6.999 6.994 6.976 6.959 6.944 6.941 6.931 6.941 6.924 6.904 6.916 6.936 6.911 6.911 6.944 6.919 6.911 6.924 6.944 6.934 6.936 6.936 6.924 6.974 6.979 6.969 6.964 6.966 6.954 6.951 6.954 6.956 6.984 6.966 6.979 7.001 7.021 7.054 7.084 7.074 7.104 7.114 7.129 7.101 7.109 7.079 7.076 7.079 7.096 7.094 7.101 7.101 7.074 7.084 7.074 7.074 7.066 7.054 7.054 7.061 7.059 7.104 7.131 7.179 7.201 7.199 7.229 7.231
6.289 6.272 6.319 6.322 6.314 6.292 6.287 6.319 6.329 6.292 6.307 6.314 6.304 6.314 6.317 6.344 6.334 6.342 6.329 6.332 6.374 6.359 6.347 6.339 6.362 6.339 6.344 6.349 6.349 6.367 6.344 6.377 6.352 6.372 6.354 6.364 6.357 6.387 6.364 6.397 6.402 6.392 6.402 6.374 6.392 6.422 6.404 6.427 6.387 6.377 6.404 6.397 6.392 6.407 6.402 6.402 6.397 6.402 6.387 6.417 6.432 6.434 6.424 6.444 6.462 6.439 6.439 6.467 6.449 6.507 6.494 6.509 6.502 6.502 6.509 6.507 6.507 6.509 6.502 6.504 6.492 6.469 6.482 6.492 6.457 6.447 6.437 6.427 6.429 6.427 6.409 6.432 6.437 6.439 6.442 6.432 6.432 6.452 6.454 6.434 6.412 6.457 6.459 6.427 6.434 6.429 6.452 6.434 6.427 6.412 6.432 6.429 6.424 6.442 6.437 6.449 6.434 6.427 6.417 6.419 6.424 6.414 6.427 6.427 6.452 6.434 6.419 6.439 6.444 6.439 6.444 6.449 6.472 6.452 6.454 6.464 6.429 6.427 6.402 6.414 6.397 6.384 6.377 6.372 6.359 6.364 6.347 6.359 6.352 6.354 6.357 6.367 6.347 6.354 6.359 6.347 6.359 6.367 6.367 6.354 6.372 6.397 6.379 6.379 6.389 6.384 6.354 6.364 6.364 6.327 6.324 6.317 6.309 6.307 6.324 6.309 6.324 6.317 6.347 6.322 6.309 6.279 6.284 6.267 6.272 6.252 6.252 6.227 6.209 6.217 6.194 6.187 6.197 6.172 6.169 6.174 6.172 6.169 6.164 6.161 6.161 6.151 6.14 6.159 6.156 6.143 6.162 6.136 6.148 6.166 6.143 6.139 6.15 6.134 6.14 6.138 6.145 6.142 6.093 6.122 6.129 6.129 6.137 6.107 6.112 6.077 6.064 6.044 6.067 6.087 6.042 6.037 6.059 6.057 6.029 6.064 6.084 6.062 6.107 5.964 5.937 5.947 5.939 5.934 5.961 5.984 5.961 5.994 5.976 5.999 6.009 6.009 5.996 5.996 6.011 5.984 5.979 5.956 5.954 5.964 5.964 5.941 5.944 5.949 5.969 5.986 6.046 6.026 5.966 5.966 5.944 5.929 5.934 5.924 5.921 5.896 5.916 5.919 5.914 5.919 5.931 5.934 5.946 5.961 5.999 6.006 5.991 6.024 6.034 6.031 6.041 6.031 6.021 6.034 6.029 6.046 6.009 6.024 6.021 6.004 6.024 6.036 6.064 6.061 6.094 6.064 6.106 6.119 6.111 6.121 6.136 6.159 6.171 6.164 6.149 6.149 6.169 6.171 6.189 6.191 6.186 6.151 6.174 6.189 6.176 6.219 6.216 6.209 6.199 6.226 6.221 6.239 6.249 6.231 6.251 6.304 6.276 6.276 6.334 6.324 6.296 6.341 6.349 6.396 6.419 6.419 6.381 6.364 6.406 6.449 6.424 6.464 6.464 6.479 6.496 6.471 6.489 6.476 6.481 6.501 6.541 6.524 6.524 6.539 6.534 6.564 6.636 6.614 6.639 6.636 6.641 6.636 6.624 6.654 6.659 6.676 6.694 6.711 6.711 6.721 6.731 6.764 6.829 6.806 6.859 6.876 6.836 6.834 6.881 6.894 6.859 6.874 6.884 6.911 6.906 6.914 6.901 6.916 6.934 6.909 6.929 6.921 6.876 6.906 6.904 6.934 6.984 7.016 6.951 6.901 6.884 6.954 6.969 6.981 7.004 6.999 7.041 7.101 7.064 7.026 7.031 7.034 7.036 6.984 7.006 7.016 7.034 7.004 6.989 6.989 7.006 7.029 6.999 6.991 6.984 6.959 6.974 6.991 7.001 6.984 6.974 6.949 6.944 6.954 6.964 7.019 6.981 6.979 7.019 7.031 7.021 7.016 6.991 6.976 7.011 6.981 6.969 6.986 6.971 6.974 7.041 7.086 7.044 7.071 7.101 7.099 7.089 7.069 7.081 7.079 7.084 7.099 7.119 7.071 7.089 7.106 7.089 7.076 7.084 7.096 7.116 7.124 7.084 7.114 7.111 7.101 7.131 7.136 7.174 7.209 7.186 7.219 7.199
6.289 6.347 6.312 6.372 6.314 6.312 6.322 6.337 6.317 6.309 6.312 6.294 6.322 6.367 6.387 6.359 6.342 6.377 6.349 6.324 6.357 6.372 6.347 6.392 6.397 6.349 6.357 6.369 6.389 6.369 6.382 6.384 6.379 6.402 6.389 6.404 6.394 6.417 6.424 6.434 6.399 6.402 6.417 6.434 6.414 6.412 6.454 6.432 6.429 6.429 6.452 6.452 6.447 6.424 6.449 6.422 6.404 6.427 6.454 6.442 6.432 6.449 6.439 6.469 6.479 6.477 6.444 6.502 6.497 6.504 6.517 6.497 6.487 6.479 6.484 6.509 6.502 6.472 6.484 6.449 6.432 6.454 6.459 6.427 6.437 6.442 6.419 6.422 6.437 6.429 6.454 6.439 6.447 6.452 6.469 6.442 6.439 6.442 6.429 6.409 6.432 6.457 6.457 6.447 6.427 6.444 6.427 6.417 6.429 6.399 6.409 6.404 6.392 6.414 6.412 6.432 6.444 6.419 6.412 6.437 6.432 6.459 6.462 6.469 6.454 6.439 6.467 6.452 6.437 6.434 6.459 6.469 6.484 6.477 6.517 6.484 6.442 6.422 6.457 6.457 6.447 6.447 6.417 6.412 6.432 6.437 6.407 6.387 6.382 6.437 6.414 6.402 6.392 6.387 6.397 6.389 6.387 6.389 6.364 6.374 6.397 6.409 6.399 6.422 6.394 6.402 6.422 6.412 6.399 6.379 6.364 6.349 6.352 6.379 6.382 6.387 6.362 6.367 6.347 6.349 6.342 6.322 6.329 6.317 6.317 6.284 6.287 6.274 6.267 6.262 6.247 6.222 6.204 6.219 6.217 6.219 6.219 6.192 6.191 6.194 6.195 6.194 6.174 6.181 6.178 6.177 6.159 6.162 6.168 6.159 6.172 6.171 6.172 6.168 6.141 6.15 6.176 6.144 6.168 6.169 6.182 6.172 6.164 6.162 6.159 6.114 6.097 6.077 6.112 6.092 6.042 6.044 6.064 6.099 6.064 6.094 6.084 6.092 6.124 6.049 5.949 5.922 5.914 5.979 5.971 5.976 5.989 6.006 6.001 6.011 6.011 6.034 5.989 5.981 6.006 5.994 5.986 5.954 5.944 5.956 6.004 5.946 5.939 5.951 5.941 5.946 6.046 6.071 6.016 6.029 5.989 5.984 5.971 5.946 5.969 5.981 5.996 5.971 5.946 5.951 5.971 5.956 5.979 6.011 6.021 6.021 6.026 6.051 6.059 6.036 6.036 6.049 6.036 6.059 6.061 6.061 6.086 6.084 6.051 6.049 6.086 6.051 6.081 6.099 6.114 6.114 6.111 6.114 6.129 6.126 6.121 6.194 6.199 6.186 6.164 6.164 6.184 6.176 6.191 6.189 6.231 6.214 6.179 6.184 6.204 6.239 6.231 6.246 6.251 6.254 6.251 6.271 6.264 6.239 6.259 6.276 6.281 6.314 6.311 6.324 6.329 6.399 6.389 6.406 6.444 6.446 6.436 6.421 6.429 6.459 6.494 6.479 6.489 6.479 6.494 6.474 6.529 6.546 6.531 6.539 6.564 6.529 6.554 6.541 6.574 6.631 6.669 6.641 6.654 6.666 6.676 6.706 6.684 6.691 6.716 6.744 6.796 6.781 6.794 6.816 6.826 6.816 6.831 6.869 6.896 6.879 6.871 6.874 6.909 6.881 6.891 6.889 6.896 6.921 6.919 6.921 6.974 6.929 6.956 6.914 6.936 6.924 6.934 6.914 6.946 6.986 6.994 7.071 6.989 6.921 6.936 6.956 6.969 6.999 7.006 7.006 7.036 7.136 7.079 7.044 7.031 7.051 7.064 7.031 7.041 7.029 7.089 7.066 7.046 7.034 7.049 7.066 7.034 7.034 7.006 7.046 7.026 7.029 7.044 7.039 7.066 7.024 6.979 7.001 7.019 7.024 7.059 7.031 7.059 7.079 7.061 7.046 7.029 7.021 7.036 7.014 7.009 7.014 7.006 7.041 7.066 7.084 7.086 7.079 7.071 7.111 7.076 7.074 7.084 7.064 7.089 7.099 7.094 7.084 7.106 7.119 7.106 7.089 7.126 7.114 7.136 7.134 7.091 7.086 7.099 7.096 7.131 7.161 7.169 7.194 7.179 7.211 7.231
6.347 6.362 6.359 6.329 6.334 6.349 6.359 6.357 6.359 6.357 6.327 6.324 6.347 6.384 6.364 6.364 6.377 6.372 6.349 6.362 6.374 6.409 6.417 6.402 6.372 6.377 6.387 6.377 6.399 6.394 6.407 6.399 6.407 6.374 6.434 6.429 6.399 6.422 6.429 6.447 6.449 6.454 6.422 6.434 6.449 6.437 6.432 6.469 6.454 6.472 6.457 6.442 6.442 6.477 6.457 6.484 6.472 6.462 6.444 6.449 6.467 6.484 6.459 6.487 6.479 6.512 6.499 6.479 6.507 6.482 6.499 6.504 6.514 6.504 6.522 6.524 6.502 6.519 6.499 6.529 6.489 6.482 6.484 6.479 6.462 6.482 6.492 6.482 6.492 6.462 6.489 6.507 6.474 6.492 6.482 6.439 6.472 6.444 6.457 6.452 6.447 6.454 6.442 6.454 6.439 6.439 6.432 6.447 6.407 6.424 6.432 6.432 6.429 6.444 6.412 6.432 6.424 6.434 6.439 6.409 6.457 6.442 6.432 6.432 6.429 6.432 6.404 6.434 6.414 6.407 6.432 6.424 6.437 6.457 6.447 6.437 6.427 6.432 6.439 6.432 6.432 6.407 6.387 6.399 6.412 6.407 6.402 6.384 6.387 6.399 6.412 6.407 6.412 6.392 6.402 6.377 6.387 6.377 6.384 6.392 6.412 6.412 6.407 6.409 6.427 6.409 6.417 6.399 6.389 6.392 6.392 6.389 6.412 6.407 6.389 6.382 6.364 6.362 6.362 6.357 6.372 6.362 6.327 6.312 6.299 6.279 6.282 6.299 6.309 6.309 6.269 6.257 6.259 6.247 6.259 6.279 6.234 6.244 6.256 6.246 6.24 6.223 6.229 6.211 6.235 6.239 6.208 6.209 6.211 6.213 6.197 6.207 6.219 6.157 6.152 6.171 6.176 6.176 6.169 6.194 6.194 6.202 6.174 6.177 6.164 6.137 6.129 6.114 6.104 6.104 6.107 6.077 6.082 6.094 6.099 6.087 6.097 6.107 6.114 6.127 6.022 5.977 6.014 6.021 6.011 5.994 6.014 6.029 6.044 6.016 6.026 6.019 6.029 6.004 6.009 5.961 5.984 5.981 5.956 5.979 5.984 5.971 5.981 5.964 5.956 5.954 6.026 6.139 6.466 6.281 6.041 6.046 6.021 5.999 5.994 6.024 6.031 6.019 5.984 6.001 6.021 6.021 6.041 6.081 6.036 6.054 6.036 6.111 6.084 6.086 6.089 6.129 6.079 6.121 6.104 6.119 6.136 6.129 6.119 6.101 6.074 6.099 6.114 6.114 6.139 6.119 6.149 6.141 6.151 6.179 6.181 6.179 6.234 6.199 6.199 6.231 6.206 6.236 6.196 6.226 6.224 6.211 6.206 6.209 6.251 6.259 6.234 6.249 6.269 6.234 6.264 6.286 6.244 6.276 6.301 6.331 6.339 6.319 6.329 6.356 6.384 6.409 6.424 6.439 6.466 6.449 6.454 6.441 6.429 6.466 6.469 6.499 6.479 6.476 6.491 6.514 6.556 6.516 6.544 6.569 6.579 6.589 6.591 6.579 6.614 6.646 6.701 6.676 6.699 6.706 6.706 6.736 6.751 6.764 6.769 6.776 6.794 6.821 6.814 6.854 6.849 6.841 6.869 6.896 6.901 6.919 6.921 6.911 6.914 6.916 6.914 6.934 6.941 6.926 6.926 6.951 6.956 6.944 6.964 6.969 6.959 6.946 6.956 6.971 6.989 7.006 7.024 7.081 7.061 6.979 6.946 6.969 6.999 7.029 7.001 7.049 7.051 7.071 7.101 7.079 7.084 7.086 7.069 7.069 7.041 7.039 7.056 7.086 7.079 7.041 7.061 7.089 7.089 7.061 7.056 7.066 7.059 7.064 7.059 7.096 7.091 7.089 7.051 7.054 7.071 7.076 7.096 7.084 7.084 7.069 7.096 7.116 7.094 7.094 7.089 7.091 7.076 7.076 7.066 7.061 7.071 7.101 7.114 7.096 7.089 7.096 7.099 7.081 7.064 7.086 7.096 7.084 7.081 7.104 7.114 7.101 7.111 7.139 7.124 7.144 7.139 7.114 7.091 7.069 7.079 7.109 7.111 7.161 7.184 7.186 7.199 7.221 7.224
6.382 6.329 6.347 6.399 6.354 6.367 6.409 6.372 6.392 6.394 6.422 6.349 6.389 6.384 6.389 6.397 6.379 6.397 6.359 6.419 6.409 6.409 6.412 6.379 6.427 6.439 6.399 6.439 6.409 6.432 6.434 6.452 6.407 6.432 6.459 6.432 6.462 6.414 6.467 6.469 6.454 6.447 6.429 6.467 6.482 6.454 6.477 6.472 6.487 6.494 6.497 6.484 6.484 6.472 6.477 6.477 6.484 6.479 6.544 6.502 6.549 6.517 6.472 6.534 6.514 6.527 6.524 6.547 6.534 6.504 6.544 6.534 6.522 6.544 6.539 6.519 6.559 6.534 6.547 6.544 6.534 6.534 6.514 6.519 6.572 6.552 6.497 6.532 6.559 6.507 6.507 6.519 6.499 6.502 6.484 6.502 6.512 6.507 6.482 6.497 6.484 6.477 6.484 6.497 6.497 6.487 6.507 6.469 6.467 6.482 6.454 6.489 6.484 6.479 6.464 6.467 6.447 6.464 6.462 6.449 6.472 6.487 6.472 6.439 6.479 6.454 6.449 6.467 6.464 6.472 6.424 6.434 6.424 6.472 6.467 6.459 6.439 6.472 6.437 6.444 6.422 6.434 6.424 6.419 6.397 6.427 6.407 6.409 6.407 6.402 6.397 6.397 6.412 6.399 6.409 6.382 6.392 6.402 6.372 6.382 6.382 6.369 6.394 6.387 6.377 6.367 6.387 6.372 6.354 6.357 6.347 6.349 6.369 6.382 6.342 6.339 6.347 6.327 6.317 6.299 6.319 6.319 6.309 6.309 6.287 6.299 6.289 6.284 6.282 6.287 6.277 6.264 6.287 6.269 6.287 6.264 6.229 6.248 6.266 6.261 6.245 6.253 6.249 6.259 6.266 6.263 6.242 6.237 6.239 6.224 6.239 6.26 6.222 6.202 6.217 6.24 6.223 6.237 6.222 6.252 6.217 6.214 6.214 6.179 6.194 6.154 6.194 6.159 6.169 6.174 6.164 6.144 6.147 6.174 6.159 6.147 6.154 6.189 6.164 6.184 6.132 6.009 5.994 6.039 6.079 6.044 6.039 6.046 6.036 6.041 6.031 6.011 6.034 6.006 6.009 6.019 6.011 6.024 5.986 6.001 5.984 6.051 6.004 6.009 5.976 5.971 5.986 6.229 7.926 7.799 6.301 6.034 6.049 6.026 6.031 6.054 6.056 6.019 6.069 6.079 6.059 6.104 6.061 6.101 6.111 6.084 6.096 6.079 6.119 6.049 6.089 6.124 6.144 6.124 6.159 6.151 6.166 6.159 6.161 6.146 6.099 6.111 6.136 6.146 6.149 6.179 6.189 6.219 6.201 6.214 6.244 6.216 6.236 6.251 6.249 6.276 6.254 6.251 6.241 6.236 6.261 6.234 6.236 6.249 6.279 6.279 6.286 6.286 6.259 6.289 6.311 6.321 6.334 6.339 6.339 6.364 6.361 6.371 6.366 6.389 6.414 6.464 6.471 6.481 6.491 6.491 6.496 6.489 6.491 6.491 6.496 6.509 6.514 6.491 6.551 6.581 6.564 6.571 6.586 6.569 6.601 6.586 6.581 6.644 6.674 6.694 6.764 6.754 6.764 6.764 6.769 6.764 6.771 6.759 6.774 6.799 6.801 6.834 6.821 6.841 6.836 6.864 6.886 6.899 6.901 6.954 6.949 6.936 6.924 6.939 6.946 6.929 6.889 6.931 6.936 6.976 6.979 6.996 7.011 7.011 7.006 6.989 6.999 7.026 7.041 7.046 7.074 7.109 7.124 7.039 6.984 6.989 7.034 7.044 7.054 7.086 7.066 7.114 7.151 7.124 7.156 7.141 7.086 7.079 7.094 7.071 7.099 7.121 7.114 7.094 7.111 7.099 7.114 7.134 7.134 7.129 7.141 7.106 7.119 7.066 7.126 7.114 7.126 7.126 7.114 7.131 7.119 7.151 7.139 7.154 7.124 7.149 7.136 7.139 7.139 7.124 7.154 7.129 7.134 7.081 7.096 7.106 7.189 7.154 7.116 7.141 7.154 7.119 7.164 7.151 7.136 7.116 7.129 7.196 7.176 7.161 7.189 7.174 7.129 7.134 7.129 7.131 7.129 7.134 7.116 7.119 7.181 7.226 7.211 7.221 7.236 7.246 7.219
6.397 6.392 6.367 6.392 6.412 6.409 6.429 6.414 6.417 6.412 6.372 6.409 6.417 6.429 6.404 6.402 6.432 6.429 6.427 6.432 6.412 6.417 6.437 6.442 6.434 6.454 6.429 6.414 6.457 6.454 6.479 6.432 6.497 6.479 6.467 6.477 6.469 6.489 6.479 6.512 6.527 6.499 6.499 6.537 6.522 6.524 6.467 6.522 6.484 6.529 6.517 6.547 6.507 6.514 6.547 6.569 6.517 6.522 6.527 6.517 6.534 6.559 6.534 6.544 6.544 6.562 6.537 6.564 6.584 6.552 6.602 6.604 6.577 6.592 6.549 6.597 6.552 6.557 6.547 6.574 6.552 6.529 6.559 6.547 6.574 6.554 6.569 6.532 6.557 6.567 6.549 6.549 6.549 6.519 6.539 6.539 6.519 6.519 6.564 6.559 6.517 6.574 6.504 6.539 6.539 6.499 6.492 6.527 6.534 6.524 6.517 6.507 6.487 6.512 6.499 6.467 6.502 6.484 6.519 6.454 6.484 6.459 6.507 6.509 6.482 6.459 6.487 6.534 6.492 6.492 6.454 6.487 6.469 6.482 6.487 6.469 6.504 6.512 6.442 6.477 6.457 6.449 6.447 6.479 6.439 6.464 6.452 6.457 6.439 6.447 6.404 6.462 6.424 6.447 6.452 6.417 6.409 6.394 6.429 6.387 6.407 6.417 6.417 6.422 6.384 6.409 6.402 6.417 6.394 6.374 6.372 6.369 6.357 6.379 6.324 6.332 6.334 6.347 6.367 6.332 6.342 6.347 6.339 6.289 6.332 6.287 6.294 6.317 6.287 6.274 6.247 6.252 6.247 6.252 6.267 6.254 6.267 6.237 6.263 6.245 6.242 6.232 6.241 6.222 6.213 6.224 6.2 6.204 6.21 6.209 6.217 6.204 6.194 6.169 6.157 6.196 6.199 6.204 6.224 6.209 6.202 6.167 6.179 6.182 6.177 6.169 6.207 6.172 6.162 6.169 6.172 6.189 6.184 6.194 6.197 6.209 6.219 6.184 6.212 6.189 6.197 6.117 6.069 6.079 6.044 6.049 6.029 6.059 6.049 6.046 6.049 6.039 6.034 6.039 6.041 5.996 6.024 6.014 6.004 6.011 6.041 5.994 5.999 6.011 6.014 6.006 5.979 6.119 7.646 7.431 6.231 6.086 6.099 6.059 6.084 6.081 6.106 6.096 6.139 6.101 6.156 6.151 6.164 6.181 6.144 6.119 6.144 6.131 6.156 6.136 6.066 6.114 6.204 6.174 6.149 6.164 6.176 6.201 6.221 6.179 6.164 6.194 6.181 6.196 6.211 6.196 6.221 6.246 6.216 6.256 6.286 6.226 6.249 6.266 6.254 6.244 6.254 6.271 6.274 6.216 6.246 6.224 6.249 6.249 6.266 6.309 6.339 6.359 6.326 6.339 6.344 6.344 6.346 6.344 6.344 6.334 6.381 6.401 6.401 6.374 6.424 6.456 6.474 6.481 6.481 6.521 6.526 6.539 6.544 6.529 6.534 6.564 6.516 6.546 6.559 6.569 6.569 6.604 6.614 6.601 6.651 6.654 6.694 6.706 6.756 6.751 6.779 6.796 6.776 6.799 6.789 6.796 6.791 6.776 6.789 6.821 6.831 6.821 6.829 6.881 6.894 6.886 6.889 6.879 6.924 6.914 6.954 6.954 6.971 6.946 6.931 6.939 6.941 6.946 6.939 6.956 6.991 7.026 7.026 6.999 7.014 7.041 7.034 7.074 7.069 7.109 7.116 7.151 7.169 7.119 6.999 7.034 7.064 7.066 7.066 7.059 7.064 7.119 7.164 7.139 7.164 7.176 7.094 7.114 7.084 7.079 7.091 7.121 7.131 7.111 7.129 7.129 7.126 7.161 7.174 7.176 7.196 7.154 7.179 7.146 7.161 7.146 7.149 7.169 7.189 7.154 7.139 7.186 7.184 7.189 7.181 7.204 7.216 7.171 7.179 7.211 7.201 7.189 7.171 7.166 7.166 7.171 7.161 7.184 7.191 7.194 7.206 7.211 7.189 7.186 7.169 7.184 7.186 7.184 7.204 7.229 7.214 7.181 7.194 7.169 7.211 7.191 7.166 7.164 7.171 7.186 7.196 7.231 7.236 7.254 7.271 7.299 7.266
6.432 6.414 6.417 6.457 6.422 6.459 6.437 6.459 6.432 6.469 6.412 6.409 6.449 6.462 6.432 6.434 6.487 6.467 6.429 6.487 6.444 6.497 6.469 6.477 6.479 6.472 6.484 6.462 6.472 6.494 6.472 6.462 6.499 6.524 6.479 6.499 6.519 6.524 6.527 6.517 6.544 6.539 6.529 6.532 6.494 6.544 6.529 6.509 6.542 6.514 6.532 6.572 6.569 6.572 6.549 6.544 6.579 6.552 6.547 6.564 6.567 6.572 6.604 6.584 6.579 6.572 6.557 6.554 6.594 6.609 6.569 6.579 6.597 6.622 6.607 6.604 6.604 6.584 6.622 6.634 6.549 6.567 6.594 6.632 6.592 6.589 6.562 6.557 6.597 6.587 6.577 6.589 6.552 6.559 6.579 6.559 6.539 6.607 6.522 6.552 6.579 6.567 6.544 6.524 6.529 6.574 6.484 6.509 6.584 6.532 6.557 6.552 6.537 6.537 6.532 6.512 6.549 6.474 6.504 6.517 6.512 6.499 6.509 6.512 6.532 6.537 6.532 6.477 6.542 6.547 6.502 6.557 6.484 6.532 6.499 6.494 6.484 6.504 6.514 6.494 6.524 6.534 6.479 6.489 6.502 6.489 6.487 6.499 6.487 6.482 6.479 6.462 6.427 6.459 6.472 6.484 6.434 6.457 6.467 6.489 6.424 6.444 6.477 6.482 6.417 6.437 6.439 6.412 6.407 6.404 6.417 6.379 6.372 6.392 6.394 6.369 6.334 6.392 6.374 6.379 6.379 6.344 6.354 6.322 6.347 6.319 6.329 6.327 6.329 6.332 6.287 6.297 6.277 6.304 6.319 6.288 6.289 6.288 6.293 6.238 6.259 6.258 6.264 6.252 6.251 6.262 6.208 6.228 6.226 6.238 6.233 6.202 6.204 6.204 6.163 6.192 6.159 6.162 6.189 6.184 6.159 6.119 6.152 6.157 6.122 6.159 6.114 6.114 6.104 6.089 6.139 6.109 6.107 6.099 6.129 6.134 6.122 6.114 6.094 6.129 6.107 6.094 6.084 6.074 6.094 6.079 6.044 6.056 6.071 6.069 6.109 6.081 6.056 6.021 6.036 6.034 6.016 6.054 6.051 6.026 6.014 6.024 5.994 6.021 6.059 6.014 6.011 6.016 6.239 6.081 6.136 6.131 6.129 6.111 6.124 6.136 6.134 6.126 6.164 6.144 6.181 6.189 6.186 6.211 6.169 6.194 6.176 6.174 6.196 6.199 6.146 6.129 6.176 6.211 6.224 6.221 6.241 6.246 6.251 6.251 6.251 6.264 6.234 6.244 6.254 6.281 6.299 6.314 6.309 6.294 6.256 6.241 6.251 6.271 6.289 6.299 6.321 6.311 6.311 6.331 6.326 6.334 6.326 6.311 6.336 6.366 6.381 6.391 6.364 6.374 6.359 6.369 6.394 6.374 6.399 6.411 6.436 6.446 6.454 6.461 6.479 6.514 6.526 6.526 6.529 6.551 6.566 6.559 6.549 6.539 6.539 6.586 6.589 6.594 6.604 6.596 6.606 6.649 6.624 6.651 6.706 6.729 6.719 6.741 6.739 6.786 6.789 6.821 6.819 6.839 6.849 6.844 6.851 6.841 6.851 6.864 6.871 6.874 6.869 6.901 6.879 6.879 6.909 6.901 6.931 6.954 6.959 6.996 6.989 6.966 6.986 6.994 6.984 7.006 6.999 7.001 7.019 7.016 7.024 7.011 7.036 7.031 7.034 7.081 7.079 7.079 7.126 7.154 7.189 7.134 7.021 7.026 7.051 7.056 7.059 7.079 7.089 7.131 7.181 7.179 7.131 7.174 7.139 7.094 7.086 7.119 7.126 7.124 7.099 7.134 7.129 7.126 7.144 7.171 7.149 7.169 7.206 7.201 7.161 7.184 7.199 7.186 7.234 7.231 7.209 7.166 7.229 7.181 7.221 7.224 7.224 7.211 7.201 7.204 7.219 7.249 7.229 7.221 7.226 7.244 7.214 7.224 7.219 7.199 7.194 7.171 7.221 7.211 7.199 7.161 7.146 7.186 7.214 7.199 7.221 7.254 7.234 7.216 7.229 7.234 7.266 7.261 7.266 7.216 7.221 7.229 7.206 7.229 7.201 7.219 7.244 7.246 7.239
6.454 6.454 6.454 6.464 6.457 6.499 6.494 6.449 6.449 6.477 6.462 6.467 6.462 6.484 6.449 6.479 6.499 6.509 6.514 6.499 6.502 6.512 6.504 6.504 6.494 6.497 6.489 6.504 6.487 6.504 6.497 6.559 6.517 6.554 6.509 6.564 6.544 6.574 6.509 6.557 6.547 6.552 6.542 6.517 6.562 6.577 6.602 6.532 6.554 6.569 6.592 6.567 6.587 6.584 6.627 6.587 6.607 6.637 6.592 6.564 6.587 6.614 6.642 6.634 6.629 6.582 6.614 6.647 6.619 6.659 6.597 6.612 6.597 6.589 6.634 6.594 6.639 6.632 6.612 6.617 6.602 6.577 6.587 6.612 6.629 6.624 6.579 6.612 6.597 6.584 6.647 6.587 6.607 6.599 6.572 6.567 6.577 6.564 6.584 6.582 6.604 6.559 6.607 6.579 6.562 6.534 6.534 6.552 6.557 6.529 6.514 6.567 6.619 6.509 6.602 6.552 6.544 6.589 6.529 6.527 6.542 6.529 6.542 6.542 6.529 6.549 6.542 6.544 6.519 6.542 6.509 6.507 6.557 6.512 6.522 6.539 6.522 6.534 6.522 6.522 6.532 6.527 6.462 6.509 6.527 6.532 6.539 6.479 6.509 6.522 6.484 6.509 6.524 6.507 6.462 6.479 6.522 6.497 6.449 6.484 6.444 6.459 6.442 6.444 6.437 6.417 6.422 6.439 6.447 6.447 6.422 6.427 6.399 6.392 6.417 6.427 6.382 6.372 6.392 6.389 6.367 6.392 6.382 6.369 6.382 6.359 6.362 6.344 6.334 6.339 6.342 6.344 6.332 6.339 6.322 6.299 6.278 6.308 6.296 6.305 6.286 6.299 6.277 6.284 6.282 6.265 6.247 6.264 6.239 6.259 6.269 6.236 6.199 6.175 6.199 6.197 6.227 6.184 6.207 6.189 6.154 6.162 6.169 6.182 6.192 6.144 6.187 6.139 6.137 6.134 6.137 6.134 6.112 6.132 6.129 6.107 6.094 6.109 6.119 6.102 6.102 6.129 6.122 6.081 6.084 6.119 6.136 6.104 6.089 6.089 6.104 6.079 6.041 6.049 6.081 6.071 6.076 6.081 6.066 6.034 6.034 6.014 6.039 6.066 6.019 6.021 6.041 6.039 6.049 6.064 6.074 6.041 6.041 6.059 6.046 6.089 6.066 6.091 6.086 6.081 6.106 6.116 6.106 6.129 6.119 6.131 6.144 6.149 6.146 6.151 6.141 6.141 6.149 6.176 6.181 6.164 6.191 6.209 6.249 6.231 6.259 6.236 6.229 6.271 6.274 6.269 6.304 6.309 6.316 6.289 6.306 6.296 6.309 6.339 6.346 6.374 6.399 6.376 6.374 6.391 6.396 6.369 6.399 6.379 6.376 6.399 6.411 6.414 6.414 6.429 6.441 6.461 6.469 6.441 6.456 6.519 6.524 6.514 6.536 6.554 6.531 6.564 6.566 6.546 6.596 6.604 6.639 6.604 6.589 6.599 6.579 6.636 6.656 6.659 6.636 6.661 6.706 6.676 6.686 6.694 6.731 6.749 6.771 6.774 6.756 6.799 6.816 6.891 6.904 6.844 6.874 6.876 6.876 6.866 6.899 6.861 6.886 6.919 6.914 6.944 6.909 6.919 6.939 6.954 6.999 6.994 7.026 7.014 7.009 6.991 7.011 7.009 7.011 7.009 7.021 7.019 7.029 7.034 7.034 7.059 7.036 7.054 7.049 7.079 7.076 7.104 7.121 7.186 7.204 7.169 7.064 7.056 7.036 7.051 7.099 7.094 7.101 7.134 7.191 7.231 7.209 7.166 7.149 7.141 7.131 7.134 7.111 7.129 7.136 7.141 7.146 7.181 7.186 7.204 7.206 7.224 7.219 7.246 7.211 7.204 7.204 7.219 7.254 7.236 7.216 7.189 7.241 7.251 7.234 7.259 7.284 7.274 7.266 7.239 7.236 7.246 7.251 7.261 7.244 7.259 7.241 7.244 7.276 7.261 7.256 7.271 7.254 7.259 7.234 7.216 7.219 7.206 7.229 7.234 7.234 7.256 7.264 7.261 7.279 7.266 7.284 7.296 7.269 7.251 7.221 7.239 7.224 7.241 7.246 7.254 7.246 7.256 7.244
6.482 6.497 6.499 6.497 6.512 6.484 6.484 6.479 6.504 6.479 6.474 6.504 6.492 6.517 6.524 6.554 6.502 6.527 6.532 6.537 6.514 6.529 6.512 6.537 6.542 6.544 6.557 6.529 6.507 6.507 6.567 6.539 6.557 6.577 6.589 6.582 6.542 6.542 6.587 6.567 6.589 6.589 6.592 6.564 6.574 6.579 6.569 6.597 6.594 6.597 6.627 6.607 6.612 6.599 6.637 6.639 6.612 6.642 6.614 6.639 6.629 6.629 6.654 6.647 6.619 6.652 6.639 6.677 6.677 6.667 6.639 6.652 6.674 6.677 6.642 6.657 6.652 6.627 6.667 6.627 6.642 6.627 6.672 6.672 6.679 6.614 6.612 6.624 6.607 6.627 6.647 6.642 6.674 6.629 6.667 6.637 6.634 6.644 6.619 6.612 6.604 6.629 6.617 6.562 6.624 6.599 6.574 6.577 6.574 6.567 6.559 6.579 6.569 6.604 6.617 6.584 6.599 6.547 6.569 6.557 6.544 6.562 6.579 6.564 6.597 6.539 6.569 6.599 6.542 6.567 6.557 6.544 6.559 6.604 6.554 6.537 6.569 6.559 6.559 6.522 6.532 6.512 6.529 6.507 6.577 6.552 6.512 6.512 6.514 6.504 6.529 6.502 6.564 6.489 6.509 6.509 6.507 6.537 6.517 6.519 6.519 6.489 6.502 6.437 6.432 6.464 6.454 6.477 6.434 6.422 6.429 6.457 6.402 6.429 6.422 6.437 6.424 6.419 6.414 6.459 6.402 6.459 6.424 6.407 6.397 6.392 6.369 6.389 6.424 6.374 6.389 6.387 6.369 6.329 6.361 6.351 6.342 6.339 6.321 6.318 6.306 6.31 6.311 6.305 6.273 6.288 6.266 6.28 6.269 6.289 6.257 6.272 6.254 6.199 6.214 6.237 6.239 6.234 6.267 6.219 6.182 6.184 6.197 6.229 6.229 6.174 6.212 6.179 6.172 6.179 6.172 6.159 6.152 6.147 6.122 6.107 6.134 6.162 6.172 6.137 6.147 6.159 6.152 6.146 6.116 6.146 6.116 6.116 6.094 6.111 6.104 6.091 6.056 6.051 6.039 6.074 6.086 6.086 6.049 6.056 6.051 6.049 6.086 6.069 6.074 6.094 6.056 6.029 6.051 6.031 6.089 6.089 6.104 6.099 6.079 6.079 6.096 6.129 6.116 6.119 6.091 6.064 6.129 6.134 6.136 6.121 6.131 6.156 6.121 6.141 6.166 6.131 6.151 6.159 6.151 6.141 6.161 6.181 6.179 6.186 6.184 6.196 6.216 6.211 6.206 6.201 6.224 6.249 6.239 6.234 6.271 6.266 6.269 6.256 6.299 6.276 6.279 6.299 6.281 6.326 6.329 6.304 6.301 6.314 6.326 6.371 6.359 6.391 6.419 6.404 6.424 6.419 6.451 6.419 6.446 6.471 6.469 6.521 6.504 6.489 6.509 6.566 6.559 6.559 6.574 6.574 6.604 6.594 6.631 6.629 6.669 6.656 6.671 6.676 6.701 6.724 6.751 6.736 6.751 6.771 6.774 6.794 6.796 6.834 6.829 6.869 6.861 6.901 6.931 6.896 6.901 6.886 6.889 6.901 6.931 6.936 6.946 6.949 6.979 6.986 6.964 6.996 6.976 7.021 7.024 7.034 7.031 7.036 7.049 7.081 7.036 7.044 7.076 7.084 7.076 7.076 7.099 7.111 7.124 7.126 7.134 7.116 7.114 7.146 7.141 7.144 7.166 7.214 7.201 7.184 7.076 7.066 7.086 7.069 7.084 7.096 7.099 7.131 7.181 7.209 7.239 7.214 7.221 7.231 7.194 7.189 7.189 7.186 7.206 7.189 7.189 7.186 7.209 7.201 7.236 7.269 7.266 7.281 7.259 7.266 7.264 7.254 7.266 7.269 7.279 7.241 7.246 7.236 7.236 7.256 7.376 7.296 7.309 7.296 7.271 7.244 7.256 7.279 7.311 7.301 7.301 7.311 7.299 7.296 7.331 7.324 7.311 7.314 7.269 7.264 7.254 7.244 7.246 7.276 7.264 7.261 7.276 7.289 7.274 7.296 7.296 7.289 7.294 7.289 7.279 7.279 7.284 7.284 7.274 7.276 7.279 7.246 7.264
6.497 6.522 6.529 6.539 6.507 6.542 6.529 6.537 6.554 6.557 6.519 6.517 6.537 6.524 6.529 6.574 6.549 6.539 6.544 6.527 6.557 6.562 6.572 6.557 6.572 6.612 6.582 6.562 6.584 6.574 6.624 6.564 6.602 6.587 6.584 6.647 6.617 6.597 6.612 6.649 6.629 6.612 6.609 6.607 6.627 6.619 6.637 6.624 6.632 6.619 6.634 6.669 6.612 6.654 6.677 6.649 6.667 6.679 6.667 6.684 6.679 6.682 6.674 6.727 6.657 6.649 6.672 6.682 6.729 6.674 6.657 6.697 6.684 6.677 6.689 6.707 6.702 6.659 6.707 6.687 6.674 6.689 6.689 6.729 6.687 6.709 6.677 6.642 6.667 6.667 6.664 6.667 6.662 6.687 6.709 6.662 6.637 6.677 6.642 6.627 6.619 6.627 6.614 6.604 6.612 6.599 6.592 6.607 6.629 6.637 6.634 6.599 6.617 6.619 6.632 6.592 6.622 6.622 6.647 6.587 6.612 6.602 6.607 6.574 6.592 6.599 6.632 6.574 6.587 6.612 6.579 6.549 6.607 6.574 6.579 6.552 6.607 6.579 6.577 6.574 6.549 6.577 6.549 6.552 6.554 6.567 6.512 6.542 6.514 6.514 6.574 6.534 6.592 6.572 6.562 6.549 6.544 6.519 6.497 6.542 6.549 6.542 6.517 6.527 6.527 6.487 6.504 6.502 6.517 6.484 6.469 6.452 6.504 6.489 6.452 6.462 6.469 6.449 6.444 6.457 6.477 6.419 6.442 6.389 6.394 6.382 6.392 6.417 6.419 6.437 6.397 6.364 6.384 6.393 6.378 6.393 6.4 6.372 6.362 6.343 6.323 6.339 6.316 6.342 6.318 6.292 6.286 6.285 6.296 6.294 6.266 6.28 6.252 6.222 6.257 6.254 6.249 6.282 6.237 6.254 6.252 6.222 6.234 6.212 6.229 6.212 6.184 6.182 6.149 6.219 6.197 6.222 6.204 6.204 6.164 6.152 6.169 6.174 6.199 6.157 6.134 6.174 6.139 6.114 6.126 6.154 6.146 6.124 6.134 6.116 6.106 6.124 6.119 6.101 6.106 6.129 6.149 6.106 6.106 6.089 6.099 6.139 6.116 6.109 6.091 6.086 6.099 6.024 6.079 6.084 6.099 6.106 6.106 6.081 6.101 6.134 6.154 6.131 6.119 6.134 6.131 6.116 6.139 6.159 6.151 6.141 6.166 6.196 6.174 6.136 6.206 6.169 6.179 6.189 6.189 6.221 6.201 6.236 6.221 6.204 6.214 6.231 6.246 6.196 6.246 6.244 6.249 6.271 6.281 6.261 6.284 6.259 6.269 6.294 6.281 6.279 6.299 6.279 6.306 6.331 6.289 6.321 6.324 6.354 6.351 6.331 6.354 6.376 6.351 6.381 6.399 6.411 6.414 6.424 6.436 6.419 6.416 6.456 6.476 6.459 6.464 6.481 6.489 6.541 6.519 6.569 6.574 6.521 6.544 6.589 6.581 6.594 6.611 6.616 6.644 6.634 6.644 6.656 6.676 6.686 6.716 6.729 6.716 6.741 6.736 6.791 6.764 6.801 6.814 6.819 6.824 6.879 6.879 6.901 6.914 6.909 6.906 6.984 6.974 6.964 6.959 6.954 7.006 6.991 7.014 7.036 7.031 7.019 7.056 7.071 7.061 7.081 7.111 7.114 7.096 7.129 7.164 7.159 7.156 7.144 7.176 7.151 7.189 7.151 7.121 7.161 7.189 7.219 7.229 7.226 7.099 7.074 7.091 7.104 7.094 7.129 7.129 7.166 7.199 7.256 7.271 7.276 7.266 7.256 7.256 7.256 7.246 7.259 7.251 7.274 7.266 7.219 7.239 7.254 7.286 7.281 7.314 7.316 7.316 7.294 7.274 7.309 7.231 7.254 7.244 7.264 7.236 7.291 7.274 7.286 7.316 7.336 7.341 7.351 7.311 7.306 7.324 7.339 7.326 7.311 7.326 7.314 7.299 7.291 7.284 7.324 7.306 7.291 7.266 7.249 7.271 7.241 7.241 7.264 7.266 7.286 7.276 7.279 7.301 7.321 7.289 7.311 7.329 7.306 7.301 7.299 7.311 7.304 7.276 7.294 7.274 7.291 7.326
6.527 6.522 6.572 6.577 6.549 6.554 6.584 6.532 6.557 6.589 6.582 6.569 6.574 6.582 6.597 6.572 6.584 6.639 6.612 6.594 6.612 6.604 6.602 6.624 6.607 6.617 6.589 6.562 6.619 6.589 6.604 6.604 6.619 6.632 6.619 6.639 6.599 6.647 6.642 6.634 6.652 6.659 6.647 6.649 6.627 6.644 6.644 6.664 6.669 6.677 6.679 6.707 6.647 6.692 6.724 6.734 6.709 6.727 6.719 6.674 6.664 6.687 6.722 6.729 6.689 6.692 6.697 6.719 6.739 6.719 6.714 6.747 6.687 6.704 6.727 6.714 6.732 6.709 6.709 6.714 6.717 6.759 6.747 6.719 6.704 6.742 6.709 6.702 6.699 6.687 6.707 6.722 6.702 6.662 6.692 6.697 6.702 6.652 6.679 6.682 6.687 6.662 6.677 6.644 6.669 6.674 6.644 6.639 6.649 6.674 6.667 6.649 6.667 6.637 6.657 6.624 6.659 6.652 6.619 6.617 6.624 6.632 6.614 6.614 6.654 6.642 6.649 6.599 6.597 6.614 6.619 6.634 6.619 6.587 6.624 6.602 6.619 6.632 6.632 6.637 6.629 6.594 6.617 6.612 6.619 6.584 6.574 6.579 6.609 6.572 6.592 6.587 6.549 6.567 6.554 6.567 6.547 6.504 6.579 6.554 6.552 6.527 6.532 6.512 6.554 6.549 6.552 6.534 6.569 6.527 6.517 6.517 6.522 6.529 6.484 6.487 6.484 6.512 6.497 6.529 6.514 6.504 6.417 6.487 6.452 6.379 6.439 6.429 6.422 6.434 6.442 6.441 6.434 6.399 6.458 6.428 6.416 6.396 6.364 6.366 6.376 6.382 6.37 6.353 6.327 6.343 6.319 6.301 6.34 6.347 6.32 6.304 6.304 6.289 6.309 6.282 6.312 6.294 6.294 6.267 6.274 6.277 6.272 6.234 6.264 6.229 6.224 6.234 6.254 6.234 6.237 6.232 6.214 6.209 6.194 6.207 6.182 6.194 6.192 6.192 6.192 6.179 6.172 6.146 6.199 6.169 6.169 6.199 6.181 6.146 6.141 6.164 6.174 6.124 6.136 6.136 6.119 6.141 6.149 6.126 6.131 6.149 6.121 6.121 6.146 6.121 6.106 6.104 6.129 6.129 6.154 6.134 6.134 6.124 6.141 6.164 6.139 6.151 6.151 6.131 6.141 6.164 6.139 6.169 6.159 6.171 6.194 6.196 6.199 6.184 6.171 6.174 6.219 6.204 6.221 6.211 6.204 6.214 6.219 6.231 6.239 6.251 6.251 6.279 6.276 6.269 6.236 6.286 6.284 6.296 6.294 6.291 6.309 6.314 6.341 6.321 6.329 6.314 6.349 6.341 6.364 6.356 6.369 6.351 6.389 6.396 6.361 6.401 6.409 6.441 6.381 6.456 6.434 6.434 6.471 6.469 6.481 6.516 6.479 6.501 6.514 6.526 6.546 6.544 6.554 6.556 6.571 6.566 6.591 6.599 6.621 6.616 6.611 6.626 6.651 6.651 6.659 6.684 6.694 6.714 6.731 6.721 6.744 6.774 6.739 6.774 6.756 6.759 6.779 6.809 6.789 6.814 6.849 6.874 6.864 6.856 6.849 6.866 6.901 6.901 6.934 6.966 6.959 6.959 6.964 6.979 7.009 6.989 7.029 6.996 6.999 7.036 7.044 7.046 7.039 7.069 7.054 7.084 7.041 7.084 7.071 7.046 7.064 7.101 7.094 7.106 7.101 7.134 7.156 7.179 7.139 7.089 7.109 7.134 7.136 7.129 7.164 7.121 7.171 7.169 7.171 7.179 7.184 7.211 7.241 7.276 7.256 7.244 7.264 7.291 7.284 7.241 7.246 7.276 7.289 7.314 7.301 7.314 7.324 7.324 7.301 7.276 7.316 7.304 7.299 7.301 7.271 7.324 7.319 7.329 7.319 7.336 7.359 7.364 7.344 7.326 7.321 7.296 7.311 7.346 7.339 7.319 7.316 7.331 7.306 7.276 7.346 7.319 7.289 7.299 7.296 7.304 7.316 7.326 7.331 7.316 7.329 7.331 7.361 7.321 7.354 7.356 7.354 7.336 7.336 7.364 7.359 7.341 7.351 7.354 7.341 7.346 7.344
6.604 6.594 6.574 6.572 6.567 6.572 6.562 6.599 6.594 6.572 6.597 6.594 6.614 6.604 6.592 6.607 6.609 6.632 6.629 6.632 6.604 6.639 6.649 6.637 6.647 6.619 6.647 6.632 6.624 6.657 6.637 6.634 6.667 6.649 6.652 6.654 6.669 6.647 6.657 6.692 6.677 6.679 6.682 6.639 6.672 6.687 6.667 6.634 6.679 6.692 6.724 6.709 6.709 6.737 6.719 6.719 6.722 6.722 6.752 6.727 6.757 6.762 6.747 6.727 6.729 6.749 6.727 6.764 6.757 6.779 6.772 6.754 6.772 6.742 6.744 6.737 6.737 6.759 6.759 6.739 6.782 6.804 6.782 6.762 6.714 6.717 6.712 6.732 6.722 6.744 6.749 6.729 6.724 6.719 6.692 6.704 6.717 6.719 6.734 6.692 6.692 6.689 6.624 6.697 6.679 6.682 6.644 6.667 6.704 6.679 6.672 6.687 6.727 6.647 6.654 6.674 6.669 6.694 6.679 6.687 6.642 6.637 6.652 6.634 6.634 6.644 6.677 6.634 6.639 6.652 6.659 6.639 6.617 6.659 6.649 6.617 6.664 6.659 6.669 6.627 6.624 6.624 6.624 6.644 6.647 6.609 6.592 6.632 6.644 6.602 6.652 6.632 6.642 6.604 6.624 6.637 6.582 6.602 6.597 6.567 6.589 6.584 6.577 6.579 6.594 6.582 6.572 6.569 6.542 6.557 6.532 6.597 6.544 6.519 6.529 6.522 6.512 6.537 6.517 6.509 6.497 6.499 6.474 6.489 6.504 6.514 6.507 6.459 6.462 6.467 6.471 6.469 6.459 6.428 6.442 6.428 6.446 6.425 6.403 6.409 6.39 6.388 6.398 6.368 6.386 6.39 6.371 6.401 6.378 6.353 6.349 6.332 6.334 6.309 6.289 6.287 6.327 6.297 6.314 6.314 6.302 6.297 6.299 6.317 6.307 6.269 6.259 6.277 6.252 6.237 6.299 6.242 6.249 6.224 6.197 6.229 6.204 6.189 6.224 6.239 6.214 6.197 6.204 6.214 6.194 6.176 6.181 6.171 6.179 6.199 6.194 6.199 6.169 6.186 6.161 6.161 6.154 6.179 6.134 6.141 6.149 6.144 6.144 6.141 6.149 6.164 6.196 6.161 6.151 6.149 6.154 6.171 6.169 6.181 6.144 6.159 6.171 6.179 6.186 6.201 6.194 6.161 6.181 6.214 6.226 6.196 6.214 6.214 6.231 6.236 6.239 6.216 6.226 6.241 6.256 6.279 6.241 6.236 6.251 6.286 6.271 6.271 6.274 6.279 6.291 6.284 6.284 6.304 6.316 6.326 6.311 6.326 6.326 6.331 6.339 6.351 6.374 6.389 6.369 6.364 6.404 6.371 6.381 6.389 6.396 6.439 6.411 6.436 6.436 6.436 6.449 6.474 6.479 6.521 6.491 6.501 6.506 6.516 6.549 6.534 6.536 6.546 6.571 6.586 6.574 6.584 6.599 6.611 6.614 6.626 6.624 6.666 6.676 6.679 6.696 6.704 6.686 6.724 6.719 6.696 6.709 6.764 6.774 6.779 6.799 6.801 6.811 6.849 6.831 6.826 6.831 6.849 6.879 6.884 6.899 6.919 6.906 6.914 6.921 6.936 6.951 6.979 6.976 6.969 7.019 7.006 6.991 7.006 7.011 7.021 7.049 7.031 7.031 7.074 7.076 7.079 7.061 7.091 7.084 7.051 7.084 7.101 7.084 7.119 7.124 7.136 7.124 7.134 7.101 7.134 7.141 7.131 7.124 7.111 7.154 7.116 7.169 7.149 7.136 7.154 7.146 7.146 7.186 7.189 7.199 7.199 7.189 7.189 7.204 7.199 7.186 7.181 7.164 7.194 7.194 7.191 7.191 7.219 7.221 7.246 7.216 7.204 7.221 7.214 7.214 7.241 7.239 7.259 7.266 7.244 7.261 7.256 7.274 7.291 7.269 7.274 7.244 7.249 7.241 7.244 7.281 7.316 7.311 7.286 7.299 7.324 7.336 7.326 7.344 7.344 7.326 7.319 7.336 7.341 7.354 7.371 7.361 7.341 7.364 7.371 7.371 7.379 7.406 7.411 7.419 7.396 7.431 7.396 7.396 7.369 7.389 7.404 7.391
6.527 6.522 6.554 6.554 6.552 6.562 6.557 6.554 6.542 6.552 6.592 6.599 6.549 6.592 6.564 6.587 6.584 6.614 6.612 6.649 6.607 6.632 6.637 6.642 6.632 6.622 6.652 6.647 6.649 6.647 6.622 6.642 6.647 6.667 6.674 6.677 6.694 6.659 6.694 6.699 6.699 6.712 6.692 6.694 6.717 6.724 6.729 6.699 6.727 6.749 6.719 6.744 6.742 6.744 6.744 6.747 6.737 6.717 6.754 6.754 6.734 6.754 6.769 6.774 6.747 6.782 6.774 6.772 6.787 6.777 6.782 6.779 6.784 6.784 6.762 6.792 6.779 6.809 6.814 6.787 6.792 6.779 6.779 6.779 6.779 6.777 6.777 6.787 6.782 6.779 6.754 6.757 6.742 6.729 6.734 6.752 6.704 6.759 6.759 6.757 6.724 6.694 6.707 6.749 6.729 6.717 6.717 6.694 6.739 6.674 6.709 6.737 6.729 6.697 6.677 6.704 6.689 6.719 6.677 6.692 6.677 6.722 6.684 6.709 6.697 6.684 6.682 6.662 6.689 6.692 6.692 6.659 6.639 6.689 6.672 6.684 6.682 6.674 6.659 6.682 6.677 6.699 6.639 6.687 6.682 6.654 6.654 6.637 6.624 6.617 6.644 6.622 6.652 6.654 6.647 6.622 6.614 6.639 6.642 6.609 6.629 6.617 6.609 6.672 6.619 6.619 6.599 6.589 6.574 6.562 6.609 6.569 6.572 6.634 6.589 6.544 6.534 6.569 6.552 6.552 6.537 6.522 6.507 6.542 6.542 6.514 6.517 6.539 6.524 6.496 6.493 6.497 6.483 6.472 6.46 6.455 6.45 6.468 6.462 6.419 6.448 6.439 6.416 6.407 6.421 6.402 6.357 6.385 6.406 6.367 6.344 6.347 6.319 6.342 6.314 6.324 6.329 6.359 6.357 6.367 6.309 6.342 6.347 6.319 6.314 6.294 6.332 6.269 6.269 6.322 6.289 6.299 6.287 6.262 6.267 6.242 6.264 6.297 6.297 6.257 6.237 6.224 6.234 6.244 6.236 6.239 6.244 6.224 6.211 6.206 6.219 6.194 6.211 6.201 6.159 6.181 6.194 6.206 6.171 6.174 6.189 6.191 6.209 6.186 6.209 6.196 6.206 6.176 6.184 6.141 6.149 6.179 6.199 6.159 6.209 6.204 6.206 6.191 6.206 6.219 6.209 6.209 6.226 6.216 6.221 6.239 6.239 6.249 6.249 6.229 6.241 6.231 6.271 6.246 6.271 6.254 6.244 6.251 6.306 6.306 6.291 6.281 6.289 6.294 6.331 6.324 6.334 6.346 6.344 6.349 6.341 6.376 6.344 6.349 6.364 6.376 6.389 6.356 6.384 6.354 6.406 6.424 6.434 6.431 6.426 6.424 6.436 6.474 6.474 6.494 6.479 6.496 6.489 6.509 6.506 6.516 6.509 6.544 6.559 6.566 6.574 6.566 6.581 6.591 6.594 6.621 6.661 6.621 6.644 6.666 6.646 6.656 6.661 6.724 6.686 6.734 6.726 6.741 6.729 6.756 6.771 6.779 6.779 6.821 6.819 6.836 6.841 6.849 6.876 6.869 6.886 6.909 6.916 6.914 6.929 6.939 6.936 6.971 6.956 6.989 7.011 6.994 6.996 7.021 7.026 7.004 7.009 7.056 7.054 7.111 7.079 7.084 7.106 7.106 7.091 7.116 7.121 7.134 7.106 7.089 7.131 7.086 7.159 7.121 7.134 7.146 7.146 7.139 7.144 7.146 7.164 7.171 7.181 7.184 7.169 7.174 7.186 7.201 7.171 7.204 7.189 7.211 7.229 7.219 7.176 7.186 7.204 7.211 7.221 7.186 7.196 7.204 7.216 7.246 7.201 7.199 7.196 7.201 7.244 7.209 7.211 7.209 7.214 7.229 7.199 7.231 7.249 7.244 7.209 7.231 7.221 7.236 7.234 7.221 7.229 7.234 7.234 7.231 7.239 7.216 7.241 7.241 7.274 7.246 7.236 7.254 7.261 7.246 7.256 7.276 7.269 7.269 7.271 7.289 7.286 7.254 7.321 7.294 7.291 7.294 7.301 7.299 7.304 7.289 7.299 7.306 7.344 7.329 7.351 7.331 7.336 7.359 7.366
6.507 6.494 6.522 6.502 6.499 6.519 6.514 6.547 6.517 6.507 6.517 6.574 6.564 6.524 6.542 6.584 6.567 6.574 6.597 6.602 6.602 6.622 6.612 6.617 6.597 6.589 6.612 6.617 6.612 6.652 6.602 6.632 6.612 6.617 6.657 6.652 6.622 6.639 6.664 6.692 6.689 6.649 6.657 6.684 6.694 6.679 6.672 6.657 6.714 6.694 6.727 6.727 6.702 6.709 6.722 6.702 6.737 6.742 6.724 6.742 6.717 6.727 6.744 6.757 6.777 6.797 6.779 6.774 6.779 6.777 6.799 6.767 6.784 6.767 6.792 6.822 6.782 6.772 6.794 6.804 6.782 6.794 6.772 6.794 6.814 6.804 6.794 6.794 6.807 6.797 6.784 6.784 6.789 6.789 6.782 6.789 6.787 6.772 6.749 6.787 6.734 6.762 6.734 6.769 6.734 6.734 6.769 6.789 6.747 6.742 6.749 6.749 6.724 6.707 6.687 6.739 6.744 6.714 6.724 6.729 6.752 6.754 6.704 6.712 6.709 6.734 6.704 6.724 6.707 6.697 6.719 6.749 6.729 6.717 6.717 6.724 6.697 6.717 6.722 6.712 6.702 6.669 6.699 6.699 6.672 6.714 6.689 6.699 6.714 6.692 6.709 6.674 6.649 6.639 6.694 6.682 6.689 6.649 6.667 6.622 6.652 6.682 6.657 6.639 6.619 6.649 6.627 6.614 6.614 6.632 6.604 6.607 6.619 6.629 6.592 6.582 6.582 6.584 6.564 6.579 6.562 6.549 6.557 6.567 6.569 6.574 6.537 6.529 6.541 6.54 6.51 6.552 6.51 6.505 6.503 6.501 6.492 6.508 6.485 6.454 6.463 6.423 6.449 6.44 6.444 6.446 6.4 6.402 6.394 6.422 6.397 6.407 6.424 6.384 6.379 6.382 6.372 6.369 6.384 6.344 6.384 6.362 6.354 6.339 6.342 6.329 6.352 6.324 6.319 6.317 6.319 6.324 6.349 6.324 6.334 6.307 6.294 6.317 6.289 6.314 6.269 6.289 6.247 6.229 6.261 6.244 6.269 6.261 6.259 6.279 6.251 6.241 6.246 6.226 6.206 6.206 6.206 6.214 6.221 6.194 6.219 6.219 6.219 6.214 6.229 6.194 6.189 6.204 6.211 6.211 6.184 6.216 6.229 6.224 6.246 6.239 6.211 6.244 6.241 6.244 6.244 6.214 6.236 6.234 6.256 6.284 6.251 6.256 6.251 6.256 6.246 6.284 6.284 6.264 6.301 6.289 6.294 6.306 6.309 6.314 6.359 6.341 6.346 6.364 6.329 6.349 6.366 6.384 6.366 6.384 6.389 6.394 6.389 6.371 6.394 6.444 6.411 6.421 6.429 6.444 6.439 6.459 6.451 6.486 6.484 6.481 6.506 6.484 6.481 6.476 6.484 6.529 6.536 6.546 6.551 6.536 6.566 6.571 6.599 6.606 6.589 6.604 6.639 6.614 6.619 6.626 6.614 6.661 6.641 6.669 6.719 6.691 6.691 6.729 6.749 6.759 6.759 6.766 6.771 6.794 6.786 6.821 6.819 6.821 6.839 6.891 6.909 6.901 6.914 6.901 6.894 6.929 6.909 6.919 6.964 6.991 6.969 6.991 7.014 6.984 6.991 7.014 7.009 7.056 7.061 7.069 7.054 7.064 7.079 7.071 7.126 7.106 7.121 7.126 7.146 7.126 7.161 7.144 7.124 7.131 7.149 7.141 7.156 7.166 7.164 7.164 7.149 7.154 7.179 7.214 7.191 7.174 7.196 7.226 7.216 7.201 7.204 7.229 7.246 7.216 7.209 7.226 7.189 7.224 7.236 7.229 7.219 7.249 7.244 7.266 7.259 7.241 7.254 7.241 7.209 7.244 7.254 7.251 7.259 7.254 7.271 7.261 7.251 7.244 7.244 7.246 7.214 7.251 7.249 7.254 7.251 7.229 7.216 7.269 7.271 7.234 7.241 7.264 7.239 7.284 7.261 7.269 7.281 7.284 7.299 7.281 7.281 7.266 7.296 7.261 7.269 7.306 7.286 7.286 7.266 7.244 7.249 7.281 7.269 7.286 7.264 7.281 7.269 7.319 7.276 7.271 7.279 7.284 7.306 7.291 7.286 7.251 7.274
6.459 6.457 6.474 6.479 6.474 6.499 6.489 6.482 6.464 6.507 6.514 6.497 6.517 6.492 6.519 6.547 6.557 6.557 6.567 6.577 6.552 6.584 6.547 6.557 6.587 6.524 6.567 6.567 6.554 6.607 6.559 6.599 6.589 6.574 6.614 6.647 6.597 6.617 6.597 6.622 6.624 6.644 6.619 6.632 6.634 6.669 6.647 6.672 6.664 6.669 6.664 6.687 6.692 6.657 6.694 6.727 6.712 6.717 6.712 6.712 6.704 6.702 6.722 6.722 6.729 6.759 6.769 6.782 6.742 6.744 6.757 6.774 6.772 6.769 6.787 6.759 6.777 6.762 6.762 6.787 6.759 6.807 6.772 6.747 6.792 6.747 6.784 6.762 6.774 6.789 6.779 6.769 6.752 6.762 6.769 6.767 6.754 6.774 6.737 6.757 6.772 6.767 6.742 6.749 6.727 6.759 6.752 6.759 6.762 6.757 6.742 6.744 6.734 6.739 6.732 6.757 6.749 6.724 6.737 6.747 6.769 6.769 6.737 6.759 6.732 6.747 6.759 6.722 6.749 6.737 6.732 6.724 6.712 6.744 6.742 6.747 6.714 6.719 6.742 6.724 6.702 6.729 6.719 6.719 6.739 6.692 6.707 6.724 6.734 6.709 6.719 6.712 6.694 6.712 6.709 6.724 6.682 6.712 6.669 6.687 6.687 6.654 6.659 6.684 6.614 6.637 6.649 6.612 6.667 6.649 6.664 6.657 6.644 6.614 6.612 6.624 6.627 6.602 6.627 6.612 6.569 6.554 6.559 6.572 6.614 6.564 6.557 6.562 6.57 6.517 6.574 6.543 6.552 6.535 6.539 6.536 6.508 6.502 6.47 6.471 6.486 6.483 6.5 6.476 6.456 6.453 6.433 6.429 6.417 6.459 6.439 6.422 6.424 6.417 6.387 6.419 6.427 6.419 6.439 6.404 6.407 6.364 6.387 6.374 6.384 6.367 6.362 6.374 6.337 6.369 6.349 6.359 6.367 6.369 6.347 6.349 6.314 6.322 6.329 6.329 6.337 6.297 6.297 6.264 6.296 6.299 6.309 6.309 6.296 6.301 6.286 6.286 6.274 6.276 6.276 6.261 6.249 6.236 6.236 6.204 6.234 6.246 6.264 6.244 6.239 6.229 6.251 6.246 6.274 6.286 6.269 6.244 6.251 6.276 6.226 6.251 6.289 6.281 6.246 6.254 6.284 6.264 6.301 6.311 6.296 6.296 6.286 6.309 6.309 6.276 6.306 6.344 6.329 6.316 6.301 6.329 6.344 6.329 6.364 6.346 6.381 6.359 6.366 6.376 6.341 6.359 6.381 6.381 6.416 6.409 6.401 6.419 6.424 6.399 6.444 6.429 6.456 6.469 6.464 6.469 6.474 6.491 6.484 6.499 6.476 6.489 6.521 6.494 6.491 6.546 6.539 6.549 6.584 6.564 6.564 6.611 6.594 6.619 6.609 6.616 6.629 6.609 6.624 6.659 6.659 6.704 6.681 6.674 6.724 6.741 6.736 6.761 6.761 6.789 6.779 6.779 6.804 6.809 6.784 6.801 6.829 6.846 6.851 6.861 6.861 6.899 6.894 6.916 6.889 6.919 6.969 6.971 6.954 6.974 6.964 6.996 7.014 7.011 7.009 7.001 7.029 7.051 7.066 7.059 7.051 7.081 7.059 7.064 7.106 7.116 7.151 7.121 7.126 7.156 7.166 7.161 7.169 7.174 7.176 7.186 7.196 7.181 7.186 7.186 7.236 7.214 7.204 7.214 7.214 7.204 7.234 7.224 7.219 7.216 7.201 7.234 7.216 7.199 7.256 7.264 7.239 7.261 7.269 7.251 7.274 7.269 7.249 7.256 7.274 7.294 7.276 7.259 7.239 7.279 7.279 7.296 7.281 7.296 7.249 7.289 7.279 7.289 7.289 7.276 7.264 7.266 7.269 7.266 7.259 7.279 7.289 7.274 7.261 7.309 7.294 7.294 7.291 7.254 7.301 7.309 7.286 7.311 7.306 7.326 7.321 7.296 7.286 7.261 7.284 7.311 7.314 7.281 7.296 7.321 7.296 7.311 7.311 7.291 7.331 7.304 7.309 7.314 7.316 7.274 7.284 7.306 7.326 7.324 7.304 7.311 7.304 7.311 7.316
6.432 6.442 6.482 6.499 6.482 6.472 6.477 6.479 6.467 6.482 6.494 6.479 6.522 6.492 6.502 6.512 6.502 6.532 6.577 6.529 6.519 6.532 6.519 6.542 6.542 6.559 6.567 6.614 6.539 6.597 6.584 6.554 6.569 6.564 6.582 6.584 6.599 6.602 6.629 6.607 6.664 6.602 6.632 6.624 6.604 6.627 6.632 6.657 6.669 6.632 6.617 6.634 6.662 6.664 6.697 6.664 6.649 6.697 6.679 6.679 6.689 6.682 6.699 6.672 6.677 6.682 6.729 6.727 6.754 6.714 6.709 6.704 6.759 6.734 6.724 6.762 6.714 6.729 6.712 6.739 6.724 6.757 6.729 6.754 6.792 6.717 6.779 6.729 6.754 6.729 6.747 6.752 6.757 6.762 6.742 6.759 6.739 6.727 6.722 6.727 6.707 6.727 6.737 6.699 6.714 6.704 6.702 6.714 6.724 6.707 6.747 6.687 6.714 6.747 6.717 6.682 6.692 6.679 6.727 6.687 6.724 6.707 6.742 6.697 6.734 6.722 6.704 6.734 6.742 6.677 6.709 6.699 6.689 6.699 6.704 6.679 6.724 6.707 6.714 6.714 6.717 6.732 6.724 6.729 6.699 6.674 6.739 6.722 6.717 6.727 6.699 6.699 6.694 6.682 6.679 6.667 6.677 6.677 6.722 6.682 6.712 6.687 6.687 6.672 6.659 6.672 6.652 6.669 6.667 6.682 6.699 6.657 6.617 6.649 6.657 6.639 6.632 6.619 6.609 6.632 6.614 6.617 6.637 6.582 6.604 6.584 6.586 6.61 6.594 6.593 6.59 6.567 6.55 6.579 6.554 6.559 6.559 6.563 6.528 6.499 6.506 6.521 6.502 6.517 6.493 6.494 6.487 6.469 6.474 6.452 6.464 6.479 6.464 6.432 6.399 6.429 6.444 6.429 6.412 6.439 6.467 6.409 6.439 6.424 6.399 6.409 6.382 6.407 6.337 6.377 6.397 6.417 6.407 6.372 6.394 6.352 6.352 6.349 6.359 6.387 6.339 6.342 6.339 6.334 6.314 6.334 6.324 6.339 6.329 6.321 6.324 6.294 6.309 6.251 6.279 6.299 6.286 6.304 6.281 6.284 6.294 6.284 6.276 6.271 6.301 6.289 6.299 6.309 6.289 6.236 6.284 6.269 6.294 6.304 6.276 6.281 6.304 6.286 6.301 6.309 6.294 6.286 6.301 6.316 6.301 6.321 6.311 6.299 6.344 6.334 6.341 6.331 6.336 6.351 6.364 6.401 6.384 6.391 6.361 6.389 6.381 6.384 6.371 6.404 6.366 6.429 6.436 6.424 6.446 6.444 6.434 6.429 6.474 6.466 6.494 6.474 6.494 6.464 6.471 6.466 6.491 6.534 6.491 6.529 6.521 6.514 6.541 6.534 6.524 6.566 6.579 6.591 6.579 6.596 6.576 6.589 6.619 6.626 6.644 6.659 6.674 6.674 6.674 6.689 6.691 6.681 6.684 6.734 6.754 6.746 6.731 6.759 6.786 6.791 6.824 6.811 6.849 6.829 6.851 6.844 6.874 6.874 6.871 6.891 6.894 6.919 6.916 6.946 6.951 6.984 6.974 6.991 6.994 6.981 6.996 7.021 7.026 7.049 7.061 7.026 7.076 7.109 7.074 7.064 7.081 7.099 7.126 7.116 7.124 7.151 7.139 7.159 7.159 7.161 7.176 7.221 7.216 7.201 7.209 7.206 7.234 7.214 7.219 7.221 7.186 7.241 7.241 7.249 7.219 7.254 7.244 7.231 7.226 7.269 7.249 7.254 7.276 7.234 7.274 7.259 7.299 7.251 7.271 7.286 7.294 7.279 7.279 7.321 7.304 7.294 7.269 7.314 7.301 7.299 7.326 7.301 7.316 7.284 7.299 7.301 7.286 7.299 7.299 7.301 7.316 7.311 7.304 7.339 7.291 7.301 7.306 7.301 7.314 7.301 7.331 7.309 7.319 7.291 7.309 7.299 7.309 7.336 7.346 7.346 7.311 7.331 7.331 7.344 7.359 7.329 7.329 7.329 7.349 7.346 7.301 7.316 7.329 7.349 7.354 7.334 7.349 7.339 7.329 7.354 7.334 7.346 7.329 7.351 7.324 7.366 7.349 7.341 7.331
6.372 6.389 6.459 6.457 6.467 6.449 6.459 6.447 6.442 6.474 6.409 6.472 6.484 6.499 6.484 6.479 6.479 6.489 6.449 6.512 6.497 6.499 6.524 6.509 6.507 6.494 6.507 6.497 6.564 6.534 6.564 6.527 6.532 6.537 6.579 6.567 6.582 6.574 6.564 6.609 6.607 6.582 6.609 6.542 6.582 6.627 6.627 6.639 6.639 6.607 6.637 6.652 6.654 6.657 6.642 6.647 6.617 6.662 6.662 6.652 6.689 6.667 6.709 6.677 6.692 6.674 6.659 6.707 6.677 6.694 6.682 6.727 6.729 6.694 6.732 6.679 6.659 6.717 6.719 6.719 6.734 6.724 6.732 6.694 6.709 6.739 6.727 6.694 6.724 6.709 6.692 6.719 6.717 6.732 6.689 6.707 6.707 6.674 6.694 6.677 6.694 6.672 6.687 6.692 6.689 6.692 6.694 6.672 6.682 6.659 6.679 6.642 6.664 6.689 6.704 6.669 6.649 6.664 6.687 6.652 6.687 6.644 6.664 6.674 6.687 6.697 6.697 6.667 6.692 6.707 6.659 6.697 6.697 6.692 6.679 6.674 6.677 6.692 6.669 6.684 6.679 6.707 6.684 6.632 6.687 6.652 6.694 6.682 6.724 6.669 6.677 6.662 6.647 6.642 6.652 6.644 6.627 6.652 6.632 6.649 6.657 6.649 6.629 6.644 6.672 6.614 6.634 6.664 6.619 6.664 6.644 6.639 6.617 6.647 6.627 6.624 6.604 6.612 6.594 6.589 6.614 6.589 6.607 6.604 6.594 6.576 6.601 6.614 6.595 6.597 6.604 6.579 6.554 6.579 6.561 6.569 6.555 6.563 6.534 6.54 6.546 6.537 6.522 6.539 6.516 6.539 6.524 6.499 6.524 6.482 6.469 6.494 6.444 6.464 6.399 6.459 6.474 6.474 6.462 6.452 6.434 6.439 6.472 6.447 6.452 6.459 6.427 6.434 6.404 6.397 6.399 6.404 6.414 6.389 6.424 6.372 6.379 6.402 6.399 6.404 6.389 6.394 6.367 6.364 6.359 6.341 6.341 6.349 6.316 6.339 6.314 6.339 6.329 6.316 6.324 6.306 6.316 6.319 6.306 6.279 6.311 6.336 6.324 6.321 6.289 6.294 6.254 6.314 6.289 6.301 6.344 6.331 6.309 6.339 6.341 6.329 6.354 6.319 6.334 6.366 6.326 6.334 6.351 6.324 6.359 6.361 6.331 6.386 6.369 6.376 6.384 6.371 6.356 6.404 6.396 6.396 6.401 6.419 6.426 6.431 6.399 6.399 6.431 6.439 6.449 6.454 6.476 6.424 6.461 6.466 6.469 6.484 6.479 6.504 6.469 6.511 6.504 6.519 6.504 6.551 6.541 6.509 6.559 6.541 6.541 6.541 6.566 6.596 6.586 6.594 6.594 6.619 6.619 6.626 6.599 6.631 6.641 6.646 6.669 6.669 6.691 6.706 6.694 6.736 6.726 6.726 6.719 6.729 6.769 6.761 6.734 6.776 6.814 6.816 6.824 6.834 6.876 6.884 6.866 6.909 6.901 6.919 6.924 6.939 6.939 6.964 6.956 6.931 6.956 6.979 6.996 7.009 7.014 7.034 7.019 7.046 7.046 7.046 7.081 7.084 7.096 7.109 7.094 7.114 7.166 7.134 7.164 7.156 7.146 7.159 7.179 7.151 7.186 7.206 7.211 7.216 7.254 7.236 7.221 7.231 7.244 7.244 7.254 7.236 7.239 7.241 7.259 7.264 7.264 7.259 7.309 7.296 7.284 7.284 7.296 7.304 7.299 7.299 7.296 7.319 7.294 7.336 7.319 7.331 7.291 7.309 7.301 7.316 7.299 7.296 7.324 7.324 7.304 7.319 7.321 7.336 7.354 7.341 7.331 7.324 7.341 7.329 7.329 7.326 7.309 7.319 7.331 7.331 7.346 7.336 7.314 7.324 7.291 7.309 7.321 7.344 7.324 7.336 7.329 7.316 7.344 7.361 7.331 7.361 7.379 7.359 7.339 7.369 7.349 7.349 7.351 7.369 7.341 7.326 7.356 7.369 7.361 7.354 7.324 7.334 7.334 7.391 7.371 7.374 7.359 7.341 7.361 7.381 7.361 7.364 7.366 7.389 7.379
6.412 6.409 6.419 6.392 6.409 6.407 6.412 6.444 6.414 6.479 6.447 6.397 6.434 6.407 6.452 6.464 6.469 6.469 6.439 6.477 6.492 6.469 6.482 6.467 6.469 6.487 6.494 6.529 6.494 6.467 6.527 6.512 6.502 6.504 6.512 6.539 6.512 6.529 6.517 6.537 6.534 6.522 6.537 6.529 6.564 6.564 6.572 6.562 6.592 6.577 6.604 6.592 6.562 6.604 6.589 6.627 6.597 6.587 6.639 6.617 6.644 6.672 6.654 6.654 6.629 6.652 6.637 6.629 6.637 6.649 6.659 6.644 6.662 6.659 6.669 6.652 6.652 6.682 6.672 6.664 6.657 6.659 6.664 6.684 6.684 6.657 6.669 6.669 6.702 6.682 6.659 6.672 6.657 6.672 6.667 6.669 6.667 6.667 6.697 6.694 6.667 6.659 6.649 6.604 6.647 6.682 6.664 6.647 6.714 6.619 6.619 6.657 6.617 6.637 6.647 6.662 6.617 6.659 6.649 6.672 6.689 6.647 6.659 6.629 6.619 6.629 6.634 6.647 6.624 6.639 6.649 6.637 6.654 6.639 6.647 6.647 6.639 6.652 6.672 6.657 6.669 6.659 6.659 6.649 6.629 6.669 6.654 6.669 6.637 6.609 6.642 6.642 6.637 6.627 6.642 6.649 6.629 6.619 6.574 6.589 6.604 6.642 6.627 6.639 6.622 6.649 6.617 6.622 6.584 6.622 6.574 6.602 6.619 6.587 6.569 6.592 6.579 6.609 6.584 6.564 6.562 6.572 6.592 6.587 6.583 6.525 6.586 6.573 6.582 6.56 6.539 6.538 6.536 6.531 6.53 6.515 6.513 6.516 6.522 6.503 6.516 6.5 6.483 6.501 6.477 6.492 6.494 6.479 6.487 6.459 6.427 6.469 6.454 6.477 6.464 6.472 6.454 6.474 6.452 6.462 6.417 6.424 6.424 6.444 6.442 6.422 6.409 6.437 6.429 6.429 6.437 6.432 6.412 6.429 6.402 6.439 6.399 6.414 6.394 6.409 6.387 6.349 6.359 6.359 6.354 6.359 6.374 6.379 6.354 6.374 6.354 6.379 6.384 6.341 6.331 6.379 6.371 6.319 6.289 6.306 6.304 6.346 6.316 6.349 6.351 6.306 6.309 6.359 6.354 6.349 6.356 6.366 6.326 6.331 6.359 6.374 6.361 6.359 6.349 6.364 6.376 6.374 6.396 6.371 6.371 6.354 6.399 6.389 6.379 6.421 6.401 6.406 6.401 6.409 6.434 6.451 6.416 6.441 6.434 6.461 6.434 6.454 6.461 6.489 6.489 6.464 6.446 6.466 6.486 6.479 6.491 6.519 6.534 6.524 6.506 6.544 6.514 6.554 6.546 6.571 6.569 6.584 6.584 6.531 6.586 6.594 6.601 6.589 6.599 6.641 6.639 6.664 6.659 6.689 6.661 6.679 6.666 6.704 6.691 6.726 6.724 6.744 6.731 6.751 6.756 6.771 6.759 6.789 6.804 6.811 6.794 6.816 6.824 6.866 6.864 6.881 6.889 6.896 6.916 6.934 6.914 6.916 6.924 6.934 6.954 7.009 6.976 7.006 7.029 7.019 7.076 7.026 7.081 7.039 7.101 7.086 7.071 7.121 7.119 7.089 7.101 7.131 7.156 7.161 7.151 7.181 7.181 7.174 7.169 7.194 7.219 7.214 7.246 7.256 7.246 7.249 7.286 7.281 7.271 7.269 7.269 7.289 7.284 7.261 7.271 7.299 7.281 7.289 7.296 7.309 7.314 7.331 7.349 7.351 7.354 7.346 7.331 7.331 7.326 7.316 7.331 7.331 7.316 7.321 7.351 7.369 7.326 7.324 7.339 7.344 7.346 7.369 7.339 7.344 7.344 7.359 7.374 7.369 7.366 7.364 7.339 7.366 7.356 7.361 7.351 7.369 7.374 7.371 7.349 7.351 7.361 7.329 7.349 7.371 7.396 7.369 7.356 7.386 7.366 7.349 7.379 7.389 7.399 7.374 7.376 7.386 7.349 7.364 7.351 7.374 7.356 7.394 7.399 7.356 7.369 7.386 7.394 7.376 7.354 7.379 7.389 7.371 7.396 7.426 7.401 7.419 7.404 7.401 7.386 7.391 7.399 7.409 7.406
6.372 6.359 6.392 6.387 6.389 6.367 6.367 6.414 6.402 6.409 6.389 6.397 6.414 6.409 6.437 6.379 6.402 6.424 6.457 6.429 6.474 6.422 6.424 6.452 6.449 6.469 6.469 6.442 6.432 6.472 6.492 6.464 6.494 6.487 6.489 6.492 6.492 6.482 6.512 6.487 6.507 6.519 6.499 6.512 6.487 6.547 6.502 6.524 6.527 6.547 6.569 6.544 6.562 6.549 6.569 6.552 6.559 6.592 6.589 6.587 6.582 6.602 6.632 6.579 6.602 6.564 6.602 6.642 6.599 6.634 6.644 6.629 6.619 6.644 6.669 6.642 6.622 6.659 6.639 6.642 6.632 6.654 6.632 6.669 6.672 6.647 6.642 6.677 6.639 6.642 6.659 6.659 6.629 6.672 6.617 6.632 6.637 6.647 6.662 6.627 6.612 6.622 6.647 6.624 6.657 6.637 6.644 6.652 6.634 6.617 6.627 6.637 6.634 6.624 6.639 6.622 6.612 6.639 6.662 6.632 6.624 6.667 6.634 6.627 6.669 6.617 6.597 6.604 6.607 6.637 6.629 6.602 6.609 6.614 6.627 6.614 6.649 6.657 6.629 6.624 6.629 6.639 6.637 6.619 6.617 6.617 6.659 6.629 6.619 6.612 6.617 6.612 6.619 6.609 6.642 6.597 6.594 6.604 6.619 6.587 6.649 6.592 6.572 6.567 6.592 6.599 6.609 6.592 6.582 6.584 6.594 6.559 6.564 6.572 6.564 6.574 6.569 6.517 6.552 6.542 6.534 6.562 6.534 6.517 6.53 6.531 6.528 6.517 6.484 6.53 6.521 6.506 6.499 6.499 6.496 6.501 6.471 6.483 6.488 6.475 6.442 6.47 6.456 6.467 6.452 6.424 6.462 6.459 6.429 6.467 6.424 6.434 6.409 6.427 6.432 6.409 6.414 6.422 6.402 6.399 6.387 6.402 6.399 6.382 6.384 6.387 6.402 6.384 6.397 6.399 6.412 6.407 6.399 6.347 6.364 6.344 6.359 6.354 6.362 6.379 6.327 6.342 6.329 6.361 6.339 6.324 6.369 6.344 6.339 6.346 6.319 6.351 6.336 6.314 6.321 6.324 6.331 6.301 6.316 6.336 6.309 6.319 6.299 6.336 6.364 6.311 6.341 6.349 6.349 6.376 6.341 6.331 6.364 6.324 6.366 6.354 6.389 6.389 6.369 6.419 6.396 6.396 6.374 6.394 6.394 6.411 6.419 6.419 6.436 6.449 6.434 6.446 6.426 6.429 6.436 6.451 6.461 6.454 6.474 6.454 6.471 6.499 6.461 6.464 6.484 6.474 6.511 6.466 6.536 6.549 6.541 6.546 6.541 6.556 6.566 6.541 6.569 6.541 6.594 6.584 6.574 6.609 6.596 6.596 6.639 6.609 6.649 6.646 6.651 6.674 6.644 6.669 6.681 6.714 6.704 6.709 6.729 6.741 6.716 6.761 6.744 6.764 6.771 6.789 6.781 6.786 6.821 6.841 6.846 6.846 6.861 6.849 6.859 6.861 6.874 6.889 6.909 6.936 6.944 6.941 6.961 6.961 6.971 6.971 6.994 7.016 7.036 7.034 7.049 7.034 7.071 7.094 7.109 7.076 7.081 7.099 7.109 7.146 7.139 7.151 7.124 7.156 7.169 7.179 7.179 7.204 7.191 7.219 7.254 7.241 7.256 7.236 7.264 7.236 7.299 7.249 7.274 7.289 7.269 7.291 7.271 7.291 7.304 7.311 7.351 7.321 7.344 7.329 7.364 7.341 7.326 7.346 7.334 7.341 7.341 7.321 7.339 7.361 7.349 7.344 7.374 7.339 7.359 7.374 7.359 7.401 7.376 7.386 7.391 7.364 7.381 7.414 7.366 7.419 7.404 7.376 7.389 7.406 7.384 7.404 7.391 7.366 7.391 7.389 7.381 7.379 7.394 7.371 7.404 7.359 7.371 7.374 7.379 7.376 7.391 7.374 7.394 7.401 7.384 7.401 7.424 7.401 7.394 7.396 7.384 7.396 7.401 7.374 7.396 7.376 7.404 7.374 7.384 7.394 7.416 7.431 7.429 7.424 7.431 7.439 7.419 7.434 7.411 7.414 7.431 7.409 7.414 7.434 7.419 7.446 7.459 7.439 7.446
6.357 6.322 6.344 6.357 6.374 6.354 6.337 6.357 6.397 6.367 6.329 6.352 6.384 6.359 6.357 6.389 6.402 6.392 6.397 6.412 6.419 6.382 6.432 6.412 6.444 6.459 6.434 6.407 6.404 6.439 6.434 6.452 6.502 6.454 6.449 6.479 6.484 6.474 6.469 6.454 6.457 6.502 6.467 6.467 6.449 6.457 6.512 6.507 6.497 6.514 6.547 6.517 6.514 6.524 6.564 6.502 6.509 6.547 6.539 6.544 6.537 6.579 6.557 6.599 6.574 6.592 6.589 6.624 6.609 6.614 6.589 6.617 6.604 6.609 6.607 6.602 6.604 6.584 6.579 6.624 6.617 6.589 6.602 6.604 6.609 6.632 6.599 6.637 6.597 6.604 6.582 6.602 6.602 6.599 6.587 6.607 6.607 6.597 6.582 6.582 6.604 6.592 6.594 6.592 6.654 6.604 6.622 6.639 6.587 6.582 6.579 6.579 6.599 6.587 6.599 6.622 6.607 6.597 6.594 6.577 6.607 6.592 6.607 6.557 6.614 6.584 6.594 6.577 6.582 6.574 6.579 6.582 6.562 6.599 6.584 6.602 6.582 6.594 6.582 6.569 6.614 6.607 6.597 6.597 6.584 6.587 6.579 6.584 6.622 6.589 6.569 6.552 6.562 6.574 6.624 6.552 6.562 6.524 6.539 6.549 6.577 6.569 6.557 6.534 6.554 6.539 6.572 6.547 6.534 6.574 6.547 6.559 6.529 6.509 6.519 6.534 6.529 6.514 6.534 6.507 6.477 6.482 6.499 6.495 6.488 6.479 6.477 6.468 6.467 6.486 6.475 6.473 6.456 6.473 6.467 6.449 6.445 6.441 6.457 6.449 6.458 6.459 6.442 6.422 6.417 6.397 6.409 6.387 6.389 6.399 6.399 6.419 6.404 6.384 6.359 6.379 6.389 6.399 6.364 6.407 6.347 6.364 6.387 6.344 6.364 6.359 6.382 6.352 6.327 6.337 6.329 6.317 6.334 6.317 6.339 6.322 6.339 6.327 6.332 6.349 6.334 6.317 6.332 6.319 6.324 6.324 6.316 6.286 6.269 6.291 6.301 6.299 6.284 6.276 6.309 6.289 6.291 6.306 6.314 6.289 6.261 6.289 6.286 6.309 6.291 6.289 6.301 6.291 6.321 6.319 6.264 6.301 6.339 6.339 6.331 6.334 6.341 6.341 6.349 6.336 6.369 6.361 6.346 6.341 6.366 6.361 6.394 6.396 6.416 6.371 6.421 6.429 6.426 6.416 6.416 6.479 6.456 6.451 6.439 6.466 6.494 6.509 6.471 6.499 6.484 6.504 6.506 6.536 6.529 6.539 6.584 6.546 6.559 6.589 6.551 6.569 6.594 6.599 6.621 6.619 6.629 6.621 6.629 6.654 6.651 6.679 6.681 6.669 6.684 6.684 6.676 6.674 6.676 6.694 6.741 6.729 6.741 6.799 6.779 6.851 6.819 6.821 6.794 6.816 6.816 6.834 6.824 6.861 6.844 6.861 6.879 6.881 6.874 6.924 6.926 6.941 6.931 6.961 6.974 6.969 7.011 6.989 6.971 7.011 7.016 7.029 7.044 7.059 7.076 7.041 7.064 7.094 7.096 7.111 7.116 7.111 7.136 7.171 7.151 7.191 7.149 7.186 7.239 7.211 7.276 7.224 7.236 7.256 7.249 7.294 7.281 7.279 7.309 7.291 7.289 7.291 7.296 7.331 7.319 7.334 7.356 7.371 7.349 7.376 7.361 7.381 7.371 7.351 7.341 7.374 7.359 7.379 7.361 7.401 7.384 7.394 7.386 7.384 7.386 7.424 7.386 7.376 7.419 7.381 7.394 7.389 7.414 7.389 7.404 7.416 7.411 7.396 7.394 7.399 7.424 7.424 7.426 7.426 7.439 7.434 7.404 7.416 7.419 7.406 7.409 7.424 7.401 7.424 7.441 7.434 7.411 7.429 7.439 7.409 7.449 7.414 7.424 7.426 7.434 7.436 7.424 7.419 7.401 7.414 7.409 7.409 7.399 7.399 7.441 7.456 7.461 7.481 7.489 7.484 7.461 7.444 7.429 7.471 7.461 7.504 7.461 7.466 7.466 7.471 7.461 7.454 7.474 7.486 7.456 7.486 7.474 7.499 7.461
