ncols 385
nrows 32
xllcorner    250006
yllcorner    137656
cellsize     2
NODATA_value -9999
96.076 96.531 96.728 96.846 97.066 97.276 97.453 97.631 97.786 97.963 98.103 98.283 98.458 98.608 98.766 98.918 99.076 99.208 99.351 99.483 99.601 99.723 99.803 99.936 100.031 100.178 100.266 100.383 100.531 100.666 100.791 100.908 101.048 101.153 101.268 101.396 101.503 101.593 101.711 101.826 101.898 102.021 102.123 102.213 102.293 102.373 102.456 102.521 102.599 102.664 102.704 102.794 102.904 102.966 103.011 103.046 103.061 103.116 103.106 103.104 103.081 103.049 103.056 102.959 102.901 102.934 102.929 102.859 102.819 102.774 102.694 102.676 102.641 102.529 102.469 102.404 102.374 102.299 102.264 102.209 102.154 102.096 102.054 101.961 101.926 101.836 101.771 101.704 101.651 101.601 101.561 101.549 101.496 101.471 101.451 101.441 101.474 101.469 101.494 101.509 101.521 101.549 101.564 101.574 101.579 101.564 101.569 101.561 101.566 101.534 101.494 101.486 101.526 101.556 101.586 101.631 101.731 101.766 101.794 101.831 101.886 101.949 101.991 102.056 102.101 102.194 102.244 102.331 102.399 102.444 102.591 102.664 102.676 102.646 102.754 102.831 102.936 103.029 103.154 103.254 103.316 103.369 103.454 103.541 103.634 103.719 103.824 103.969 104.096 104.231 104.364 104.481 104.581 104.696 104.836 104.971 105.126 105.289 105.416 105.584 105.694 105.856 105.976 106.139 106.261 106.401 106.514 106.636 106.751 106.859 106.964 107.066 107.179 107.254 107.224 107.164 108.006 108.561 108.204 108.336 108.521 108.614 108.691 108.814 108.956 109.106 109.319 109.541 109.739 109.981 110.186 110.424 110.661 110.906 111.156 111.389 111.611 111.851 112.061 112.324 112.534 112.766 112.946 113.171 113.369 113.546 113.704 113.854 113.984 114.106 114.231 114.339 114.451 114.531 114.619 114.706 114.809 114.901 114.936 115.019 115.071 115.131 115.166 115.199 115.236 115.294 115.346 115.401 115.444 115.521 115.566 115.641 115.699 115.751 115.809 115.854 115.919 115.929 115.984 116.006 116.014 116.046 116.064 116.094 116.091 116.116 116.149 116.164 116.181 116.221 116.156 116.066 115.981 115.934 116.289 117.239 116.949 116.209 115.979 115.804 115.734 115.696 115.686 115.641 115.589 115.539 115.499 115.454 115.411 115.401 115.384 115.351 115.346 115.334 115.331 115.294 115.241 115.219 115.159 115.194 116.289 114.164 112.076 110.549 109.589 108.941 108.381 108.116 108.081 108.069 108.046 108.299 109.019 110.194 111.101 110.934 110.846 111.747 111.762 108.134 106.822 106.804 106.847 107.007 107.029 106.759 106.572 106.384 106.457 106.747 106.389 106.789 107.102 106.689 106.564 106.594 106.464 106.007 104.712 103.464 101.117 99.639 99.799 99.007 98.699 99.282 99.329 104.027 99.889 99.947 100.539 101.727 100.552 102.982 102.757 103.374 104.989 104.604 104.789 105.389 106.942 107.177 107.074 107.537 108.439 108.847 109.639 110.122 110.632 111.099 111.787 112.324 112.929 113.594 114.364 114.972 115.219 115.459 115.802 116.102 116.352 116.614 116.832 117.027 117.224 117.427 117.629 117.837 117.979 118.114 118.252 118.377 118.494 118.612 118.742 118.867 118.957 119.067 119.169 119.274 119.344 119.424 119.489 119.539 119.594
95.806 96.148 96.426 96.548 96.763 96.951 97.146 97.323 97.491 97.663 97.833 97.998 98.171 98.331 98.471 98.618 98.753 98.908 99.063 99.203 99.336 99.458 99.556 99.656 99.741 99.863 99.981 100.066 100.208 100.328 100.451 100.583 100.703 100.823 100.946 101.043 101.146 101.253 101.358 101.471 101.571 101.663 101.786 101.873 101.963 102.043 102.141 102.229 102.319 102.359 102.406 102.474 102.589 102.646 102.694 102.756 102.786 102.816 102.799 102.836 102.814 102.726 102.694 102.681 102.576 102.579 102.601 102.529 102.461 102.449 102.379 102.316 102.264 102.194 102.151 102.079 101.981 101.911 101.879 101.841 101.796 101.699 101.671 101.569 101.526 101.454 101.369 101.326 101.269 101.254 101.194 101.126 101.096 101.064 101.026 101.014 100.981 100.979 100.991 100.996 100.991 101.021 101.019 101.059 101.049 101.051 101.049 101.069 101.066 101.079 101.061 101.049 101.061 101.106 101.144 101.191 101.269 101.291 101.339 101.369 101.421 101.491 101.544 101.596 101.644 101.729 101.761 101.819 101.896 101.976 102.064 102.216 102.291 102.246 102.154 102.229 102.359 102.449 102.554 102.689 102.801 102.909 103.021 103.101 103.151 103.251 103.349 103.471 103.604 103.741 103.886 104.034 104.156 104.274 104.419 104.566 104.731 104.889 105.051 105.211 105.339 105.481 105.624 105.774 105.929 106.046 106.179 106.299 106.426 106.531 106.624 106.756 106.864 106.966 106.971 106.959 107.294 108.296 107.986 108.009 108.196 108.366 108.421 108.544 108.689 108.831 109.004 109.214 109.419 109.646 109.866 110.106 110.354 110.616 110.851 111.126 111.336 111.571 111.784 112.021 112.244 112.496 112.714 112.946 113.114 113.284 113.441 113.574 113.714 113.836 113.954 114.086 114.176 114.226 114.314 114.406 114.489 114.589 114.641 114.694 114.764 114.816 114.851 114.871 114.924 114.974 115.034 115.069 115.099 115.181 115.254 115.294 115.336 115.424 115.481 115.526 115.551 115.629 115.644 115.669 115.696 115.721 115.744 115.766 115.769 115.786 115.806 115.834 115.839 115.861 115.844 115.791 115.741 115.654 115.614 116.336 117.199 116.266 115.724 115.569 115.446 115.406 115.366 115.319 115.296 115.269 115.196 115.149 115.124 115.121 115.131 115.096 115.096 115.101 115.031 114.989 114.949 114.881 114.801 115.294 116.179 116.584 115.289 113.991 110.631 109.554 108.916 108.399 108.081 108.031 108.126 108.644 110.349 111.359 111.621 112.329 113.034 111.689 110.154 107.657 106.819 106.767 106.869 106.844 107.462 106.697 106.517 106.417 106.249 106.249 106.297 106.382 106.819 106.424 106.482 106.552 106.377 105.257 104.424 102.557 100.762 99.432 99.357 103.444 99.514 98.942 99.359 99.584 99.682 100.004 100.977 100.642 100.144 101.937 103.977 103.424 104.882 104.724 104.429 105.222 105.424 106.244 107.034 108.039 108.349 108.994 109.877 110.552 110.979 111.364 111.904 112.462 113.084 113.757 114.532 114.947 115.157 115.417 115.757 116.049 116.292 116.524 116.749 116.949 117.132 117.319 117.509 117.722 117.887 118.022 118.117 118.242 118.367 118.469 118.597 118.712 118.802 118.902 119.004 119.109 119.192 119.262 119.307 119.369 119.414
95.481 95.761 96.136 96.253 96.418 96.616 96.788 96.986 97.171 97.328 97.521 97.668 97.821 97.996 98.141 98.286 98.453 98.586 98.748 98.886 99.028 99.121 99.243 99.318 99.401 99.528 99.636 99.733 99.856 99.963 100.091 100.198 100.333 100.446 100.538 100.663 100.776 100.881 100.976 101.088 101.193 101.308 101.413 101.533 101.598 101.703 101.813 101.871 101.951 102.021 102.059 102.144 102.261 102.264 102.371 102.416 102.466 102.506 102.536 102.526 102.491 102.484 102.409 102.379 102.291 102.226 102.296 102.244 102.164 102.124 102.066 102.016 101.904 101.836 101.794 101.711 101.629 101.576 101.499 101.466 101.391 101.359 101.271 101.206 101.146 101.064 101.011 100.939 100.896 100.854 100.796 100.744 100.659 100.619 100.581 100.526 100.486 100.469 100.446 100.434 100.449 100.489 100.481 100.504 100.491 100.534 100.546 100.571 100.606 100.594 100.589 100.604 100.629 100.666 100.689 100.746 100.809 100.831 100.884 100.914 100.989 101.036 101.096 101.144 101.169 101.201 101.289 101.334 101.391 101.441 101.499 101.754 101.806 101.884 101.811 101.841 101.931 102.006 102.034 102.149 102.254 102.389 102.519 102.609 102.704 102.796 102.901 103.004 103.134 103.279 103.411 103.536 103.666 103.806 103.966 104.121 104.296 104.471 104.651 104.829 104.961 105.091 105.281 105.434 105.551 105.711 105.846 105.986 106.094 106.199 106.306 106.414 106.549 106.654 106.736 106.746 106.679 107.691 107.924 107.766 107.889 108.094 108.201 108.316 108.464 108.614 108.769 108.931 109.149 109.356 109.569 109.799 110.084 110.326 110.546 110.809 111.066 111.289 111.519 111.749 111.999 112.244 112.461 112.646 112.854 113.039 113.204 113.361 113.486 113.596 113.694 113.786 113.891 113.991 114.064 114.129 114.224 114.276 114.361 114.396 114.459 114.506 114.544 114.594 114.639 114.661 114.744 114.774 114.809 114.879 114.944 114.991 115.034 115.094 115.159 115.219 115.254 115.286 115.341 115.344 115.371 115.426 115.434 115.466 115.496 115.466 115.471 115.481 115.521 115.534 115.551 115.514 115.449 115.409 115.326 115.371 116.286 117.284 115.689 115.316 115.206 115.119 115.094 115.031 114.986 114.949 114.914 114.856 114.856 114.859 114.889 114.856 114.836 114.779 114.734 114.699 114.646 114.536 114.864 116.676 117.801 116.781 115.959 116.891 112.796 110.656 109.726 109.036 108.394 108.339 108.504 109.531 111.514 112.659 111.811 112.064 113.104 111.457 109.154 106.994 106.789 106.784 106.787 106.764 106.902 106.654 106.569 106.292 106.182 106.302 106.197 106.337 106.354 106.257 106.464 106.414 105.732 104.594 103.567 102.154 99.887 99.019 98.917 98.909 99.914 99.489 99.564 99.782 99.512 100.092 100.417 99.769 99.997 101.327 102.367 104.059 105.642 104.369 106.037 104.927 105.547 106.412 107.072 107.719 108.944 109.364 110.477 110.802 111.107 111.517 112.039 112.597 113.239 113.982 114.644 114.879 115.084 115.417 115.704 115.967 116.202 116.454 116.662 116.869 117.042 117.197 117.409 117.587 117.749 117.859 117.982 118.124 118.237 118.322 118.449 118.554 118.654 118.764 118.849 118.939 119.019 119.092 119.157 119.204 119.262
95.111 95.371 95.831 96.006 96.096 96.263 96.433 96.631 96.841 97.001 97.178 97.323 97.463 97.638 97.788 97.948 98.103 98.243 98.411 98.526 98.666 98.781 98.883 99.008 99.078 99.171 99.298 99.388 99.486 99.581 99.668 99.791 99.916 100.043 100.136 100.243 100.353 100.478 100.571 100.681 100.803 100.913 101.033 101.116 101.223 101.311 101.423 101.514 101.554 101.639 101.684 101.809 101.869 101.914 101.979 102.054 102.096 102.156 102.201 102.189 102.161 102.146 102.089 102.041 101.991 101.911 101.934 101.916 101.829 101.764 101.701 101.639 101.549 101.501 101.421 101.361 101.286 101.211 101.151 101.111 101.041 100.949 100.876 100.826 100.764 100.669 100.604 100.579 100.526 100.459 100.391 100.291 100.214 100.161 100.071 100.039 99.986 99.929 99.901 99.894 99.929 99.921 99.964 99.964 100.001 100.016 100.091 100.104 100.144 100.139 100.144 100.184 100.186 100.206 100.244 100.304 100.329 100.374 100.396 100.459 100.536 100.574 100.641 100.676 100.714 100.706 100.779 100.849 100.889 100.954 100.981 101.204 101.279 101.401 101.344 101.349 101.424 101.529 101.614 101.696 101.811 101.909 102.051 102.139 102.209 102.291 102.381 102.501 102.639 102.796 102.926 103.051 103.206 103.364 103.504 103.649 103.796 103.974 104.176 104.371 104.574 104.729 104.899 105.059 105.214 105.364 105.526 105.651 105.784 105.881 105.999 106.106 106.219 106.339 106.456 106.506 106.501 106.664 107.931 107.796 107.616 107.806 108.004 108.149 108.259 108.389 108.554 108.691 108.909 109.144 109.359 109.541 109.809 110.059 110.284 110.544 110.801 111.046 111.296 111.514 111.764 111.994 112.224 112.424 112.624 112.806 112.961 113.106 113.244 113.374 113.491 113.571 113.654 113.716 113.801 113.879 113.986 114.029 114.094 114.141 114.164 114.241 114.286 114.314 114.359 114.409 114.439 114.499 114.541 114.579 114.624 114.689 114.736 114.804 114.871 114.904 114.969 115.019 115.056 115.086 115.111 115.139 115.159 115.174 115.181 115.199 115.194 115.179 115.226 115.219 115.229 115.219 115.181 115.144 115.074 115.031 115.394 116.569 116.539 115.211 115.011 114.861 114.799 114.721 114.701 114.639 114.621 114.601 114.599 114.604 114.604 114.574 114.529 114.489 114.459 114.426 114.341 114.549 115.764 117.316 117.149 116.161 116.571 116.984 116.304 113.259 112.206 109.899 109.126 109.039 109.419 110.701 111.266 111.776 111.771 113.011 112.199 110.627 109.387 107.292 106.774 106.787 106.729 106.667 106.569 106.604 106.394 106.222 106.379 106.722 107.509 106.662 106.357 106.129 106.197 105.607 104.332 103.497 102.162 101.104 99.464 98.689 98.514 98.549 99.554 100.212 99.582 99.404 99.277 100.469 100.082 99.492 100.184 101.722 102.767 104.097 105.559 105.084 104.599 105.112 105.987 106.379 107.132 107.857 109.459 109.699 110.237 110.827 111.267 111.629 112.192 112.767 113.464 114.199 114.614 114.832 115.064 115.392 115.679 115.904 116.149 116.382 116.584 116.757 116.939 117.124 117.297 117.449 117.632 117.747 117.854 117.964 118.094 118.192 118.294 118.404 118.507 118.602 118.694 118.774 118.867 118.917 118.989 119.024 119.082
94.831 95.023 95.446 95.651 95.781 95.903 96.081 96.253 96.458 96.648 96.798 96.956 97.123 97.283 97.401 97.558 97.718 97.873 97.998 98.153 98.263 98.401 98.511 98.618 98.723 98.791 98.888 98.976 99.088 99.173 99.246 99.361 99.486 99.581 99.706 99.816 99.923 100.038 100.151 100.246 100.358 100.473 100.573 100.658 100.753 100.871 100.956 101.046 101.109 101.236 101.324 101.404 101.456 101.491 101.561 101.614 101.674 101.724 101.796 101.809 101.816 101.784 101.749 101.706 101.689 101.616 101.504 101.601 101.504 101.391 101.331 101.246 101.174 101.099 101.079 101.001 100.944 100.869 100.834 100.731 100.659 100.581 100.511 100.456 100.349 100.281 100.241 100.166 100.101 100.051 99.934 99.834 99.744 99.654 99.544 99.494 99.444 99.414 99.356 99.359 99.394 99.451 99.481 99.486 99.521 99.579 99.604 99.666 99.689 99.691 99.736 99.756 99.744 99.784 99.821 99.859 99.849 99.896 99.936 99.981 100.034 100.116 100.149 100.201 100.194 100.251 100.276 100.344 100.394 100.406 100.441 100.636 100.791 100.894 100.819 100.839 100.876 100.969 101.066 101.134 101.271 101.424 101.561 101.679 101.754 101.879 101.951 102.034 102.164 102.269 102.411 102.536 102.709 102.881 103.021 103.189 103.346 103.526 103.721 103.899 104.104 104.299 104.486 104.659 104.844 105.031 105.184 105.321 105.431 105.586 105.706 105.811 105.936 106.044 106.171 106.251 106.309 106.274 107.156 107.806 107.466 107.596 107.739 107.896 108.029 108.124 108.261 108.459 108.656 108.829 109.044 109.301 109.526 109.759 110.026 110.281 110.536 110.779 111.024 111.259 111.504 111.724 111.951 112.181 112.371 112.546 112.711 112.874 112.999 113.144 113.239 113.319 113.409 113.451 113.536 113.601 113.671 113.726 113.801 113.846 113.916 113.946 114.021 114.039 114.066 114.126 114.141 114.196 114.251 114.294 114.314 114.404 114.474 114.516 114.571 114.641 114.676 114.734 114.806 114.821 114.851 114.859 114.874 114.861 114.886 114.881 114.876 114.881 114.894 114.896 114.896 114.906 114.919 114.884 114.866 114.779 114.721 115.734 116.514 115.514 114.674 114.581 114.524 114.434 114.401 114.374 114.366 114.371 114.361 114.336 114.299 114.279 114.219 114.211 114.149 114.114 114.389 115.409 115.054 115.724 114.381 115.774 116.271 115.974 115.454 115.624 113.771 111.954 110.794 109.994 110.249 112.516 112.609 111.384 111.979 112.911 111.351 109.677 109.474 107.227 106.767 106.772 106.829 106.707 106.554 106.342 106.249 106.107 106.062 105.982 106.629 106.317 106.012 105.922 105.404 104.292 103.859 101.997 100.794 100.002 99.079 98.399 98.432 99.179 100.224 99.949 99.312 99.292 99.474 100.039 99.302 99.362 100.629 101.922 102.449 103.859 105.957 105.599 105.149 105.877 106.342 106.619 107.227 108.277 109.564 109.897 110.744 111.049 111.537 111.864 112.404 112.997 113.729 114.284 114.547 114.764 115.049 115.354 115.607 115.837 116.082 116.312 116.504 116.672 116.832 117.012 117.199 117.357 117.502 117.617 117.717 117.834 117.952 118.044 118.144 118.262 118.364 118.454 118.534 118.604 118.694 118.749 118.817 118.874 118.914
94.516 94.668 95.006 95.311 95.441 95.538 95.713 95.888 96.071 96.243 96.386 96.558 96.716 96.871 97.016 97.158 97.311 97.453 97.596 97.728 97.838 97.963 98.101 98.201 98.296 98.363 98.473 98.558 98.641 98.743 98.831 98.926 99.046 99.156 99.246 99.378 99.471 99.578 99.686 99.786 99.903 99.986 100.098 100.168 100.283 100.386 100.481 100.579 100.669 100.771 100.869 100.956 101.004 101.061 101.144 101.169 101.206 101.269 101.324 101.384 101.389 101.359 101.336 101.291 101.269 101.239 101.111 101.149 101.146 101.014 100.929 100.871 100.799 100.726 100.666 100.639 100.579 100.499 100.459 100.371 100.279 100.204 100.136 100.034 99.946 99.869 99.789 99.754 99.699 99.591 99.454 99.349 99.269 99.146 99.029 98.966 98.941 98.926 98.896 98.876 98.896 98.949 98.991 99.004 99.051 99.121 99.169 99.189 99.231 99.259 99.271 99.251 99.289 99.311 99.361 99.389 99.416 99.424 99.476 99.509 99.576 99.636 99.671 99.711 99.721 99.766 99.809 99.839 99.874 99.901 99.951 100.091 100.291 100.379 100.309 100.294 100.364 100.416 100.509 100.589 100.706 100.846 101.026 101.174 101.304 101.371 101.479 101.591 101.691 101.811 101.936 102.059 102.236 102.341 102.531 102.694 102.876 103.066 103.291 103.456 103.659 103.849 104.046 104.219 104.419 104.634 104.824 104.961 105.114 105.266 105.426 105.526 105.654 105.779 105.921 106.011 106.079 106.106 106.251 107.544 107.646 107.384 107.531 107.611 107.726 107.841 107.969 108.139 108.306 108.511 108.686 108.939 109.176 109.414 109.656 109.941 110.169 110.451 110.689 110.934 111.194 111.416 111.631 111.869 112.064 112.251 112.429 112.566 112.701 112.819 112.919 112.986 113.046 113.114 113.171 113.249 113.319 113.369 113.421 113.461 113.511 113.576 113.634 113.684 113.699 113.731 113.774 113.826 113.871 113.901 113.966 114.019 114.061 114.116 114.164 114.219 114.276 114.314 114.344 114.404 114.409 114.464 114.466 114.461 114.479 114.481 114.476 114.484 114.524 114.531 114.544 114.561 114.556 114.559 114.534 114.554 114.421 114.634 116.371 116.141 114.649 114.381 114.261 114.176 114.144 114.136 114.136 114.121 114.081 114.029 114.019 113.971 113.966 113.881 113.701 113.796 113.989 114.159 114.444 115.231 115.691 114.754 115.154 114.166 115.564 115.354 113.726 114.754 112.841 113.139 111.846 112.284 111.484 112.534 112.544 111.166 110.551 111.927 109.672 106.982 106.827 106.747 106.709 106.527 106.339 106.344 106.109 106.029 105.977 105.907 105.962 106.392 105.884 105.714 105.084 103.684 102.339 101.177 100.259 99.029 98.552 98.537 98.662 99.067 99.139 98.759 98.847 100.892 99.757 99.622 99.002 99.577 100.977 102.282 102.769 103.594 105.577 105.527 105.339 106.132 106.482 106.812 107.639 108.757 109.254 110.652 110.559 111.559 111.754 112.077 112.592 113.257 113.894 114.242 114.484 114.739 115.024 115.292 115.537 115.787 116.027 116.204 116.394 116.552 116.739 116.904 117.072 117.234 117.357 117.494 117.592 117.692 117.822 117.889 117.987 118.112 118.202 118.297 118.372 118.439 118.539 118.599 118.654 118.687 118.739
94.198 94.348 94.581 94.963 95.156 95.158 95.321 95.493 95.641 95.808 95.988 96.116 96.283 96.448 96.603 96.736 96.868 97.021 97.166 97.263 97.391 97.531 97.648 97.751 97.833 97.931 98.026 98.118 98.196 98.301 98.403 98.486 98.598 98.701 98.783 98.871 98.976 99.078 99.183 99.301 99.393 99.481 99.566 99.658 99.761 99.861 99.961 100.066 100.179 100.279 100.386 100.461 100.526 100.599 100.654 100.729 100.751 100.809 100.864 100.889 100.896 100.901 100.914 100.871 100.839 100.814 100.701 100.649 100.741 100.626 100.529 100.451 100.371 100.299 100.234 100.201 100.204 100.169 100.064 100.001 99.911 99.796 99.686 99.584 99.479 99.411 99.354 99.259 99.174 99.074 98.981 98.859 98.761 98.631 98.539 98.484 98.456 98.411 98.396 98.391 98.429 98.486 98.506 98.541 98.574 98.634 98.676 98.709 98.751 98.811 98.799 98.854 98.861 98.869 98.881 98.924 98.959 98.971 99.016 99.039 99.086 99.131 99.176 99.199 99.251 99.269 99.299 99.349 99.376 99.384 99.449 99.521 99.791 99.851 99.846 99.769 99.809 99.876 99.969 100.036 100.176 100.284 100.429 100.626 100.781 100.889 100.974 101.064 101.181 101.299 101.451 101.611 101.794 101.916 102.069 102.211 102.399 102.564 102.736 102.954 103.201 103.431 103.621 103.844 104.011 104.219 104.409 104.569 104.759 104.914 105.074 105.206 105.346 105.494 105.626 105.764 105.854 105.931 105.909 106.419 107.696 107.666 107.299 107.361 107.454 107.539 107.651 107.804 107.959 108.136 108.351 108.581 108.819 109.041 109.286 109.526 109.789 110.036 110.289 110.574 110.804 111.046 111.294 111.511 111.726 111.916 112.101 112.244 112.371 112.494 112.569 112.669 112.711 112.799 112.841 112.891 112.961 113.014 113.041 113.079 113.146 113.181 113.229 113.271 113.319 113.334 113.379 113.419 113.441 113.484 113.534 113.601 113.649 113.726 113.781 113.819 113.864 113.904 113.944 113.984 114.026 114.039 114.074 114.084 114.109 114.101 114.116 114.131 114.136 114.131 114.149 114.116 114.114 114.099 114.099 114.086 114.051 114.049 115.109 116.099 115.081 114.314 114.061 113.971 113.929 113.919 113.886 113.849 113.804 113.791 113.759 113.721 113.621 113.904 113.306 113.334 113.686 113.826 115.709 115.459 115.361 114.201 113.116 113.859 114.516 114.439 114.354 113.804 112.614 111.569 111.096 110.896 110.816 110.224 110.566 110.616 109.686 109.987 108.117 107.314 107.419 107.004 106.562 106.459 106.294 106.177 106.097 105.974 105.887 105.877 105.949 107.022 106.159 105.834 104.754 103.589 102.039 100.957 99.932 98.384 98.122 97.874 97.902 99.319 97.989 98.444 99.557 100.914 100.202 98.892 98.792 100.192 102.157 102.339 102.369 102.967 105.244 105.977 106.089 106.894 106.859 107.194 108.217 108.777 110.174 110.012 111.757 111.797 111.922 112.342 112.844 113.489 113.937 114.174 114.452 114.719 114.999 115.244 115.489 115.702 115.904 116.089 116.267 116.454 116.629 116.807 116.984 117.109 117.217 117.347 117.457 117.559 117.662 117.757 117.849 117.947 118.042 118.129 118.217 118.277 118.362 118.439 118.487 118.522 118.572
93.881 94.036 94.196 94.548 94.833 94.831 94.948 95.076 95.233 95.396 95.553 95.703 95.836 96.003 96.151 96.303 96.431 96.548 96.661 96.783 96.936 97.048 97.171 97.263 97.366 97.478 97.561 97.671 97.761 97.846 97.938 98.026 98.128 98.223 98.306 98.388 98.476 98.546 98.661 98.766 98.853 98.918 99.006 99.121 99.201 99.301 99.393 99.511 99.641 99.711 99.821 99.881 99.994 100.046 100.136 100.211 100.281 100.324 100.364 100.406 100.419 100.409 100.399 100.384 100.356 100.341 100.261 100.176 100.164 100.186 100.084 99.986 99.921 99.826 99.786 99.731 99.711 99.671 99.626 99.596 99.484 99.346 99.229 99.111 99.014 98.936 98.829 98.759 98.664 98.569 98.489 98.374 98.256 98.184 98.066 98.021 97.974 97.954 97.939 97.941 97.944 97.999 98.029 98.091 98.116 98.169 98.216 98.274 98.324 98.354 98.364 98.394 98.396 98.429 98.439 98.461 98.484 98.514 98.519 98.546 98.599 98.656 98.674 98.734 98.781 98.769 98.809 98.814 98.854 98.886 98.931 98.971 99.239 99.331 99.396 99.284 99.289 99.319 99.424 99.514 99.624 99.724 99.874 100.054 100.226 100.374 100.474 100.564 100.691 100.806 100.954 101.104 101.251 101.429 101.591 101.809 101.991 102.169 102.329 102.569 102.719 102.936 103.164 103.421 103.616 103.844 104.049 104.201 104.396 104.559 104.719 104.866 105.014 105.164 105.326 105.459 105.624 105.734 105.746 105.786 106.716 107.616 107.716 107.124 107.164 107.286 107.401 107.484 107.636 107.814 108.034 108.229 108.481 108.704 108.946 109.194 109.451 109.711 109.991 110.219 110.469 110.686 110.959 111.184 111.396 111.559 111.754 111.919 112.041 112.146 112.231 112.319 112.391 112.444 112.509 112.586 112.611 112.654 112.714 112.736 112.794 112.826 112.859 112.911 112.929 112.984 113.009 113.066 113.111 113.179 113.209 113.294 113.331 113.399 113.459 113.471 113.556 113.576 113.626 113.669 113.701 113.721 113.774 113.766 113.791 113.789 113.819 113.811 113.814 113.826 113.791 113.791 113.821 113.774 113.726 113.654 113.604 113.684 114.651 115.496 115.231 114.796 113.809 113.759 113.699 113.651 113.609 113.564 113.556 113.509 113.466 113.649 114.074 114.006 113.006 112.936 114.816 113.581 114.336 114.261 115.369 114.349 112.604 112.774 112.794 113.366 114.364 114.141 112.606 111.584 110.824 110.546 110.504 109.319 109.301 108.831 108.414 108.567 107.814 107.759 109.087 108.272 106.639 106.362 106.222 106.124 106.054 105.952 105.899 106.277 105.859 107.579 106.404 106.364 104.622 103.097 101.674 99.894 98.752 98.107 97.694 97.534 97.622 97.489 98.087 98.419 98.509 100.457 99.262 98.434 99.179 100.799 101.342 102.359 102.402 103.612 105.587 106.117 106.117 106.867 106.582 107.699 108.014 109.184 111.389 110.509 111.834 112.379 112.304 112.617 113.149 113.617 113.872 114.119 114.414 114.692 114.919 115.174 115.397 115.627 115.832 115.989 116.169 116.332 116.522 116.697 116.842 116.989 117.089 117.209 117.307 117.404 117.532 117.607 117.687 117.804 117.887 117.979 118.067 118.134 118.197 118.259 118.314 118.372 118.404
93.496 93.701 93.821 94.156 94.441 94.548 94.526 94.691 94.796 94.951 95.108 95.246 95.383 95.528 95.653 95.811 95.931 96.058 96.161 96.296 96.448 96.553 96.663 96.761 96.866 96.993 97.071 97.176 97.286 97.371 97.476 97.551 97.638 97.726 97.803 97.876 97.916 98.001 98.093 98.198 98.291 98.368 98.433 98.523 98.618 98.721 98.803 98.936 99.034 99.134 99.226 99.296 99.381 99.464 99.534 99.644 99.726 99.764 99.791 99.831 99.851 99.861 99.874 99.854 99.831 99.836 99.784 99.721 99.591 99.656 99.606 99.499 99.409 99.321 99.254 99.191 99.189 99.171 99.164 99.124 99.009 98.846 98.694 98.566 98.501 98.411 98.354 98.246 98.159 98.071 98.021 97.866 97.776 97.691 97.621 97.574 97.526 97.481 97.494 97.496 97.491 97.521 97.566 97.599 97.671 97.706 97.749 97.786 97.846 97.866 97.906 97.924 97.941 97.969 97.984 98.006 98.041 98.059 98.071 98.096 98.131 98.179 98.209 98.244 98.276 98.274 98.284 98.319 98.304 98.359 98.421 98.484 98.606 98.784 98.901 98.759 98.779 98.811 98.901 99.006 99.109 99.179 99.321 99.496 99.679 99.836 99.964 100.074 100.201 100.319 100.439 100.604 100.766 100.924 101.096 101.284 101.479 101.664 101.874 102.104 102.339 102.536 102.756 102.976 103.211 103.409 103.639 103.871 104.061 104.234 104.381 104.564 104.709 104.831 104.989 105.159 105.331 105.486 105.554 105.619 105.661 106.766 107.416 107.124 106.904 106.956 107.029 107.179 107.349 107.536 107.729 107.906 108.116 108.344 108.574 108.849 109.086 109.354 109.611 109.846 110.104 110.401 110.631 110.881 111.144 111.391 111.521 111.706 111.991 112.069 111.939 112.074 112.121 112.141 112.229 112.291 112.334 112.391 112.431 112.441 112.451 112.511 112.584 112.581 112.649 112.689 112.754 112.734 112.784 112.839 112.879 112.926 112.986 113.064 113.116 113.174 113.224 113.251 113.304 113.346 113.384 113.446 113.434 113.456 113.476 113.464 113.489 113.474 113.474 113.471 113.431 113.451 113.426 113.369 113.336 113.306 113.249 113.181 113.584 114.804 115.284 115.394 114.586 113.666 113.444 113.384 113.329 113.309 113.256 113.274 113.671 114.614 114.099 112.306 112.214 113.021 115.229 112.686 113.344 115.621 115.236 113.709 112.216 112.124 112.181 112.206 112.626 113.364 111.871 111.201 110.526 110.484 109.589 109.124 108.409 108.164 107.861 108.132 107.492 107.709 107.839 108.342 106.757 106.492 106.227 106.147 106.384 106.274 106.932 107.659 106.489 107.159 105.904 105.104 103.669 102.324 102.207 99.679 98.249 97.899 97.432 97.327 97.307 97.119 97.597 98.054 99.089 99.459 98.329 98.422 99.827 101.232 101.502 101.949 103.184 105.409 105.594 105.652 106.339 106.914 107.234 107.467 108.292 109.642 110.964 110.757 111.667 112.202 112.344 112.842 113.277 113.589 113.822 114.089 114.372 114.624 114.874 115.099 115.337 115.534 115.727 115.892 116.062 116.224 116.407 116.587 116.727 116.854 116.939 117.077 117.174 117.269 117.369 117.439 117.554 117.634 117.729 117.819 117.892 117.959 118.009 118.089 118.147 118.184 118.214
93.096 93.278 93.441 93.646 94.026 94.211 94.138 94.263 94.378 94.508 94.641 94.771 94.911 95.021 95.166 95.303 95.418 95.536 95.666 95.806 95.931 96.028 96.148 96.243 96.366 96.473 96.563 96.656 96.768 96.866 96.946 97.008 97.068 97.181 97.253 97.316 97.351 97.446 97.533 97.626 97.703 97.796 97.878 97.953 98.048 98.136 98.216 98.309 98.409 98.496 98.574 98.661 98.724 98.799 98.901 99.011 99.099 99.159 99.206 99.264 99.291 99.274 99.289 99.284 99.301 99.284 99.256 99.221 99.141 99.114 99.104 98.989 98.894 98.789 98.681 98.671 98.641 98.639 98.634 98.594 98.454 98.296 98.179 98.059 97.964 97.896 97.801 97.691 97.644 97.579 97.521 97.394 97.321 97.241 97.174 97.101 97.041 97.014 97.011 96.999 97.029 97.054 97.086 97.119 97.181 97.219 97.259 97.306 97.354 97.386 97.431 97.446 97.501 97.501 97.501 97.541 97.581 97.604 97.634 97.634 97.671 97.686 97.734 97.769 97.756 97.806 97.809 97.816 97.809 97.834 97.909 97.936 98.051 98.266 98.369 98.251 98.246 98.269 98.361 98.464 98.596 98.674 98.784 98.944 99.094 99.296 99.456 99.576 99.684 99.804 99.931 100.094 100.266 100.421 100.599 100.779 100.954 101.199 101.386 101.594 101.824 102.054 102.339 102.584 102.829 103.061 103.304 103.469 103.686 103.851 104.029 104.261 104.391 104.524 104.689 104.829 104.999 105.194 105.339 105.434 105.459 105.524 106.499 107.169 106.514 106.576 106.719 106.909 107.051 107.239 107.399 107.601 107.804 108.024 108.261 108.476 108.714 108.954 109.206 109.461 109.734 110.021 110.286 110.514 110.746 110.964 111.161 111.329 111.476 111.629 111.596 111.709 111.781 111.844 111.869 111.949 112.004 112.059 112.061 112.144 112.154 112.169 112.209 112.231 112.291 112.304 112.329 112.369 112.424 112.504 112.556 112.581 112.659 112.731 112.774 112.839 112.914 112.931 112.979 113.036 113.061 113.131 113.126 113.146 113.136 113.159 113.124 113.129 113.106 113.129 113.111 113.089 113.061 113.009 112.954 112.924 112.906 112.806 112.739 112.854 114.179 114.981 115.419 114.094 113.129 113.144 113.094 112.961 113.034 114.284 114.426 114.524 113.344 111.639 111.699 112.896 115.309 114.684 113.434 114.339 113.854 112.181 112.001 111.881 111.821 111.624 111.529 111.421 111.096 110.749 110.764 110.226 109.926 108.649 108.014 107.781 108.966 107.354 106.917 107.312 107.259 107.012 106.962 107.062 106.527 106.197 106.662 106.964 108.094 107.142 106.709 105.952 105.849 104.407 102.852 101.869 100.322 99.444 97.899 97.429 97.082 97.204 97.157 97.514 97.707 98.232 98.867 99.812 98.149 98.789 100.249 101.999 101.497 101.949 102.519 104.999 105.137 105.394 106.814 106.597 107.149 107.687 109.162 110.147 111.174 111.852 111.877 112.232 112.337 112.912 113.279 113.514 113.772 114.039 114.329 114.577 114.814 115.024 115.244 115.407 115.609 115.759 115.944 116.109 116.287 116.442 116.577 116.707 116.819 116.922 117.022 117.104 117.187 117.274 117.379 117.457 117.554 117.644 117.739 117.789 117.857 117.922 117.972 118.004 118.022
92.668 92.841 93.018 93.181 93.573 93.803 93.823 93.846 93.973 94.076 94.171 94.303 94.426 94.558 94.686 94.796 94.893 95.016 95.153 95.276 95.391 95.508 95.631 95.721 95.821 95.943 96.028 96.093 96.208 96.313 96.393 96.436 96.506 96.616 96.683 96.766 96.798 96.853 96.961 97.051 97.126 97.216 97.281 97.363 97.436 97.508 97.598 97.704 97.754 97.839 97.904 97.999 98.084 98.166 98.236 98.326 98.426 98.494 98.551 98.576 98.629 98.631 98.649 98.666 98.689 98.699 98.684 98.679 98.621 98.531 98.576 98.499 98.361 98.234 98.164 98.106 98.049 98.056 98.029 98.024 97.911 97.754 97.639 97.574 97.446 97.361 97.271 97.196 97.146 97.089 97.034 96.926 96.866 96.774 96.699 96.629 96.604 96.571 96.556 96.554 96.554 96.594 96.626 96.686 96.691 96.759 96.789 96.831 96.874 96.909 96.964 97.009 97.024 97.039 97.059 97.071 97.114 97.124 97.184 97.169 97.204 97.239 97.254 97.271 97.304 97.314 97.324 97.329 97.334 97.359 97.411 97.434 97.451 97.736 97.861 97.841 97.736 97.784 97.849 97.984 98.099 98.189 98.261 98.371 98.544 98.709 98.906 99.044 99.189 99.331 99.431 99.579 99.786 99.939 100.111 100.301 100.479 100.686 100.886 101.111 101.341 101.586 101.846 102.091 102.341 102.606 102.856 103.121 103.366 103.569 103.731 103.894 104.054 104.201 104.331 104.531 104.719 104.864 105.036 105.139 105.251 105.276 105.354 106.566 106.311 106.214 106.429 106.626 106.764 106.959 107.149 107.296 107.486 107.691 107.924 108.129 108.371 108.624 108.836 109.084 109.354 109.629 109.864 110.106 110.331 110.581 110.791 110.966 111.119 111.209 111.284 111.384 111.459 111.524 111.586 111.644 111.681 111.719 111.766 111.821 111.811 111.824 111.849 111.876 111.929 111.966 111.996 112.024 112.074 112.114 112.129 112.166 112.214 112.294 112.359 112.439 112.494 112.556 112.609 112.666 112.701 112.741 112.759 112.806 112.799 112.781 112.751 112.744 112.714 112.706 112.691 112.664 112.651 112.579 112.531 112.469 112.419 112.396 112.314 112.204 112.781 113.959 114.571 114.829 113.639 113.006 112.626 112.656 112.939 113.354 114.051 112.921 111.336 111.134 111.201 112.669 115.021 114.916 111.909 112.671 111.961 111.774 111.801 111.616 111.426 111.286 111.101 111.099 111.034 109.989 109.834 109.666 109.296 108.609 107.966 107.694 107.694 106.879 106.864 106.892 107.169 106.749 107.729 107.489 106.827 107.234 106.527 106.939 107.442 106.639 106.457 105.582 105.474 103.612 101.937 101.262 100.574 98.502 97.792 97.394 97.237 96.849 96.684 97.577 97.499 98.162 99.467 97.987 97.957 99.609 100.799 101.659 101.559 102.139 102.794 104.377 104.727 105.882 106.962 107.247 107.714 108.744 109.399 110.322 111.524 112.114 111.769 112.242 112.759 112.964 113.232 113.442 113.709 113.997 114.282 114.507 114.732 114.967 115.157 115.329 115.494 115.669 115.827 116.009 116.157 116.319 116.444 116.569 116.669 116.759 116.884 116.952 117.044 117.124 117.204 117.319 117.389 117.472 117.544 117.622 117.692 117.727 117.769 117.822 117.859
92.148 92.366 92.578 92.733 93.006 93.351 93.446 93.433 93.526 93.618 93.711 93.831 93.931 94.056 94.166 94.261 94.371 94.503 94.626 94.738 94.828 94.941 95.061 95.171 95.268 95.358 95.466 95.528 95.651 95.716 95.766 95.836 95.928 96.003 96.086 96.176 96.208 96.286 96.391 96.451 96.528 96.601 96.681 96.758 96.823 96.886 96.976 97.051 97.119 97.176 97.254 97.319 97.406 97.481 97.561 97.629 97.716 97.781 97.871 97.921 97.964 97.996 98.026 98.041 98.051 98.059 98.066 98.071 98.049 97.939 97.971 97.949 97.821 97.714 97.646 97.519 97.496 97.466 97.484 97.401 97.321 97.206 97.111 97.021 96.924 96.831 96.746 96.706 96.651 96.594 96.531 96.466 96.399 96.319 96.266 96.191 96.146 96.109 96.091 96.094 96.096 96.124 96.166 96.189 96.214 96.276 96.316 96.376 96.396 96.474 96.479 96.529 96.566 96.586 96.604 96.634 96.671 96.686 96.699 96.726 96.749 96.774 96.789 96.784 96.819 96.821 96.851 96.861 96.869 96.889 96.909 96.951 96.964 97.166 97.319 97.359 97.241 97.269 97.324 97.451 97.584 97.681 97.756 97.856 97.996 98.144 98.361 98.546 98.694 98.816 98.986 99.119 99.284 99.461 99.619 99.826 100.026 100.214 100.434 100.639 100.874 101.124 101.346 101.604 101.851 102.139 102.404 102.661 102.906 103.159 103.381 103.569 103.769 103.906 104.074 104.206 104.349 104.546 104.734 104.909 105.026 105.066 105.094 105.214 105.471 105.751 106.004 106.244 106.419 106.621 106.786 106.966 107.171 107.326 107.494 107.696 107.936 108.146 108.371 108.641 108.879 109.116 109.359 109.624 109.844 110.086 110.304 110.456 110.591 110.736 110.849 110.964 111.019 111.104 111.191 111.224 111.286 111.339 111.389 111.386 111.411 111.426 111.426 111.456 111.464 111.514 111.559 111.574 111.604 111.621 111.654 111.671 111.711 111.769 111.824 111.911 112.004 112.054 112.124 112.184 112.231 112.286 112.304 112.319 112.336 112.321 112.299 112.294 112.254 112.244 112.229 112.216 112.166 112.111 112.064 112.006 111.941 111.881 111.794 111.706 111.639 112.461 113.816 114.321 114.086 112.931 112.114 111.926 111.681 111.134 111.026 110.621 110.669 110.714 110.706 111.464 113.794 113.271 111.169 111.649 111.454 111.319 111.404 111.211 110.929 110.771 110.564 110.394 110.386 109.814 109.774 109.314 109.046 108.526 107.636 107.216 106.626 106.794 106.862 106.759 107.367 107.217 107.939 108.449 108.714 107.642 107.262 107.932 107.054 105.502 105.302 104.942 104.307 102.769 101.457 99.972 98.744 97.457 97.172 97.462 96.744 96.639 96.572 96.927 97.627 98.804 98.749 97.722 98.534 100.247 101.272 101.014 101.584 102.884 102.744 103.762 104.402 106.387 106.599 106.969 107.657 108.827 109.684 111.257 111.934 112.327 112.347 113.394 112.654 112.944 113.157 113.402 113.667 113.942 114.204 114.454 114.634 114.837 115.017 115.212 115.372 115.552 115.729 115.889 116.034 116.157 116.289 116.412 116.519 116.619 116.704 116.779 116.874 116.954 117.047 117.122 117.214 117.304 117.384 117.454 117.499 117.554 117.592 117.659 117.682
91.656 91.866 92.068 92.223 92.436 92.828 92.968 92.991 93.081 93.178 93.276 93.361 93.461 93.558 93.653 93.761 93.851 93.961 94.096 94.198 94.258 94.361 94.463 94.568 94.666 94.796 94.881 94.971 95.041 95.131 95.178 95.248 95.316 95.423 95.491 95.578 95.663 95.718 95.813 95.881 95.928 95.998 96.063 96.128 96.171 96.268 96.321 96.406 96.486 96.526 96.586 96.656 96.744 96.786 96.854 96.914 97.019 97.066 97.131 97.221 97.256 97.296 97.331 97.379 97.391 97.411 97.394 97.419 97.381 97.326 97.269 97.376 97.269 97.136 97.064 96.956 96.906 96.894 96.886 96.844 96.796 96.684 96.571 96.504 96.391 96.309 96.244 96.201 96.146 96.084 96.046 95.979 95.921 95.864 95.779 95.711 95.706 95.644 95.624 95.631 95.639 95.661 95.691 95.706 95.749 95.819 95.839 95.879 95.929 95.981 96.034 96.086 96.099 96.111 96.191 96.194 96.206 96.239 96.259 96.291 96.281 96.316 96.319 96.329 96.331 96.331 96.316 96.359 96.374 96.389 96.429 96.474 96.516 96.576 96.774 96.891 96.749 96.771 96.824 96.944 97.061 97.166 97.289 97.376 97.481 97.631 97.809 98.031 98.219 98.369 98.509 98.649 98.826 98.984 99.156 99.349 99.539 99.749 99.964 100.174 100.416 100.634 100.874 101.131 101.371 101.649 101.901 102.164 102.426 102.681 102.946 103.156 103.354 103.556 103.726 103.901 104.041 104.214 104.379 104.521 104.654 104.741 104.844 104.996 105.171 105.411 105.621 105.829 106.054 106.234 106.409 106.581 106.749 106.901 107.079 107.276 107.491 107.709 107.894 108.121 108.381 108.609 108.826 109.094 109.314 109.516 109.716 109.861 110.034 110.179 110.316 110.424 110.524 110.611 110.699 110.776 110.831 110.851 110.914 110.949 110.976 111.006 111.009 110.999 110.996 111.026 111.051 111.056 111.046 111.074 111.079 111.084 111.119 111.139 111.224 111.311 111.391 111.534 111.581 111.659 111.691 111.761 111.789 111.791 111.801 111.804 111.816 111.801 111.761 111.741 111.679 111.651 111.621 111.569 111.529 111.461 111.384 111.314 111.271 111.206 111.096 111.029 111.879 112.779 113.049 111.279 110.761 110.596 110.334 110.326 110.266 110.291 110.329 110.321 110.256 110.501 112.626 112.021 110.614 111.151 111.271 111.279 111.054 110.764 110.516 110.346 110.331 110.276 110.254 109.631 110.186 110.939 109.231 108.311 107.501 107.611 107.094 106.624 106.347 106.357 107.572 106.744 106.237 106.217 109.232 106.084 107.419 108.427 107.087 104.614 104.339 103.829 103.119 102.134 100.339 99.109 98.139 97.137 96.869 96.819 96.399 96.477 96.964 96.934 97.889 99.089 97.452 97.574 99.669 100.987 101.172 101.594 102.392 102.242 102.844 103.567 104.409 105.632 105.859 106.769 107.569 108.447 109.569 110.439 111.894 112.017 111.937 112.324 112.597 112.859 113.089 113.334 113.619 113.882 114.122 114.337 114.534 114.704 114.907 115.099 115.249 115.432 115.617 115.752 115.889 116.017 116.134 116.269 116.367 116.449 116.549 116.629 116.699 116.807 116.872 116.959 117.029 117.129 117.212 117.272 117.324 117.382 117.407 117.457 117.492
91.131 91.343 91.513 91.703 91.893 92.271 92.438 92.543 92.613 92.703 92.771 92.896 92.973 93.071 93.118 93.213 93.346 93.453 93.538 93.613 93.701 93.796 93.876 93.991 94.086 94.171 94.253 94.346 94.416 94.511 94.586 94.683 94.751 94.823 94.903 94.996 95.101 95.143 95.228 95.288 95.328 95.391 95.466 95.521 95.586 95.631 95.716 95.781 95.829 95.879 95.939 95.991 96.061 96.121 96.181 96.246 96.316 96.374 96.444 96.506 96.589 96.624 96.654 96.704 96.729 96.701 96.746 96.754 96.729 96.689 96.581 96.644 96.666 96.586 96.476 96.384 96.334 96.306 96.284 96.266 96.224 96.164 96.051 95.994 95.906 95.821 95.776 95.701 95.646 95.576 95.549 95.511 95.446 95.364 95.331 95.291 95.236 95.194 95.139 95.164 95.174 95.206 95.214 95.239 95.279 95.324 95.366 95.399 95.456 95.499 95.581 95.604 95.651 95.686 95.704 95.751 95.776 95.786 95.809 95.819 95.821 95.846 95.854 95.861 95.836 95.836 95.834 95.901 95.904 95.929 95.919 96.011 95.996 96.041 96.289 96.406 96.301 96.281 96.339 96.446 96.564 96.654 96.796 96.909 97.046 97.121 97.291 97.501 97.696 97.879 98.044 98.189 98.354 98.506 98.709 98.881 99.064 99.294 99.501 99.714 99.941 100.159 100.399 100.641 100.889 101.151 101.406 101.654 101.926 102.199 102.439 102.679 102.894 103.106 103.281 103.459 103.646 103.841 104.056 104.211 104.379 104.481 104.609 104.856 105.024 105.141 105.311 105.476 105.674 105.819 105.999 106.146 106.286 106.409 106.549 106.746 106.941 107.129 107.361 107.581 107.824 108.066 108.261 108.499 108.714 108.926 109.106 109.276 109.466 109.601 109.739 109.854 109.984 110.111 110.159 110.236 110.301 110.376 110.419 110.454 110.466 110.466 110.506 110.466 110.464 110.466 110.474 110.426 110.419 110.444 110.481 110.424 110.424 110.476 110.511 110.609 110.699 110.769 110.886 110.971 111.056 111.109 111.144 111.159 111.161 111.194 111.196 111.189 111.156 111.106 111.066 111.009 110.974 110.941 110.886 110.866 110.776 110.729 110.686 110.669 110.581 110.504 110.376 110.316 110.309 110.146 110.059 109.996 109.934 109.921 109.984 109.961 109.939 109.931 109.846 110.206 112.214 111.549 110.446 110.791 110.579 110.501 110.364 110.401 110.109 110.064 110.351 109.849 109.404 109.319 109.361 110.516 109.134 108.224 107.214 108.164 107.064 106.544 106.202 106.287 107.139 106.192 106.119 106.599 106.177 106.029 106.157 105.367 105.172 103.139 102.462 102.364 101.454 100.549 100.319 98.037 97.202 96.779 96.707 96.667 96.254 96.344 96.629 97.182 98.259 97.714 97.159 98.942 100.402 100.819 100.779 101.304 102.057 102.652 103.114 103.827 104.602 105.399 106.082 106.837 107.929 108.547 109.242 109.997 111.049 111.567 111.877 112.202 112.482 112.739 112.987 113.247 113.552 113.789 114.024 114.232 114.432 114.604 114.777 114.957 115.122 115.302 115.489 115.604 115.769 115.862 115.984 116.109 116.212 116.317 116.387 116.467 116.549 116.634 116.729 116.804 116.872 116.967 117.024 117.107 117.124 117.197 117.262 117.274 117.329
90.618 90.786 90.971 91.146 91.298 91.623 91.906 92.043 92.096 92.193 92.288 92.403 92.488 92.568 92.616 92.698 92.813 92.911 93.011 93.061 93.138 93.211 93.293 93.381 93.461 93.576 93.633 93.751 93.823 93.928 94.021 94.108 94.181 94.251 94.323 94.416 94.501 94.533 94.598 94.676 94.743 94.783 94.851 94.898 94.958 94.998 95.091 95.139 95.181 95.246 95.299 95.349 95.406 95.451 95.514 95.581 95.656 95.706 95.764 95.806 95.881 95.946 95.981 96.029 96.059 96.049 96.086 96.069 96.056 96.049 95.986 95.936 96.074 95.999 95.896 95.841 95.781 95.749 95.726 95.694 95.674 95.646 95.551 95.506 95.426 95.319 95.274 95.214 95.159 95.111 95.066 95.021 94.979 94.906 94.869 94.831 94.781 94.726 94.724 94.704 94.701 94.716 94.726 94.754 94.804 94.869 94.876 94.941 94.986 95.046 95.074 95.119 95.181 95.224 95.261 95.289 95.334 95.331 95.339 95.346 95.359 95.351 95.389 95.389 95.381 95.351 95.356 95.429 95.459 95.479 95.471 95.501 95.514 95.544 95.789 95.919 95.891 95.836 95.894 95.959 96.049 96.194 96.336 96.464 96.571 96.676 96.771 96.966 97.174 97.381 97.586 97.744 97.896 98.044 98.229 98.409 98.621 98.819 99.046 99.269 99.506 99.691 99.911 100.149 100.399 100.656 100.884 101.141 101.391 101.666 101.921 102.146 102.374 102.584 102.789 103.001 103.156 103.346 103.536 103.724 103.881 104.036 104.206 104.539 104.701 104.759 104.834 104.919 105.056 105.179 105.354 105.486 105.666 105.754 105.931 106.094 106.306 106.499 106.689 106.896 107.139 107.376 107.586 107.819 108.034 108.234 108.451 108.619 108.786 108.964 109.089 109.219 109.344 109.461 109.564 109.631 109.729 109.784 109.836 109.866 109.901 109.911 109.906 109.869 109.876 109.866 109.816 109.796 109.751 109.766 109.736 109.716 109.709 109.734 109.779 109.846 109.959 110.029 110.149 110.231 110.304 110.394 110.434 110.471 110.506 110.521 110.504 110.494 110.446 110.429 110.409 110.369 110.321 110.304 110.251 110.214 110.161 110.106 110.111 110.071 110.039 109.976 109.914 109.841 109.784 109.729 109.676 109.619 109.596 109.601 109.561 109.491 109.506 109.451 109.394 109.914 111.799 111.046 109.761 110.246 110.106 110.041 109.909 109.801 109.791 109.469 109.536 109.479 109.206 109.146 109.044 108.364 108.266 107.451 106.551 106.139 105.909 106.367 106.012 105.874 105.764 105.564 105.489 106.087 105.897 104.714 104.184 103.597 102.897 101.444 100.849 100.492 99.859 99.209 98.104 97.177 96.719 96.562 96.542 96.367 96.247 96.229 96.529 97.527 97.537 96.907 97.224 99.314 100.732 100.804 101.137 101.787 102.069 102.974 103.509 104.024 104.679 105.494 106.392 107.139 107.859 108.604 109.252 110.372 111.402 111.599 111.804 112.139 112.379 112.634 112.907 113.159 113.427 113.684 113.914 114.124 114.302 114.484 114.659 114.842 115.009 115.194 115.349 115.482 115.589 115.739 115.827 115.944 116.044 116.137 116.232 116.312 116.372 116.454 116.539 116.632 116.699 116.769 116.847 116.907 116.969 117.014 117.074 117.079 117.144
90.066 90.236 90.423 90.568 90.741 90.978 91.361 91.511 91.553 91.656 91.748 91.888 92.008 92.076 92.118 92.193 92.268 92.391 92.473 92.516 92.561 92.643 92.711 92.786 92.873 92.986 93.068 93.161 93.246 93.356 93.446 93.518 93.593 93.673 93.756 93.816 93.881 93.928 94.013 94.066 94.146 94.211 94.251 94.303 94.351 94.383 94.451 94.519 94.544 94.606 94.666 94.729 94.764 94.784 94.864 94.919 94.969 95.041 95.106 95.141 95.201 95.274 95.319 95.346 95.394 95.409 95.404 95.416 95.421 95.411 95.366 95.264 95.454 95.446 95.326 95.251 95.216 95.184 95.176 95.156 95.149 95.134 95.089 95.011 94.941 94.879 94.781 94.729 94.664 94.631 94.589 94.546 94.474 94.476 94.401 94.364 94.319 94.269 94.266 94.234 94.239 94.256 94.269 94.324 94.344 94.394 94.409 94.476 94.544 94.591 94.611 94.664 94.694 94.751 94.796 94.831 94.856 94.894 94.874 94.881 94.886 94.904 94.909 94.906 94.901 94.889 94.906 94.956 94.999 94.979 95.019 95.046 95.061 95.086 95.279 95.416 95.481 95.389 95.439 95.514 95.621 95.704 95.836 96.001 96.131 96.249 96.321 96.444 96.656 96.886 97.104 97.309 97.444 97.611 97.789 97.954 98.179 98.349 98.566 98.794 99.004 99.234 99.449 99.646 99.884 100.136 100.356 100.609 100.831 101.074 101.326 101.551 101.804 102.026 102.239 102.436 102.626 102.804 102.999 103.159 103.336 103.484 103.709 104.106 104.174 104.144 104.171 104.261 104.381 104.486 104.606 104.754 104.861 105.036 105.186 105.351 105.546 105.749 105.924 106.151 106.374 106.626 106.866 107.074 107.296 107.474 107.681 107.864 108.026 108.201 108.391 108.519 108.684 108.794 108.884 108.979 109.061 109.131 109.199 109.226 109.266 109.266 109.259 109.246 109.214 109.191 109.146 109.109 109.069 109.049 109.034 108.991 108.986 108.984 109.029 109.094 109.171 109.226 109.356 109.464 109.549 109.621 109.656 109.721 109.749 109.799 109.761 109.774 109.746 109.744 109.739 109.699 109.671 109.641 109.624 109.596 109.549 109.511 109.529 109.536 109.514 109.466 109.396 109.364 109.329 109.299 109.261 109.201 109.184 109.139 109.074 109.041 109.036 109.019 108.974 109.391 111.056 111.594 109.396 109.711 109.681 109.701 109.639 109.254 109.949 109.216 109.009 109.241 108.921 108.324 108.124 107.756 107.479 107.146 106.171 105.411 106.221 105.707 105.542 105.214 104.692 104.379 104.787 105.494 104.644 103.147 102.834 102.122 101.154 99.754 99.377 98.864 98.507 98.084 97.197 96.632 96.257 96.284 96.112 96.137 96.019 96.382 96.712 97.464 96.749 96.774 98.044 99.287 100.252 101.159 102.244 103.314 102.377 102.849 103.512 104.204 104.892 105.817 106.469 107.369 108.137 108.774 110.192 110.644 111.124 111.712 111.792 111.987 112.277 112.539 112.794 113.089 113.309 113.539 113.757 113.949 114.162 114.337 114.519 114.687 114.869 115.049 115.194 115.327 115.442 115.567 115.689 115.784 115.897 115.989 116.059 116.142 116.212 116.282 116.374 116.449 116.524 116.597 116.654 116.749 116.767 116.839 116.882 116.917 116.949
89.528 89.686 89.856 90.018 90.198 90.336 90.776 90.893 91.003 91.081 91.193 91.331 91.436 91.548 91.611 91.663 91.711 91.813 91.908 91.953 92.021 92.086 92.166 92.233 92.311 92.398 92.506 92.591 92.668 92.761 92.841 92.911 92.986 93.068 93.133 93.206 93.288 93.331 93.381 93.461 93.543 93.591 93.656 93.718 93.748 93.798 93.826 93.891 93.919 93.974 94.056 94.099 94.144 94.169 94.199 94.264 94.341 94.389 94.426 94.461 94.519 94.586 94.636 94.676 94.739 94.756 94.746 94.784 94.774 94.771 94.741 94.711 94.656 94.864 94.769 94.694 94.661 94.616 94.624 94.611 94.621 94.616 94.581 94.534 94.494 94.439 94.339 94.254 94.184 94.154 94.099 94.069 94.026 93.994 93.949 93.901 93.856 93.816 93.826 93.804 93.776 93.794 93.816 93.851 93.899 93.921 93.986 94.026 94.076 94.131 94.179 94.196 94.241 94.284 94.326 94.389 94.406 94.436 94.431 94.439 94.434 94.434 94.431 94.451 94.434 94.419 94.439 94.471 94.499 94.536 94.559 94.594 94.619 94.669 94.746 94.941 95.084 94.954 94.974 95.056 95.174 95.261 95.379 95.544 95.656 95.784 95.884 96.014 96.146 96.381 96.604 96.824 96.989 97.176 97.356 97.524 97.714 97.904 98.101 98.326 98.541 98.739 98.966 99.174 99.404 99.634 99.864 100.061 100.274 100.504 100.729 100.979 101.176 101.401 101.614 101.799 101.981 102.179 102.344 102.524 102.676 102.836 103.099 103.759 104.174 103.744 103.449 103.546 103.596 103.724 103.841 103.984 104.114 104.254 104.426 104.581 104.781 104.959 105.159 105.374 105.569 105.806 106.036 106.271 106.446 106.674 106.876 107.066 107.256 107.454 107.621 107.769 107.924 108.094 108.171 108.309 108.366 108.451 108.499 108.566 108.586 108.601 108.589 108.586 108.584 108.544 108.469 108.466 108.479 108.411 108.354 108.334 108.296 108.276 108.284 108.329 108.406 108.494 108.566 108.649 108.776 108.839 108.871 108.956 108.974 109.019 109.049 109.011 109.029 109.031 109.089 109.049 109.021 109.021 109.016 108.974 108.951 108.924 108.931 108.939 108.939 108.916 108.856 108.829 108.836 108.834 108.839 108.756 108.711 108.674 108.619 108.601 108.574 108.599 108.591 108.636 109.794 110.391 108.996 109.359 109.254 108.956 108.974 108.986 109.101 108.631 108.484 108.554 108.459 108.109 107.754 107.239 106.984 106.541 105.664 104.751 104.841 104.899 104.332 103.897 103.687 103.157 102.602 103.594 103.474 101.757 100.832 100.327 99.339 98.297 97.984 97.482 96.929 96.809 96.362 96.139 96.199 95.844 95.744 95.762 97.769 97.097 96.932 96.809 96.414 97.409 98.719 99.384 100.439 101.272 101.247 102.614 102.477 102.932 103.679 104.494 105.589 105.864 106.829 107.764 108.264 109.062 110.354 111.134 111.507 111.609 111.624 111.884 112.134 112.417 112.694 112.947 113.169 113.382 113.592 113.794 113.997 114.162 114.367 114.519 114.707 114.847 115.009 115.144 115.257 115.377 115.514 115.619 115.712 115.814 115.862 115.949 116.012 116.109 116.204 116.277 116.349 116.399 116.467 116.549 116.597 116.639 116.677 116.707 116.764
89.008 89.156 89.308 89.451 89.623 89.753 90.106 90.291 90.483 90.468 90.601 90.733 90.866 90.978 91.081 91.106 91.166 91.238 91.328 91.386 91.471 91.551 91.596 91.661 91.783 91.851 91.923 92.001 92.086 92.146 92.206 92.286 92.338 92.426 92.513 92.576 92.666 92.708 92.791 92.881 92.946 93.018 93.058 93.121 93.166 93.203 93.238 93.304 93.341 93.366 93.426 93.486 93.506 93.564 93.596 93.651 93.694 93.754 93.781 93.844 93.886 93.924 93.984 94.031 94.084 94.116 94.126 94.149 94.141 94.146 94.141 94.134 94.029 94.229 94.226 94.154 94.119 94.069 94.064 94.079 94.096 94.084 94.046 94.016 94.034 93.979 93.889 93.799 93.739 93.681 93.634 93.561 93.564 93.506 93.481 93.434 93.394 93.376 93.371 93.369 93.339 93.351 93.369 93.389 93.431 93.476 93.531 93.581 93.629 93.661 93.709 93.726 93.771 93.819 93.856 93.904 93.946 93.961 93.959 93.974 93.989 93.974 93.961 93.981 93.976 93.976 93.991 94.021 94.036 94.126 94.124 94.131 94.209 94.241 94.291 94.531 94.641 94.524 94.574 94.634 94.709 94.829 94.936 95.064 95.209 95.364 95.524 95.621 95.716 95.911 96.119 96.334 96.554 96.741 96.931 97.091 97.281 97.461 97.671 97.859 98.056 98.286 98.504 98.691 98.881 99.116 99.334 99.536 99.739 99.951 100.184 100.384 100.584 100.771 100.954 101.154 101.309 101.484 101.619 101.816 101.966 102.116 102.354 103.281 104.174 103.824 102.786 102.804 102.891 102.939 103.071 103.224 103.346 103.499 103.649 103.809 103.979 104.166 104.381 104.569 104.759 104.954 105.169 105.386 105.601 105.801 106.049 106.244 106.446 106.596 106.771 106.949 107.126 107.296 107.456 107.589 107.606 107.704 107.791 107.841 107.849 107.871 107.864 107.909 107.891 107.876 107.851 107.851 107.806 107.784 107.714 107.649 107.609 107.559 107.526 107.584 107.679 107.729 107.789 107.876 107.951 108.044 108.084 108.146 108.219 108.256 108.281 108.299 108.296 108.359 108.399 108.386 108.359 108.359 108.334 108.351 108.356 108.344 108.339 108.359 108.341 108.349 108.336 108.304 108.346 108.336 108.314 108.319 108.294 108.241 108.204 108.194 108.171 108.166 108.156 108.264 110.071 109.931 108.494 108.769 109.366 108.966 108.771 108.694 108.469 108.194 107.951 107.824 108.176 108.189 108.229 108.034 106.696 106.396 105.194 103.886 103.749 103.427 103.164 102.769 101.977 101.404 100.987 103.164 100.929 100.104 99.767 98.917 98.489 96.934 96.739 96.282 96.029 96.037 96.864 96.219 95.962 95.852 95.787 95.577 96.887 97.844 96.942 96.347 96.654 98.854 98.722 99.184 100.319 101.539 101.544 102.457 102.412 102.902 103.942 105.052 105.387 106.087 106.839 107.949 108.422 110.469 111.327 111.589 111.679 111.312 111.439 111.744 112.007 112.292 112.542 112.787 113.022 113.217 113.409 113.607 113.799 113.984 114.169 114.357 114.514 114.677 114.829 114.964 115.084 115.192 115.302 115.432 115.532 115.614 115.712 115.777 115.824 115.912 116.017 116.072 116.149 116.212 116.277 116.327 116.387 116.432 116.492 116.524 116.567
88.456 88.608 88.778 88.941 89.088 89.188 89.381 89.781 89.868 89.873 89.986 90.101 90.216 90.408 90.493 90.566 90.633 90.668 90.763 90.828 90.898 90.998 91.063 91.131 91.208 91.278 91.341 91.398 91.463 91.533 91.586 91.671 91.733 91.796 91.848 91.968 92.026 92.086 92.171 92.236 92.326 92.393 92.451 92.531 92.578 92.626 92.641 92.681 92.731 92.759 92.806 92.851 92.894 92.946 92.986 93.039 93.059 93.114 93.156 93.201 93.236 93.294 93.339 93.386 93.441 93.481 93.489 93.511 93.516 93.544 93.541 93.551 93.491 93.514 93.676 93.619 93.539 93.524 93.501 93.536 93.534 93.549 93.551 93.536 93.561 93.511 93.431 93.359 93.306 93.216 93.149 93.109 93.071 93.079 93.019 92.966 92.951 92.951 92.921 92.924 92.914 92.916 92.929 92.959 92.974 93.049 93.094 93.149 93.191 93.216 93.264 93.291 93.331 93.376 93.406 93.459 93.509 93.496 93.506 93.529 93.524 93.501 93.519 93.504 93.506 93.536 93.561 93.564 93.601 93.634 93.674 93.699 93.736 93.851 93.839 94.029 94.191 94.211 94.134 94.174 94.241 94.381 94.506 94.654 94.766 94.936 95.091 95.226 95.371 95.486 95.661 95.861 96.089 96.284 96.491 96.684 96.834 97.024 97.216 97.406 97.596 97.811 98.024 98.189 98.374 98.596 98.791 99.001 99.174 99.381 99.596 99.791 99.986 100.156 100.336 100.471 100.684 100.786 100.946 101.126 101.236 101.364 101.639 102.941 103.841 103.156 102.039 102.081 102.136 102.196 102.321 102.456 102.619 102.761 102.924 103.069 103.204 103.386 103.574 103.739 103.921 104.119 104.339 104.516 104.736 104.964 105.171 105.419 105.601 105.786 105.944 106.129 106.291 106.454 106.596 106.736 106.816 106.929 107.029 107.076 107.134 107.136 107.149 107.174 107.154 107.164 107.179 107.206 107.159 107.091 107.036 106.979 106.904 106.839 106.824 106.876 106.956 107.019 107.049 107.121 107.186 107.286 107.306 107.386 107.489 107.526 107.544 107.571 107.594 107.679 107.711 107.716 107.724 107.736 107.734 107.719 107.729 107.749 107.766 107.791 107.824 107.834 107.829 107.831 107.836 107.854 107.871 107.884 107.854 107.819 107.781 107.751 107.731 107.729 107.744 107.794 108.946 109.451 108.764 108.616 110.396 109.419 108.381 108.214 108.136 107.901 107.741 108.199 107.924 108.759 107.736 107.691 106.884 105.381 105.689 103.676 102.656 102.054 101.859 101.502 100.832 100.154 101.347 99.352 100.587 98.537 97.982 97.802 98.077 96.399 96.267 95.787 95.557 95.499 96.189 100.234 97.027 95.314 95.169 95.669 96.932 97.582 96.122 96.019 97.379 98.719 99.104 100.527 100.089 100.614 101.887 102.367 102.239 102.229 103.169 104.567 105.544 106.312 107.214 107.857 108.499 111.604 111.412 111.902 111.279 111.034 111.292 111.552 111.832 112.122 112.337 112.582 112.809 112.997 113.214 113.392 113.574 113.774 113.937 114.122 114.309 114.467 114.622 114.744 114.869 114.992 115.112 115.222 115.324 115.399 115.492 115.564 115.627 115.719 115.807 115.874 115.949 116.034 116.077 116.127 116.184 116.229 116.287 116.317 116.374
87.911 88.056 88.226 88.376 88.541 88.678 88.791 89.161 89.253 89.356 89.373 89.466 89.628 89.778 89.861 89.928 90.033 90.113 90.196 90.288 90.333 90.433 90.513 90.586 90.618 90.668 90.718 90.761 90.838 90.911 90.951 91.046 91.128 91.201 91.248 91.318 91.391 91.476 91.543 91.636 91.701 91.778 91.853 91.938 91.988 92.031 92.046 92.104 92.149 92.164 92.216 92.259 92.286 92.341 92.371 92.411 92.459 92.491 92.546 92.566 92.611 92.671 92.706 92.764 92.816 92.844 92.889 92.921 92.926 92.951 92.959 92.976 92.946 92.826 93.016 93.051 92.989 92.991 93.001 92.981 92.999 92.989 92.994 93.029 93.026 93.036 92.989 92.909 92.851 92.794 92.709 92.664 92.606 92.614 92.564 92.529 92.521 92.501 92.479 92.471 92.476 92.484 92.506 92.494 92.539 92.596 92.639 92.699 92.726 92.784 92.824 92.856 92.889 92.916 92.939 93.004 93.044 93.041 93.051 93.079 93.059 93.054 93.064 93.056 93.081 93.089 93.091 93.099 93.169 93.194 93.256 93.264 93.326 93.389 93.446 93.564 93.769 93.884 93.741 93.774 93.861 93.966 94.091 94.219 94.346 94.506 94.681 94.839 94.984 95.111 95.284 95.464 95.644 95.841 96.069 96.266 96.446 96.611 96.771 96.979 97.159 97.351 97.559 97.719 97.916 98.096 98.294 98.474 98.661 98.851 99.019 99.204 99.369 99.499 99.699 99.846 99.981 100.129 100.249 100.409 100.506 100.579 100.841 102.241 103.534 102.569 101.311 101.366 101.426 101.499 101.616 101.756 101.864 102.004 102.144 102.264 102.431 102.614 102.754 102.909 103.089 103.304 103.499 103.679 103.894 104.104 104.351 104.541 104.746 104.941 105.111 105.304 105.469 105.619 105.754 105.904 106.001 106.114 106.246 106.301 106.324 106.346 106.384 106.364 106.374 106.399 106.461 106.419 106.421 106.384 106.324 106.261 106.199 106.174 106.149 106.149 106.229 106.274 106.321 106.359 106.481 106.511 106.539 106.636 106.731 106.794 106.839 106.876 106.931 106.981 107.031 107.046 107.081 107.101 107.096 107.139 107.139 107.144 107.164 107.194 107.246 107.286 107.284 107.299 107.349 107.369 107.399 107.431 107.424 107.406 107.374 107.346 107.336 107.346 107.314 107.434 108.494 108.999 108.371 107.996 109.221 108.126 107.861 107.774 107.786 107.529 107.356 107.824 107.736 108.886 107.951 107.376 107.264 105.671 104.266 103.324 102.086 101.432 101.062 100.569 100.069 99.429 98.792 98.667 99.467 97.527 97.659 98.814 96.454 96.257 95.722 95.264 95.102 94.982 95.117 96.752 95.069 95.054 95.294 95.634 96.914 96.634 95.664 96.387 98.742 99.049 99.364 99.977 100.702 101.367 101.229 100.992 100.912 101.162 102.847 104.004 106.002 107.427 109.489 108.834 108.757 111.652 111.374 111.984 110.694 110.814 111.087 111.367 111.647 111.897 112.129 112.362 112.582 112.792 112.974 113.157 113.367 113.534 113.729 113.904 114.057 114.219 114.364 114.509 114.624 114.777 114.894 114.979 115.087 115.197 115.244 115.337 115.422 115.514 115.574 115.674 115.744 115.824 115.874 115.964 115.984 116.034 116.089 116.124 116.177
87.378 87.523 87.688 87.846 87.998 88.156 88.266 88.548 88.706 88.786 88.791 88.873 88.971 89.121 89.268 89.333 89.418 89.503 89.586 89.723 89.783 89.853 89.926 89.978 90.008 90.056 90.118 90.173 90.231 90.266 90.341 90.433 90.501 90.608 90.643 90.723 90.808 90.906 90.961 91.026 91.101 91.171 91.256 91.326 91.363 91.396 91.458 91.486 91.546 91.579 91.596 91.674 91.699 91.724 91.771 91.809 91.854 91.889 91.944 91.956 92.004 92.066 92.106 92.146 92.189 92.241 92.286 92.309 92.334 92.386 92.381 92.389 92.394 92.319 92.326 92.521 92.471 92.429 92.446 92.431 92.441 92.434 92.446 92.449 92.484 92.501 92.524 92.476 92.426 92.354 92.274 92.224 92.159 92.139 92.096 92.089 92.079 92.071 92.056 92.059 92.069 92.041 92.036 92.086 92.106 92.159 92.226 92.241 92.329 92.334 92.366 92.374 92.446 92.494 92.491 92.541 92.576 92.589 92.606 92.614 92.601 92.614 92.629 92.629 92.629 92.641 92.659 92.699 92.731 92.771 92.806 92.856 92.939 92.976 93.026 93.104 93.371 93.474 93.349 93.379 93.469 93.571 93.671 93.814 93.956 94.094 94.246 94.439 94.621 94.791 94.951 95.099 95.211 95.404 95.621 95.824 96.009 96.191 96.369 96.526 96.686 96.866 97.064 97.229 97.429 97.591 97.779 97.944 98.111 98.274 98.444 98.609 98.774 98.924 99.081 99.204 99.319 99.454 99.574 99.676 99.796 99.849 100.191 102.016 102.219 100.899 100.619 100.689 100.729 100.806 100.914 101.026 101.189 101.296 101.374 101.529 101.634 101.781 101.949 102.111 102.294 102.506 102.704 102.894 103.074 103.301 103.506 103.736 103.926 104.096 104.286 104.494 104.616 104.771 104.921 105.046 105.159 105.296 105.404 105.471 105.494 105.539 105.564 105.569 105.606 105.639 105.671 105.679 105.674 105.634 105.596 105.539 105.491 105.449 105.441 105.459 105.509 105.599 105.594 105.661 105.719 105.761 105.849 105.914 106.064 106.089 106.144 106.191 106.271 106.331 106.334 106.379 106.446 106.464 106.471 106.501 106.546 106.556 106.571 106.661 106.684 106.709 106.754 106.776 106.806 106.864 106.956 106.971 106.976 106.994 106.959 106.926 106.959 106.946 106.961 107.139 108.209 109.236 108.249 107.911 107.784 107.551 107.466 107.559 107.784 108.321 107.409 107.846 108.879 108.051 107.434 106.854 105.001 103.554 102.926 102.101 101.609 101.029 100.589 100.464 99.412 99.604 98.504 98.162 99.959 97.854 97.552 98.052 97.129 96.559 96.167 94.969 94.987 94.992 95.017 94.999 94.829 94.722 95.114 97.902 97.574 95.407 95.644 98.734 104.339 100.392 99.572 101.522 101.712 101.732 101.707 100.772 100.252 100.584 101.472 103.292 107.134 108.619 108.279 108.322 108.889 109.329 111.184 111.277 110.322 110.609 110.859 111.144 111.412 111.644 111.894 112.129 112.342 112.539 112.712 112.899 113.107 113.322 113.469 113.637 113.812 113.964 114.102 114.239 114.397 114.522 114.619 114.744 114.847 114.934 115.014 115.109 115.194 115.292 115.357 115.452 115.522 115.599 115.652 115.727 115.772 115.819 115.864 115.927 115.949
86.798 86.963 87.133 87.263 87.433 87.581 87.698 87.896 88.126 88.208 88.198 88.276 88.391 88.486 88.598 88.673 88.793 88.913 88.976 89.113 89.218 89.258 89.311 89.366 89.398 89.451 89.513 89.563 89.611 89.686 89.751 89.846 89.916 89.983 90.043 90.123 90.208 90.283 90.361 90.421 90.496 90.578 90.666 90.736 90.793 90.811 90.883 90.911 90.966 90.999 91.039 91.089 91.109 91.166 91.169 91.221 91.281 91.286 91.351 91.389 91.414 91.491 91.514 91.544 91.586 91.654 91.719 91.734 91.769 91.794 91.809 91.831 91.829 91.794 91.714 91.894 91.984 91.894 91.909 91.904 91.894 91.929 91.914 91.921 91.959 92.001 92.044 92.031 91.991 91.941 91.864 91.846 91.746 91.694 91.689 91.659 91.631 91.631 91.636 91.634 91.636 91.641 91.631 91.659 91.709 91.734 91.776 91.806 91.871 91.899 91.936 91.966 92.001 92.031 92.071 92.109 92.129 92.154 92.159 92.181 92.181 92.174 92.171 92.189 92.206 92.211 92.249 92.256 92.276 92.341 92.386 92.446 92.514 92.569 92.621 92.694 92.931 93.069 93.024 93.001 93.079 93.159 93.284 93.419 93.564 93.731 93.869 94.039 94.241 94.404 94.576 94.756 94.894 95.019 95.186 95.379 95.576 95.759 95.941 96.106 96.266 96.426 96.591 96.761 96.951 97.126 97.269 97.429 97.591 97.744 97.894 98.079 98.184 98.311 98.436 98.579 98.664 98.759 98.874 98.989 99.101 99.121 99.341 101.451 101.539 100.039 99.936 100.009 100.059 100.116 100.211 100.321 100.449 100.564 100.661 100.744 100.874 101.016 101.196 101.344 101.521 101.694 101.884 102.079 102.251 102.479 102.686 102.886 103.104 103.286 103.474 103.641 103.814 103.974 104.094 104.221 104.356 104.476 104.576 104.624 104.674 104.729 104.744 104.761 104.774 104.829 104.886 104.901 104.876 104.879 104.826 104.796 104.749 104.716 104.726 104.724 104.756 104.834 104.891 104.919 104.981 105.056 105.086 105.194 105.284 105.381 105.446 105.496 105.559 105.606 105.621 105.679 105.756 105.844 105.871 105.941 105.934 105.981 106.019 106.081 106.161 106.191 106.251 106.274 106.334 106.416 106.486 106.534 106.549 106.581 106.556 106.554 106.556 106.561 106.564 106.704 107.881 108.836 107.224 106.811 108.316 107.786 107.799 107.189 107.974 108.374 108.379 107.581 107.499 106.616 106.664 105.711 104.381 102.814 102.076 101.514 101.084 100.589 100.062 99.494 98.937 98.257 97.874 97.714 97.537 98.257 96.324 96.029 95.602 95.649 95.954 94.422 94.482 94.552 95.042 94.954 94.484 94.829 95.392 97.089 96.479 95.284 96.127 99.122 100.912 98.859 100.137 101.704 102.537 101.544 101.842 100.859 100.562 100.647 100.429 101.319 106.999 107.964 108.257 108.182 110.274 109.557 110.602 109.869 110.057 110.347 110.617 110.894 111.169 111.414 111.624 111.842 112.059 112.244 112.434 112.644 112.832 113.027 113.212 113.379 113.532 113.702 113.837 113.999 114.132 114.252 114.362 114.447 114.599 114.687 114.759 114.862 114.934 115.049 115.132 115.224 115.289 115.387 115.422 115.504 115.559 115.599 115.647 115.689 115.744
86.223 86.393 86.541 86.686 86.828 86.971 87.091 87.236 87.546 87.571 87.648 87.678 87.756 87.841 87.936 88.051 88.173 88.313 88.381 88.496 88.573 88.618 88.678 88.738 88.786 88.848 88.893 88.973 89.006 89.088 89.161 89.221 89.306 89.383 89.458 89.523 89.613 89.716 89.766 89.828 89.896 89.993 90.063 90.133 90.203 90.261 90.326 90.361 90.381 90.431 90.454 90.501 90.549 90.594 90.626 90.644 90.696 90.719 90.781 90.826 90.851 90.916 90.959 90.991 91.046 91.079 91.111 91.189 91.196 91.226 91.239 91.259 91.276 91.259 91.214 91.284 91.446 91.396 91.369 91.406 91.379 91.416 91.396 91.381 91.409 91.469 91.549 91.561 91.551 91.506 91.459 91.416 91.331 91.274 91.234 91.224 91.209 91.194 91.211 91.206 91.214 91.214 91.194 91.241 91.261 91.324 91.364 91.389 91.431 91.496 91.501 91.556 91.569 91.631 91.656 91.689 91.691 91.734 91.734 91.744 91.764 91.759 91.789 91.806 91.826 91.824 91.849 91.844 91.884 91.949 91.986 92.049 92.101 92.186 92.214 92.261 92.499 92.656 92.681 92.616 92.689 92.781 92.909 93.036 93.174 93.324 93.491 93.644 93.841 94.011 94.206 94.376 94.556 94.699 94.806 94.956 95.126 95.321 95.521 95.691 95.841 95.994 96.159 96.321 96.496 96.656 96.776 96.949 97.074 97.251 97.339 97.471 97.611 97.729 97.814 97.929 98.024 98.111 98.221 98.331 98.424 98.461 98.566 99.681 100.541 99.416 99.259 99.274 99.349 99.431 99.499 99.591 99.716 99.811 99.929 100.049 100.161 100.294 100.399 100.584 100.754 100.929 101.099 101.274 101.456 101.686 101.889 102.066 102.286 102.469 102.651 102.844 103.021 103.164 103.314 103.451 103.559 103.674 103.746 103.824 103.864 103.936 103.941 103.946 103.986 104.039 104.099 104.129 104.086 104.036 104.029 104.011 104.009 103.981 103.956 104.009 104.029 104.114 104.154 104.204 104.256 104.346 104.399 104.469 104.579 104.716 104.774 104.824 104.876 104.949 104.991 105.069 105.131 105.214 105.331 105.364 105.406 105.474 105.521 105.561 105.631 105.736 105.796 105.841 105.904 105.976 106.084 106.126 106.159 106.164 106.169 106.166 106.174 106.171 106.179 106.246 107.489 108.236 107.399 106.351 106.614 106.461 107.261 106.376 107.026 106.469 108.349 106.864 106.076 106.041 106.819 105.011 102.736 102.221 102.394 101.064 100.696 100.062 99.789 99.089 98.522 97.819 97.524 97.687 96.664 96.534 95.602 95.279 95.052 94.809 94.894 95.034 94.267 94.404 94.252 94.334 94.647 94.762 96.779 95.692 94.922 95.537 96.802 97.449 98.207 99.337 99.522 100.522 100.914 101.242 101.087 100.927 99.974 100.154 100.372 101.259 105.292 107.129 109.867 109.974 108.997 111.037 109.762 109.487 109.804 110.082 110.359 110.619 110.892 111.127 111.329 111.552 111.767 111.952 112.142 112.339 112.549 112.727 112.907 113.087 113.237 113.392 113.564 113.687 113.837 113.952 114.092 114.214 114.319 114.422 114.504 114.599 114.684 114.792 114.879 114.949 115.042 115.119 115.199 115.249 115.289 115.369 115.407 115.462 115.487
85.656 85.778 85.943 86.108 86.236 86.356 86.491 86.588 86.898 86.926 87.076 87.061 87.111 87.181 87.266 87.378 87.501 87.633 87.741 87.833 87.928 87.996 88.041 88.111 88.148 88.218 88.283 88.346 88.408 88.476 88.566 88.608 88.698 88.778 88.856 88.971 89.033 89.126 89.203 89.248 89.328 89.421 89.478 89.566 89.636 89.711 89.753 89.806 89.819 89.864 89.919 89.966 89.986 90.061 90.124 90.126 90.149 90.174 90.261 90.289 90.336 90.379 90.396 90.459 90.501 90.531 90.574 90.616 90.686 90.691 90.706 90.726 90.736 90.746 90.724 90.674 90.874 90.909 90.876 90.864 90.896 90.901 90.899 90.889 90.911 90.949 90.996 91.059 91.071 91.076 91.024 91.001 90.934 90.864 90.794 90.814 90.786 90.766 90.781 90.806 90.801 90.814 90.814 90.861 90.871 90.901 90.936 90.989 91.044 91.081 91.106 91.124 91.161 91.216 91.236 91.246 91.281 91.301 91.304 91.346 91.346 91.369 91.361 91.394 91.424 91.426 91.449 91.454 91.524 91.554 91.606 91.644 91.699 91.781 91.834 91.894 92.041 92.241 92.331 92.271 92.331 92.411 92.526 92.676 92.794 92.944 93.121 93.281 93.464 93.629 93.834 94.019 94.204 94.379 94.501 94.609 94.714 94.899 95.096 95.249 95.419 95.591 95.731 95.911 96.014 96.174 96.324 96.436 96.569 96.711 96.814 96.936 97.029 97.131 97.241 97.349 97.434 97.486 97.609 97.684 97.739 97.816 97.841 98.694 99.761 99.076 98.554 98.629 98.664 98.736 98.814 98.891 98.996 99.106 99.229 99.336 99.441 99.559 99.691 99.824 100.001 100.166 100.334 100.494 100.681 100.901 101.114 101.304 101.456 101.694 101.889 102.046 102.224 102.376 102.516 102.666 102.754 102.839 102.919 103.006 103.079 103.114 103.129 103.164 103.194 103.239 103.309 103.354 103.321 103.281 103.266 103.244 103.259 103.274 103.261 103.291 103.319 103.401 103.444 103.504 103.584 103.656 103.731 103.796 103.894 104.044 104.119 104.206 104.276 104.344 104.421 104.509 104.604 104.721 104.829 104.884 104.954 105.026 105.101 105.144 105.216 105.326 105.384 105.476 105.521 105.594 105.706 105.734 105.744 105.784 105.794 105.789 105.776 105.824 105.846 105.989 107.729 108.094 107.139 106.016 106.811 106.006 106.146 107.481 106.439 106.331 107.609 106.794 105.324 105.516 107.664 105.234 102.276 101.589 101.286 100.944 100.846 99.652 99.357 98.452 98.224 97.499 96.782 96.324 95.857 95.427 95.062 94.949 94.524 94.314 94.334 94.224 94.329 94.099 94.117 94.359 94.487 97.652 96.292 94.717 94.982 96.349 97.804 97.502 99.099 101.542 99.387 103.257 104.069 100.617 100.002 99.774 100.252 100.084 100.574 101.222 103.202 106.094 106.544 107.804 108.969 110.209 108.909 109.187 109.492 109.794 110.077 110.314 110.589 110.824 111.019 111.259 111.444 111.637 111.827 112.019 112.224 112.417 112.592 112.767 112.927 113.099 113.252 113.379 113.544 113.652 113.812 113.924 114.024 114.114 114.224 114.312 114.399 114.512 114.594 114.707 114.779 114.849 114.932 114.984 115.037 115.094 115.154 115.192 115.259
85.071 85.213 85.356 85.493 85.656 85.746 85.898 85.973 86.181 86.356 86.416 86.426 86.503 86.523 86.586 86.683 86.823 86.956 87.086 87.198 87.263 87.336 87.381 87.441 87.516 87.603 87.648 87.726 87.798 87.881 87.938 88.011 88.108 88.176 88.293 88.376 88.468 88.563 88.626 88.696 88.791 88.866 88.936 88.993 89.096 89.171 89.223 89.279 89.294 89.346 89.411 89.426 89.464 89.526 89.579 89.636 89.651 89.671 89.731 89.786 89.816 89.851 89.909 89.924 89.969 90.024 90.069 90.119 90.144 90.206 90.196 90.221 90.229 90.234 90.259 90.206 90.269 90.429 90.374 90.384 90.426 90.441 90.464 90.441 90.449 90.441 90.511 90.544 90.611 90.639 90.594 90.549 90.526 90.479 90.394 90.399 90.366 90.394 90.379 90.384 90.406 90.436 90.454 90.464 90.501 90.554 90.566 90.636 90.636 90.706 90.736 90.756 90.804 90.804 90.816 90.856 90.881 90.924 90.901 90.956 90.966 90.969 90.976 90.999 91.059 91.061 91.064 91.076 91.111 91.146 91.181 91.254 91.311 91.409 91.461 91.524 91.609 91.894 91.986 91.954 91.976 92.066 92.194 92.341 92.469 92.634 92.774 92.936 93.106 93.281 93.451 93.631 93.799 93.996 94.129 94.259 94.334 94.509 94.644 94.831 94.996 95.174 95.326 95.469 95.606 95.731 95.844 95.939 96.081 96.194 96.266 96.381 96.481 96.566 96.656 96.734 96.829 96.881 96.959 97.064 97.141 97.181 97.199 97.804 98.821 98.866 97.979 97.936 97.981 98.039 98.144 98.221 98.304 98.411 98.559 98.619 98.734 98.856 98.984 99.101 99.236 99.429 99.601 99.781 99.939 100.174 100.379 100.529 100.721 100.889 101.106 101.286 101.436 101.574 101.726 101.894 101.976 102.066 102.154 102.234 102.271 102.324 102.356 102.396 102.394 102.446 102.541 102.611 102.601 102.551 102.536 102.536 102.544 102.576 102.606 102.611 102.676 102.689 102.769 102.841 102.944 103.009 103.079 103.181 103.281 103.429 103.501 103.579 103.704 103.799 103.884 103.981 104.101 104.256 104.369 104.464 104.556 104.636 104.691 104.776 104.849 104.946 105.011 105.091 105.164 105.244 105.296 105.364 105.389 105.406 105.411 105.409 105.426 105.444 105.484 105.511 106.739 107.456 106.954 105.614 105.941 105.769 106.379 107.289 107.784 107.754 107.476 106.144 105.209 105.221 105.374 104.474 103.416 102.214 102.214 101.966 100.966 99.927 98.934 97.992 98.584 97.667 96.294 95.757 95.279 95.054 94.684 94.549 94.177 94.167 94.332 93.917 94.592 93.744 93.952 94.307 94.867 95.789 94.839 94.602 95.714 96.597 97.299 97.774 99.329 100.524 100.072 106.027 102.882 99.504 99.219 99.029 99.627 99.874 101.484 102.339 103.467 105.252 105.434 107.354 108.597 108.264 108.564 108.904 109.217 109.499 109.789 110.034 110.282 110.509 110.699 110.919 111.109 111.299 111.512 111.722 111.899 112.067 112.252 112.432 112.597 112.774 112.929 113.069 113.219 113.364 113.494 113.624 113.742 113.842 113.909 114.044 114.129 114.219 114.307 114.402 114.494 114.579 114.652 114.709 114.777 114.814 114.902 114.957 115.002
84.478 84.606 84.748 84.876 85.008 85.141 85.251 85.321 85.503 85.806 85.721 85.826 85.846 85.863 85.901 86.008 86.123 86.276 86.413 86.521 86.596 86.658 86.718 86.781 86.866 86.948 87.008 87.081 87.156 87.241 87.316 87.398 87.486 87.591 87.698 87.793 87.896 87.971 88.073 88.146 88.221 88.296 88.393 88.478 88.578 88.628 88.683 88.759 88.796 88.841 88.914 88.946 88.971 89.034 89.104 89.164 89.191 89.199 89.229 89.294 89.339 89.359 89.404 89.459 89.501 89.536 89.596 89.626 89.684 89.704 89.709 89.736 89.731 89.766 89.761 89.754 89.734 89.896 89.919 89.906 89.944 89.981 89.974 90.009 90.001 90.024 90.026 90.061 90.114 90.151 90.154 90.119 90.109 90.069 90.046 89.974 89.989 89.986 90.014 90.016 90.061 90.076 90.109 90.119 90.134 90.149 90.191 90.219 90.299 90.316 90.366 90.381 90.421 90.426 90.454 90.484 90.524 90.499 90.529 90.544 90.581 90.584 90.604 90.644 90.669 90.719 90.696 90.699 90.736 90.806 90.826 90.894 90.954 91.034 91.124 91.159 91.249 91.501 91.631 91.631 91.656 91.741 91.851 91.991 92.124 92.269 92.429 92.601 92.744 92.929 93.084 93.256 93.409 93.584 93.771 93.921 94.019 94.159 94.266 94.394 94.581 94.751 94.901 95.056 95.194 95.286 95.391 95.496 95.594 95.676 95.761 95.844 95.939 96.009 96.114 96.181 96.241 96.311 96.364 96.459 96.546 96.594 96.581 97.261 98.214 98.254 97.444 97.286 97.309 97.371 97.451 97.541 97.629 97.751 97.839 97.926 98.054 98.181 98.321 98.436 98.561 98.744 98.931 99.056 99.221 99.424 99.634 99.806 99.991 100.171 100.326 100.499 100.679 100.796 100.976 101.126 101.199 101.294 101.389 101.484 101.546 101.596 101.601 101.614 101.654 101.689 101.774 101.889 101.909 101.881 101.871 101.844 101.881 101.924 101.964 101.996 102.006 102.061 102.111 102.234 102.314 102.424 102.499 102.584 102.719 102.826 102.924 103.071 103.196 103.319 103.411 103.506 103.631 103.776 103.911 104.024 104.131 104.216 104.299 104.396 104.459 104.561 104.646 104.729 104.814 104.886 104.921 104.996 105.029 105.066 105.069 105.041 105.059 105.086 105.131 105.516 106.984 107.224 105.814 105.579 106.191 105.694 106.196 106.516 107.376 106.889 106.911 106.289 105.084 104.964 104.664 103.876 103.089 103.184 100.279 99.671 99.916 99.987 99.012 97.604 98.009 97.609 96.234 95.099 94.742 94.472 94.319 94.002 94.232 94.147 93.542 93.462 93.582 93.854 93.997 96.289 96.342 95.477 94.312 94.929 96.452 96.797 98.977 98.499 99.909 100.049 99.502 100.169 99.564 99.509 99.199 99.084 100.197 100.924 102.524 105.502 104.929 104.364 105.917 106.909 107.852 107.939 108.277 108.597 108.909 109.189 109.452 109.707 109.944 110.174 110.372 110.584 110.762 110.957 111.192 111.377 111.567 111.747 111.934 112.117 112.267 112.444 112.582 112.744 112.887 113.042 113.179 113.304 113.397 113.524 113.632 113.724 113.827 113.927 114.052 114.117 114.189 114.307 114.377 114.437 114.504 114.564 114.634 114.709 114.749
83.871 83.993 84.146 84.248 84.388 84.521 84.611 84.726 84.813 85.143 85.133 85.186 85.166 85.221 85.263 85.341 85.428 85.576 85.718 85.876 85.938 85.978 86.043 86.096 86.183 86.278 86.351 86.428 86.493 86.573 86.673 86.761 86.846 86.998 87.071 87.196 87.266 87.376 87.486 87.581 87.656 87.738 87.833 87.936 88.023 88.116 88.171 88.236 88.301 88.366 88.421 88.456 88.504 88.574 88.641 88.684 88.724 88.746 88.786 88.831 88.884 88.921 88.949 88.994 89.029 89.049 89.109 89.176 89.196 89.209 89.244 89.239 89.259 89.281 89.294 89.301 89.256 89.319 89.476 89.451 89.466 89.509 89.516 89.566 89.581 89.611 89.589 89.601 89.621 89.676 89.706 89.711 89.674 89.691 89.654 89.621 89.636 89.631 89.634 89.644 89.686 89.704 89.761 89.786 89.749 89.796 89.844 89.876 89.911 89.954 89.989 90.016 90.031 90.079 90.096 90.134 90.151 90.134 90.174 90.181 90.191 90.194 90.224 90.286 90.311 90.344 90.349 90.366 90.409 90.414 90.459 90.549 90.619 90.676 90.771 90.804 90.906 91.131 91.256 91.354 91.341 91.421 91.536 91.661 91.774 91.929 92.071 92.224 92.369 92.554 92.744 92.896 93.031 93.199 93.379 93.531 93.676 93.796 93.904 93.996 94.136 94.306 94.479 94.624 94.741 94.841 94.936 95.019 95.119 95.184 95.261 95.326 95.394 95.479 95.576 95.629 95.689 95.751 95.816 95.876 95.979 96.004 95.999 96.274 97.611 97.821 97.096 96.629 96.659 96.721 96.789 96.849 96.984 97.076 97.194 97.256 97.356 97.479 97.664 97.766 97.884 98.059 98.204 98.384 98.521 98.719 98.931 99.086 99.281 99.461 99.626 99.766 99.946 100.054 100.229 100.354 100.446 100.564 100.654 100.726 100.811 100.869 100.894 100.926 100.916 100.986 101.064 101.159 101.226 101.214 101.206 101.199 101.186 101.241 101.356 101.381 101.431 101.471 101.536 101.621 101.726 101.826 101.921 102.031 102.151 102.289 102.414 102.566 102.711 102.826 102.969 103.071 103.191 103.351 103.451 103.581 103.709 103.824 103.916 103.984 104.119 104.194 104.259 104.361 104.459 104.521 104.571 104.629 104.681 104.681 104.701 104.704 104.694 104.706 104.726 105.066 106.496 107.369 105.099 105.964 106.269 106.579 106.219 106.631 106.209 105.986 106.519 105.009 104.541 104.276 104.766 102.351 102.036 101.651 99.659 99.036 98.971 99.049 98.332 97.262 97.124 96.687 95.812 94.722 94.209 93.904 93.792 93.567 94.029 93.399 93.207 93.622 93.912 93.942 94.012 94.737 96.084 94.052 94.099 95.542 97.442 97.314 97.277 98.952 100.329 100.749 100.967 100.399 100.004 100.362 100.404 101.327 104.449 102.214 102.584 104.719 107.027 105.944 105.877 106.799 107.314 107.684 107.999 108.317 108.619 108.867 109.137 109.374 109.612 109.839 110.022 110.227 110.422 110.637 110.829 111.037 111.239 111.422 111.587 111.762 111.929 112.089 112.262 112.414 112.562 112.722 112.844 112.959 113.067 113.219 113.317 113.414 113.519 113.627 113.739 113.834 113.904 114.002 114.059 114.139 114.207 114.297 114.369 114.437 114.467
83.278 83.413 83.518 83.628 83.751 83.878 83.976 84.073 84.171 84.368 84.591 84.541 84.538 84.561 84.611 84.656 84.741 84.866 85.026 85.203 85.273 85.316 85.368 85.431 85.491 85.593 85.663 85.741 85.828 85.946 86.006 86.103 86.196 86.328 86.461 86.538 86.633 86.726 86.858 86.963 87.038 87.118 87.261 87.373 87.451 87.543 87.613 87.711 87.809 87.836 87.909 87.966 88.016 88.086 88.151 88.224 88.294 88.319 88.339 88.381 88.441 88.491 88.531 88.559 88.621 88.629 88.689 88.731 88.746 88.771 88.801 88.786 88.826 88.819 88.839 88.836 88.859 88.811 89.006 89.029 88.996 89.021 89.076 89.139 89.149 89.156 89.161 89.164 89.156 89.211 89.234 89.254 89.301 89.316 89.289 89.309 89.286 89.291 89.279 89.301 89.361 89.384 89.416 89.429 89.441 89.471 89.489 89.544 89.539 89.589 89.609 89.661 89.689 89.744 89.751 89.754 89.791 89.794 89.794 89.829 89.841 89.849 89.876 89.949 89.966 89.996 90.024 90.049 90.054 90.089 90.156 90.211 90.266 90.334 90.419 90.484 90.544 90.724 90.911 91.029 91.021 91.109 91.196 91.306 91.454 91.581 91.716 91.861 91.999 92.186 92.371 92.501 92.646 92.834 92.984 93.134 93.276 93.414 93.534 93.626 93.706 93.849 94.026 94.161 94.304 94.414 94.486 94.571 94.626 94.689 94.759 94.829 94.899 94.971 95.034 95.096 95.171 95.239 95.289 95.314 95.381 95.454 95.489 95.474 96.486 97.411 96.629 96.011 96.029 96.064 96.136 96.226 96.321 96.434 96.529 96.621 96.764 96.886 96.989 97.121 97.251 97.401 97.579 97.731 97.896 98.069 98.254 98.411 98.561 98.761 98.919 99.079 99.216 99.369 99.506 99.626 99.741 99.849 99.929 100.036 100.099 100.174 100.231 100.234 100.236 100.279 100.379 100.469 100.561 100.571 100.569 100.559 100.571 100.649 100.731 100.789 100.814 100.866 100.956 101.036 101.116 101.269 101.386 101.539 101.676 101.811 101.961 102.104 102.261 102.399 102.539 102.679 102.791 102.924 103.061 103.176 103.299 103.441 103.546 103.641 103.739 103.851 103.914 103.999 104.096 104.151 104.211 104.264 104.284 104.339 104.341 104.324 104.321 104.344 104.339 104.496 105.716 105.929 104.894 105.781 106.766 106.231 105.864 105.921 105.591 105.054 104.319 103.781 104.156 103.221 102.731 101.391 100.594 100.146 99.606 98.824 98.201 98.307 97.607 96.752 96.192 95.737 95.309 94.344 93.687 93.497 93.599 93.274 93.182 92.769 93.177 93.739 93.732 93.937 94.229 95.052 94.424 93.859 94.834 96.334 97.197 96.892 97.184 98.057 99.397 100.114 100.104 100.584 100.344 100.849 101.929 102.947 102.799 103.732 103.922 103.469 106.014 106.824 106.157 106.652 107.059 107.397 107.704 108.022 108.309 108.564 108.804 109.064 109.277 109.477 109.672 109.882 110.082 110.304 110.507 110.709 110.897 111.062 111.242 111.419 111.592 111.779 111.922 112.077 112.247 112.407 112.532 112.667 112.792 112.899 113.014 113.112 113.224 113.327 113.429 113.524 113.607 113.687 113.764 113.869 113.942 114.012 114.082 114.154 114.214
82.683 82.803 82.903 83.006 83.113 83.251 83.331 83.436 83.518 83.631 83.986 83.893 83.891 83.886 83.938 83.983 84.056 84.193 84.328 84.496 84.586 84.658 84.708 84.753 84.831 84.891 84.998 85.091 85.166 85.256 85.311 85.413 85.543 85.621 85.731 85.846 85.943 86.066 86.181 86.288 86.366 86.481 86.618 86.731 86.816 86.936 87.026 87.146 87.204 87.296 87.396 87.471 87.504 87.571 87.644 87.704 87.784 87.871 87.884 87.949 87.994 88.059 88.104 88.114 88.164 88.214 88.269 88.284 88.299 88.326 88.316 88.331 88.369 88.381 88.401 88.424 88.426 88.379 88.474 88.609 88.566 88.574 88.636 88.654 88.686 88.719 88.719 88.726 88.719 88.746 88.794 88.824 88.866 88.914 88.924 88.919 88.944 88.936 88.944 88.971 88.999 89.039 89.066 89.091 89.106 89.141 89.146 89.199 89.229 89.274 89.301 89.339 89.366 89.404 89.449 89.451 89.461 89.461 89.474 89.461 89.459 89.476 89.559 89.624 89.624 89.661 89.689 89.699 89.756 89.774 89.829 89.876 89.931 89.994 90.084 90.176 90.221 90.324 90.576 90.721 90.719 90.754 90.851 90.954 91.114 91.236 91.359 91.499 91.646 91.779 91.979 92.154 92.291 92.436 92.586 92.739 92.854 92.976 93.101 93.176 93.269 93.404 93.541 93.664 93.814 93.944 94.036 94.111 94.151 94.214 94.276 94.319 94.381 94.449 94.534 94.596 94.659 94.731 94.771 94.836 94.871 94.921 94.949 94.949 95.441 96.701 95.859 95.404 95.419 95.439 95.509 95.619 95.729 95.811 95.924 96.034 96.149 96.284 96.384 96.486 96.664 96.826 96.969 97.124 97.239 97.441 97.594 97.781 97.929 98.081 98.226 98.386 98.549 98.691 98.841 98.921 99.044 99.154 99.269 99.361 99.449 99.481 99.556 99.566 99.611 99.644 99.749 99.844 99.921 99.936 99.901 99.904 99.956 100.034 100.151 100.191 100.254 100.309 100.424 100.496 100.634 100.794 100.926 101.084 101.226 101.366 101.544 101.681 101.831 101.991 102.134 102.251 102.426 102.546 102.671 102.804 102.906 103.071 103.159 103.276 103.359 103.469 103.556 103.656 103.719 103.811 103.861 103.911 103.921 103.924 103.969 103.946 103.946 103.939 103.951 104.006 105.284 106.539 105.236 105.979 106.669 106.059 106.064 105.554 104.979 104.814 104.629 104.641 103.836 102.179 101.476 100.729 100.489 100.701 99.754 98.894 97.966 97.324 96.947 96.684 95.474 94.742 94.037 93.714 93.524 93.194 93.004 92.544 92.447 93.009 93.344 93.477 93.709 94.677 94.647 94.877 93.517 97.874 97.832 97.707 97.672 97.104 97.392 98.534 99.312 99.594 100.339 101.062 102.234 102.532 102.684 103.597 103.519 104.117 105.114 105.839 105.314 105.672 106.019 106.429 106.799 107.129 107.447 107.749 108.009 108.264 108.454 108.682 108.922 109.119 109.329 109.539 109.744 109.947 110.167 110.374 110.522 110.722 110.889 111.084 111.257 111.439 111.599 111.752 111.914 112.067 112.199 112.319 112.464 112.592 112.694 112.779 112.914 113.014 113.129 113.244 113.309 113.407 113.494 113.587 113.652 113.714 113.819 113.872 113.927
82.096 82.211 82.308 82.408 82.503 82.611 82.708 82.796 82.888 82.953 83.293 83.291 83.256 83.201 83.263 83.331 83.408 83.508 83.611 83.803 83.893 83.973 84.046 84.086 84.153 84.196 84.296 84.396 84.486 84.558 84.646 84.731 84.836 84.921 85.026 85.113 85.221 85.368 85.488 85.591 85.706 85.836 85.928 86.043 86.178 86.288 86.393 86.509 86.624 86.709 86.796 86.866 86.976 87.046 87.114 87.206 87.271 87.369 87.416 87.466 87.541 87.614 87.669 87.726 87.766 87.806 87.829 87.849 87.856 87.894 87.894 87.904 87.909 87.961 87.941 87.989 87.976 87.984 87.964 88.139 88.171 88.151 88.174 88.211 88.251 88.274 88.299 88.324 88.329 88.314 88.346 88.411 88.446 88.466 88.506 88.541 88.606 88.606 88.616 88.611 88.639 88.681 88.736 88.756 88.799 88.794 88.834 88.886 88.899 88.921 88.964 88.996 89.029 89.064 89.109 89.116 89.139 89.141 89.134 89.111 89.136 89.151 89.241 89.256 89.291 89.321 89.356 89.396 89.434 89.476 89.519 89.546 89.609 89.674 89.749 89.834 89.914 89.961 90.184 90.339 90.429 90.446 90.529 90.616 90.774 90.881 90.996 91.134 91.269 91.431 91.559 91.726 91.899 92.039 92.166 92.291 92.406 92.521 92.629 92.744 92.839 92.956 93.054 93.161 93.269 93.414 93.539 93.616 93.669 93.754 93.846 93.866 93.906 93.966 94.054 94.134 94.181 94.239 94.286 94.319 94.391 94.429 94.424 94.426 94.754 95.646 94.929 94.856 94.844 94.846 94.924 95.024 95.121 95.234 95.341 95.444 95.546 95.689 95.794 95.929 96.064 96.201 96.384 96.541 96.656 96.826 96.971 97.136 97.309 97.471 97.601 97.739 97.904 98.029 98.141 98.279 98.399 98.479 98.591 98.726 98.791 98.859 98.911 98.974 98.994 99.066 99.151 99.259 99.344 99.356 99.329 99.334 99.411 99.474 99.564 99.639 99.734 99.824 99.931 100.056 100.201 100.384 100.496 100.659 100.831 100.984 101.164 101.296 101.451 101.596 101.719 101.854 101.994 102.121 102.281 102.421 102.519 102.659 102.801 102.884 103.001 103.091 103.181 103.271 103.346 103.436 103.484 103.521 103.524 103.534 103.551 103.549 103.531 103.539 103.534 103.639 105.464 105.881 104.389 104.346 106.134 105.486 104.804 104.841 104.741 104.621 104.554 104.124 102.459 101.204 100.806 100.884 101.364 102.104 100.059 100.389 98.314 96.397 95.814 95.219 94.444 93.704 93.952 94.697 94.074 92.504 92.292 92.224 92.477 93.174 93.359 93.549 95.127 97.502 95.212 93.559 93.454 94.597 97.924 96.189 97.139 97.299 97.567 99.682 100.277 100.444 100.879 101.604 102.172 102.862 103.022 103.129 103.974 105.329 105.699 105.337 105.119 105.487 105.844 106.222 106.554 106.882 107.149 107.444 107.692 107.932 108.147 108.364 108.567 108.777 108.987 109.182 109.377 109.609 109.807 109.999 110.192 110.362 110.547 110.734 110.919 111.099 111.264 111.434 111.584 111.737 111.887 112.009 112.152 112.249 112.347 112.479 112.607 112.699 112.824 112.927 113.012 113.102 113.199 113.282 113.382 113.464 113.509 113.592 113.669
81.518 81.603 81.698 81.793 81.886 81.993 82.093 82.173 82.248 82.278 82.523 82.773 82.651 82.531 82.541 82.623 82.691 82.791 82.911 83.058 83.221 83.286 83.343 83.413 83.486 83.526 83.593 83.708 83.783 83.883 83.956 84.043 84.146 84.236 84.321 84.451 84.581 84.666 84.778 84.906 85.018 85.143 85.243 85.361 85.486 85.633 85.713 85.819 85.949 86.074 86.164 86.274 86.376 86.464 86.519 86.664 86.726 86.826 86.891 86.996 87.071 87.126 87.204 87.271 87.331 87.376 87.386 87.416 87.471 87.471 87.474 87.474 87.496 87.514 87.521 87.519 87.531 87.571 87.534 87.616 87.741 87.724 87.746 87.771 87.809 87.841 87.864 87.899 87.919 87.921 87.924 87.969 88.004 88.071 88.141 88.166 88.221 88.224 88.259 88.254 88.296 88.339 88.404 88.429 88.449 88.466 88.491 88.499 88.564 88.584 88.611 88.649 88.674 88.736 88.749 88.796 88.796 88.821 88.806 88.796 88.801 88.836 88.904 88.909 88.969 88.971 89.036 89.076 89.104 89.166 89.211 89.246 89.294 89.364 89.419 89.489 89.606 89.639 89.896 90.006 90.134 90.106 90.194 90.291 90.394 90.534 90.651 90.796 90.904 91.014 91.149 91.326 91.459 91.601 91.739 91.874 92.016 92.091 92.179 92.274 92.361 92.471 92.586 92.666 92.764 92.859 92.976 93.089 93.149 93.221 93.299 93.351 93.386 93.444 93.526 93.604 93.694 93.739 93.784 93.834 93.866 93.916 93.899 93.881 94.411 95.536 94.566 94.301 94.269 94.314 94.371 94.446 94.554 94.681 94.776 94.891 94.994 95.116 95.254 95.376 95.521 95.631 95.831 95.931 96.089 96.241 96.409 96.571 96.711 96.826 96.961 97.126 97.294 97.419 97.531 97.659 97.781 97.876 97.986 98.079 98.181 98.264 98.344 98.399 98.441 98.529 98.611 98.736 98.781 98.836 98.806 98.826 98.901 98.966 99.026 99.136 99.281 99.434 99.511 99.649 99.816 99.946 100.111 100.259 100.429 100.621 100.764 100.896 101.051 101.206 101.326 101.456 101.611 101.754 101.876 101.984 102.151 102.261 102.391 102.481 102.559 102.689 102.804 102.866 102.956 103.026 103.066 103.111 103.111 103.144 103.144 103.134 103.134 103.129 103.156 103.279 105.306 104.964 103.914 103.491 105.549 104.776 104.089 103.984 104.246 103.371 102.914 102.441 101.776 101.174 100.974 101.129 101.331 100.816 98.054 99.371 98.001 96.847 95.774 94.402 93.684 93.567 93.904 94.889 92.844 92.127 92.047 92.294 92.604 92.912 93.212 93.514 99.844 97.039 94.029 93.239 93.724 95.417 96.002 96.637 96.757 96.979 97.642 99.389 100.007 100.374 100.762 102.012 102.549 103.217 103.154 103.752 104.777 105.062 104.564 104.607 104.909 105.289 105.647 106.012 106.299 106.592 106.877 107.139 107.377 107.587 107.799 108.004 108.207 108.424 108.617 108.832 109.037 109.269 109.454 109.659 109.834 110.034 110.212 110.372 110.562 110.742 110.932 111.082 111.239 111.402 111.542 111.687 111.802 111.947 112.054 112.179 112.292 112.404 112.519 112.624 112.722 112.827 112.902 112.979 113.089 113.164 113.242 113.317 113.389
80.961 81.048 81.116 81.186 81.286 81.406 81.481 81.566 81.616 81.678 81.761 82.163 82.108 82.073 81.918 81.948 82.063 82.131 82.261 82.371 82.556 82.623 82.671 82.723 82.771 82.813 82.881 82.981 83.058 83.151 83.281 83.356 83.448 83.568 83.651 83.758 83.886 83.996 84.086 84.233 84.361 84.443 84.571 84.681 84.783 84.916 85.018 85.169 85.264 85.379 85.509 85.631 85.736 85.841 85.934 86.056 86.166 86.254 86.346 86.451 86.524 86.609 86.709 86.809 86.899 86.934 86.961 87.004 87.039 87.036 87.044 87.059 87.076 87.074 87.084 87.114 87.116 87.139 87.151 87.084 87.286 87.304 87.296 87.331 87.369 87.391 87.444 87.479 87.504 87.506 87.529 87.546 87.581 87.636 87.694 87.781 87.824 87.864 87.886 87.944 87.954 87.991 88.029 88.071 88.079 88.149 88.184 88.224 88.224 88.249 88.264 88.304 88.319 88.396 88.414 88.459 88.474 88.496 88.461 88.469 88.499 88.514 88.566 88.566 88.614 88.634 88.719 88.756 88.806 88.856 88.896 88.934 89.001 89.114 89.126 89.171 89.264 89.294 89.556 89.666 89.721 89.684 89.749 89.886 89.984 90.144 90.271 90.416 90.519 90.634 90.756 90.914 91.036 91.169 91.294 91.439 91.539 91.631 91.706 91.799 91.881 91.969 92.061 92.151 92.219 92.336 92.404 92.461 92.534 92.641 92.709 92.769 92.809 92.889 92.986 93.059 93.131 93.209 93.259 93.296 93.329 93.344 93.376 93.354 93.964 95.704 94.111 93.786 93.764 93.789 93.846 93.919 94.031 94.139 94.244 94.364 94.479 94.581 94.711 94.856 94.966 95.111 95.266 95.396 95.549 95.686 95.861 96.054 96.139 96.294 96.391 96.559 96.706 96.811 96.924 97.059 97.166 97.274 97.414 97.531 97.611 97.659 97.761 97.836 97.901 98.011 98.129 98.256 98.304 98.331 98.341 98.389 98.414 98.486 98.569 98.686 98.856 99.011 99.121 99.284 99.444 99.569 99.716 99.884 100.036 100.181 100.351 100.496 100.674 100.829 100.951 101.061 101.194 101.361 101.459 101.606 101.726 101.849 101.966 102.061 102.161 102.269 102.361 102.481 102.549 102.629 102.671 102.689 102.724 102.711 102.739 102.714 102.721 102.724 102.731 102.759 104.811 104.866 104.386 103.191 105.129 104.411 103.889 103.629 103.256 102.681 102.404 101.976 101.369 100.901 100.419 100.031 101.094 100.389 97.941 98.009 97.034 96.109 94.797 95.087 93.432 92.879 92.839 93.304 92.044 91.944 91.872 92.412 92.854 92.742 93.147 93.384 96.679 94.344 93.047 93.014 95.077 95.794 95.804 96.279 96.739 97.074 98.294 100.502 100.009 102.244 101.869 102.192 102.802 103.722 104.184 104.337 105.227 104.244 104.104 104.424 104.737 105.122 105.464 105.787 106.062 106.309 106.587 106.832 107.032 107.254 107.479 107.667 107.879 108.074 108.294 108.512 108.712 108.922 109.109 109.304 109.507 109.667 109.882 110.034 110.244 110.402 110.584 110.739 110.894 111.067 111.204 111.364 111.499 111.604 111.734 111.859 111.969 112.099 112.182 112.302 112.419 112.494 112.589 112.707 112.792 112.877 112.957 113.039 113.094
