ncols 384
nrows 31
xllcorner    250058
yllcorner    138918
cellsize     2
NODATA_value -9999
96.561 96.691 96.818 96.966 97.073 97.176 97.303 97.436 97.566 97.708 97.891 98.021 98.163 98.271 98.373 98.483 98.571 98.656 98.748 98.821 98.891 98.986 99.043 99.128 99.183 99.248 99.288 99.358 99.398 99.451 99.461 99.523 99.593 99.631 99.661 99.696 99.756 99.793 99.846 99.871 99.938 99.991 100.051 100.151 100.266 100.338 100.448 100.546 100.631 100.693 100.761 100.796 100.808 100.841 100.893 100.918 100.948 100.946 100.948 100.931 100.921 100.886 100.861 100.826 100.808 100.746 100.691 100.676 100.636 100.596 100.546 100.503 100.486 100.473 100.448 100.453 100.433 100.411 100.391 100.398 100.411 100.411 100.431 100.488 100.451 100.476 100.511 100.523 100.573 100.576 100.596 100.656 100.701 100.696 100.748 100.771 100.801 100.811 100.843 100.886 100.898 100.943 100.938 100.966 101.013 101.036 101.103 101.478 101.641 100.966 101.073 101.171 101.293 101.338 101.448 101.506 101.593 101.668 101.733 101.838 101.918 101.978 102.076 102.161 102.266 102.336 102.413 102.478 102.506 102.566 102.573 102.598 102.608 102.656 102.668 102.743 102.783 102.851 102.913 102.991 103.058 103.131 103.188 103.246 103.321 103.366 103.403 103.486 103.541 103.633 103.698 103.788 103.888 103.973 104.083 104.181 104.283 104.381 104.496 104.603 104.688 104.808 104.928 105.031 105.128 105.248 105.333 105.421 105.518 105.583 105.666 105.778 105.873 105.936 106.046 106.123 106.241 106.311 106.423 106.541 106.648 106.733 106.821 106.888 106.958 107.026 107.066 107.093 107.131 107.173 107.186 107.191 107.231 107.226 107.606 108.501 107.233 107.338 107.426 107.506 107.593 107.653 107.726 107.763 107.806 107.863 107.928 108.026 108.081 108.143 108.206 108.253 108.333 108.433 108.478 108.556 108.653 108.728 108.823 108.906 108.996 109.068 109.161 109.233 109.316 109.381 109.483 109.548 109.668 109.756 109.851 109.963 110.073 110.173 110.286 110.373 110.481 110.571 110.686 110.783 110.858 111.046 111.511 112.006 111.711 111.496 111.466 111.568 111.733 111.871 111.953 112.011 112.093 112.173 112.248 112.361 112.451 112.561 112.653 112.751 112.823 112.911 112.966 113.016 113.103 113.166 113.231 113.303 113.381 113.423 113.486 113.583 113.646 113.723 113.788 113.863 113.943 114.011 114.063 114.123 114.196 114.281 114.343 114.431 114.483 114.536 114.613 114.663 114.741 114.798 114.878 114.891 114.971 115.026 115.083 115.136 115.186 115.261 115.306 115.341 115.403 115.458 115.491 115.558 115.581 115.623 115.683 115.726 115.763 115.806 115.826 115.886 115.941 115.981 116.038 116.048 117.181 116.723 116.193 116.316 116.411 116.471 116.571 116.641 116.713 116.818 116.868 116.938 117.041 117.058 117.076 117.136 117.206 117.241 117.251 117.331 117.353 117.416 117.448 117.508 118.391 117.936 117.546 117.618 117.726 117.783 117.858 117.941 118.001 118.096 118.168 118.258 118.308 118.373 118.426 118.471 118.528 118.578 118.626 118.671 118.711 118.761 118.793 118.823 118.853 118.901 118.926 118.968 118.991 119.033 119.091 119.126 119.168 119.238 119.281 119.333 119.368 119.413 119.466 119.528 119.568 119.643 119.686 119.753
96.646 96.761 96.918 97.048 97.186 97.308 97.451 97.561 97.718 97.851 97.996 98.141 98.276 98.391 98.478 98.556 98.671 98.781 98.861 98.941 99.021 99.096 99.178 99.251 99.308 99.371 99.438 99.498 99.543 99.573 99.638 99.673 99.708 99.768 99.806 99.856 99.896 99.936 99.986 100.028 100.098 100.161 100.241 100.331 100.446 100.548 100.623 100.738 100.838 100.916 100.988 101.041 101.053 101.086 101.121 101.166 101.201 101.223 101.213 101.201 101.161 101.128 101.096 101.063 101.021 100.976 100.911 100.888 100.843 100.796 100.751 100.728 100.706 100.681 100.648 100.621 100.636 100.603 100.583 100.583 100.618 100.628 100.633 100.663 100.648 100.666 100.688 100.718 100.756 100.776 100.816 100.851 100.881 100.883 100.931 100.958 100.993 100.998 101.036 101.071 101.088 101.126 101.143 101.158 101.206 101.236 101.313 101.706 101.953 101.171 101.288 101.361 101.481 101.571 101.641 101.728 101.803 101.856 101.938 102.036 102.116 102.203 102.296 102.368 102.451 102.546 102.611 102.676 102.708 102.748 102.788 102.801 102.826 102.846 102.868 102.921 102.973 103.043 103.113 103.158 103.231 103.311 103.371 103.421 103.498 103.543 103.626 103.668 103.731 103.806 103.888 103.963 104.033 104.161 104.273 104.343 104.461 104.556 104.676 104.776 104.878 105.006 105.123 105.228 105.333 105.426 105.533 105.601 105.678 105.773 105.868 105.993 106.048 106.146 106.233 106.303 106.398 106.506 106.586 106.708 106.801 106.891 106.978 107.068 107.136 107.211 107.251 107.286 107.301 107.366 107.343 107.376 107.408 107.428 107.688 108.618 107.431 107.506 107.596 107.663 107.761 107.813 107.891 107.928 107.973 108.026 108.103 108.168 108.241 108.298 108.361 108.428 108.516 108.586 108.653 108.728 108.811 108.903 108.988 109.058 109.151 109.226 109.328 109.396 109.476 109.556 109.626 109.726 109.818 109.913 110.011 110.131 110.231 110.346 110.456 110.558 110.673 110.786 110.871 110.978 111.071 111.858 112.281 111.606 111.426 111.528 111.678 111.818 111.963 112.081 112.138 112.188 112.266 112.351 112.451 112.521 112.628 112.711 112.801 112.913 112.966 113.058 113.106 113.171 113.243 113.316 113.383 113.443 113.498 113.561 113.646 113.713 113.778 113.868 113.936 114.008 114.073 114.118 114.213 114.266 114.353 114.421 114.493 114.566 114.631 114.686 114.776 114.813 114.886 114.951 115.011 115.066 115.136 115.173 115.231 115.281 115.343 115.403 115.456 115.488 115.531 115.588 115.623 115.716 115.736 115.768 115.808 115.861 115.898 115.931 115.958 116.028 116.063 116.098 116.153 116.151 117.123 117.043 116.308 116.441 116.506 116.613 116.678 116.761 116.831 116.936 116.963 117.048 117.141 117.176 117.178 117.231 117.298 117.346 117.386 117.428 117.476 117.506 117.566 117.608 118.306 118.238 117.656 117.731 117.818 117.876 117.978 118.041 118.108 118.191 118.263 118.343 118.393 118.461 118.526 118.586 118.631 118.698 118.751 118.766 118.803 118.853 118.891 118.921 118.956 118.983 118.998 119.051 119.088 119.128 119.156 119.211 119.261 119.313 119.368 119.413 119.453 119.501 119.573 119.613 119.676 119.718 119.771 119.841
96.658 96.833 96.988 97.111 97.278 97.418 97.576 97.711 97.868 97.996 98.138 98.273 98.406 98.501 98.608 98.713 98.823 98.893 98.978 99.056 99.103 99.206 99.278 99.356 99.431 99.511 99.566 99.626 99.648 99.693 99.733 99.776 99.841 99.911 99.936 100.003 100.018 100.078 100.123 100.171 100.246 100.318 100.391 100.498 100.598 100.713 100.806 100.926 101.013 101.126 101.208 101.221 101.256 101.273 101.328 101.393 101.433 101.446 101.443 101.408 101.398 101.363 101.326 101.281 101.246 101.186 101.151 101.101 101.053 101.001 100.973 100.931 100.911 100.871 100.841 100.831 100.806 100.791 100.788 100.783 100.816 100.811 100.803 100.836 100.846 100.878 100.893 100.923 100.958 100.971 101.011 101.031 101.066 101.118 101.136 101.168 101.188 101.193 101.233 101.256 101.283 101.321 101.361 101.378 101.403 101.451 101.518 101.721 102.141 101.378 101.498 101.583 101.716 101.796 101.851 101.928 102.001 102.093 102.163 102.228 102.321 102.416 102.496 102.576 102.663 102.726 102.821 102.878 102.928 102.948 102.978 102.973 102.998 103.016 103.066 103.086 103.156 103.223 103.286 103.333 103.413 103.483 103.551 103.606 103.653 103.718 103.763 103.833 103.893 103.978 104.073 104.146 104.251 104.331 104.421 104.546 104.643 104.733 104.856 104.956 105.086 105.208 105.293 105.411 105.506 105.596 105.698 105.793 105.891 105.968 106.073 106.148 106.236 106.341 106.416 106.511 106.586 106.678 106.781 106.888 106.988 107.098 107.178 107.248 107.311 107.371 107.426 107.466 107.538 107.546 107.561 107.543 107.591 107.588 107.646 108.778 107.643 107.661 107.748 107.831 107.896 107.978 108.053 108.103 108.138 108.208 108.273 108.338 108.411 108.483 108.508 108.598 108.671 108.731 108.806 108.878 108.983 109.041 109.123 109.218 109.318 109.388 109.463 109.561 109.643 109.701 109.801 109.891 109.981 110.081 110.196 110.293 110.406 110.513 110.648 110.751 110.896 110.971 111.063 111.168 111.236 111.951 112.121 111.538 111.593 111.743 111.893 112.076 112.163 112.226 112.291 112.351 112.421 112.511 112.608 112.693 112.773 112.888 112.978 113.051 113.136 113.203 113.283 113.328 113.393 113.458 113.531 113.586 113.668 113.723 113.791 113.863 113.908 113.991 114.061 114.143 114.213 114.278 114.358 114.418 114.501 114.571 114.646 114.708 114.788 114.863 114.928 114.956 115.058 115.101 115.176 115.223 115.273 115.328 115.383 115.451 115.498 115.551 115.591 115.636 115.693 115.731 115.771 115.828 115.871 115.903 115.938 115.991 116.006 116.066 116.088 116.166 116.171 116.203 116.243 116.233 117.133 117.143 116.436 116.553 116.656 116.726 116.783 116.883 116.966 117.043 117.101 117.168 117.236 117.271 117.288 117.361 117.411 117.451 117.473 117.533 117.578 117.611 117.666 117.731 118.178 118.523 117.773 117.861 117.956 117.998 118.076 118.123 118.218 118.293 118.376 118.456 118.511 118.553 118.643 118.696 118.733 118.771 118.823 118.891 118.916 118.946 118.991 119.018 119.076 119.078 119.106 119.163 119.193 119.206 119.258 119.308 119.351 119.406 119.446 119.498 119.543 119.598 119.648 119.718 119.758 119.798 119.863 119.923
96.663 96.833 97.013 97.161 97.346 97.488 97.628 97.798 97.921 98.066 98.201 98.353 98.493 98.606 98.721 98.836 98.931 99.041 99.118 99.183 99.246 99.328 99.393 99.471 99.538 99.621 99.663 99.726 99.783 99.813 99.858 99.923 99.971 100.008 100.091 100.146 100.173 100.228 100.248 100.311 100.393 100.456 100.571 100.643 100.771 100.878 100.991 101.083 101.201 101.308 101.383 101.418 101.436 101.453 101.511 101.561 101.611 101.616 101.643 101.623 101.583 101.551 101.546 101.488 101.451 101.388 101.361 101.303 101.248 101.213 101.163 101.131 101.111 101.083 101.033 101.021 101.008 100.983 100.973 100.983 101.013 101.021 100.991 101.018 101.048 101.076 101.091 101.121 101.148 101.168 101.171 101.236 101.268 101.273 101.306 101.368 101.386 101.393 101.436 101.478 101.506 101.518 101.543 101.573 101.618 101.663 101.718 101.851 102.563 101.581 101.723 101.808 101.918 101.991 102.063 102.151 102.226 102.301 102.373 102.438 102.533 102.606 102.688 102.778 102.863 102.953 103.013 103.078 103.106 103.131 103.168 103.191 103.166 103.211 103.256 103.276 103.348 103.403 103.471 103.548 103.616 103.656 103.713 103.768 103.831 103.891 103.951 104.013 104.103 104.161 104.238 104.328 104.428 104.528 104.616 104.721 104.828 104.921 105.041 105.146 105.276 105.368 105.498 105.596 105.688 105.801 105.893 105.993 106.066 106.178 106.258 106.346 106.431 106.501 106.616 106.698 106.783 106.886 106.966 107.071 107.166 107.268 107.353 107.418 107.491 107.568 107.621 107.638 107.698 107.733 107.723 107.726 107.766 107.776 107.873 109.063 108.101 107.831 107.916 107.998 108.066 108.123 108.196 108.243 108.303 108.371 108.448 108.508 108.551 108.623 108.676 108.761 108.836 108.896 108.976 109.043 109.126 109.196 109.276 109.356 109.443 109.538 109.618 109.723 109.816 109.888 109.978 110.066 110.156 110.256 110.361 110.481 110.598 110.736 110.838 110.956 111.076 111.168 111.271 111.366 111.461 112.111 112.323 111.713 111.808 111.968 112.121 112.231 112.298 112.351 112.433 112.531 112.593 112.683 112.778 112.848 112.961 113.038 113.123 113.216 113.288 113.353 113.418 113.491 113.541 113.616 113.661 113.736 113.796 113.881 113.923 113.981 114.071 114.133 114.211 114.276 114.363 114.416 114.473 114.556 114.628 114.701 114.783 114.856 114.933 114.981 115.066 115.118 115.201 115.241 115.306 115.361 115.443 115.476 115.536 115.586 115.643 115.726 115.743 115.783 115.823 115.853 115.936 115.961 116.006 116.033 116.076 116.116 116.161 116.191 116.228 116.283 116.288 116.328 116.366 116.356 117.223 117.403 116.566 116.661 116.771 116.838 116.918 116.998 117.078 117.161 117.188 117.296 117.366 117.398 117.438 117.483 117.541 117.558 117.608 117.666 117.721 117.733 117.801 117.861 118.131 118.713 117.901 117.953 118.041 118.103 118.178 118.233 118.311 118.401 118.468 118.548 118.596 118.658 118.711 118.761 118.828 118.861 118.918 118.978 118.981 119.033 119.061 119.096 119.128 119.161 119.186 119.211 119.243 119.301 119.323 119.393 119.421 119.498 119.536 119.583 119.613 119.668 119.731 119.791 119.821 119.876 119.946 119.986
97.023 97.113 97.246 97.411 97.521 97.603 97.728 97.886 98.028 98.148 98.281 98.448 98.573 98.691 98.823 98.928 99.021 99.103 99.206 99.288 99.386 99.466 99.541 99.608 99.648 99.716 99.786 99.836 99.903 99.938 99.988 100.031 100.086 100.158 100.208 100.253 100.303 100.373 100.411 100.471 100.543 100.636 100.711 100.813 100.928 101.038 101.146 101.266 101.368 101.466 101.546 101.608 101.601 101.656 101.696 101.746 101.793 101.803 101.816 101.803 101.776 101.758 101.726 101.683 101.663 101.591 101.561 101.508 101.456 101.416 101.368 101.326 101.323 101.236 101.231 101.216 101.191 101.183 101.178 101.168 101.198 101.191 101.183 101.213 101.241 101.261 101.281 101.303 101.341 101.353 101.386 101.433 101.471 101.496 101.523 101.563 101.591 101.603 101.623 101.658 101.698 101.738 101.736 101.796 101.856 101.903 101.933 102.041 102.633 101.891 101.923 102.031 102.128 102.236 102.288 102.363 102.443 102.513 102.591 102.668 102.758 102.838 102.913 102.988 103.078 103.163 103.211 103.281 103.308 103.333 103.371 103.376 103.396 103.416 103.436 103.491 103.546 103.598 103.648 103.723 103.788 103.861 103.921 103.978 104.043 104.098 104.136 104.206 104.271 104.356 104.448 104.513 104.621 104.698 104.793 104.898 105.006 105.128 105.228 105.346 105.451 105.586 105.673 105.793 105.911 105.991 106.098 106.183 106.276 106.383 106.458 106.558 106.636 106.713 106.786 106.896 106.971 107.063 107.168 107.266 107.363 107.446 107.553 107.603 107.686 107.731 107.783 107.821 107.881 107.896 107.891 107.906 107.953 107.983 107.961 108.908 108.781 107.998 108.068 108.166 108.246 108.301 108.371 108.418 108.468 108.536 108.578 108.638 108.706 108.773 108.848 108.906 108.981 109.063 109.126 109.206 109.278 109.323 109.411 109.518 109.616 109.688 109.768 109.888 109.951 110.043 110.153 110.243 110.348 110.448 110.583 110.696 110.806 110.923 111.048 111.168 111.278 111.376 111.458 111.521 111.648 112.233 112.491 111.886 112.036 112.163 112.288 112.368 112.443 112.513 112.578 112.691 112.748 112.838 112.931 113.026 113.118 113.203 113.283 113.351 113.451 113.506 113.568 113.636 113.688 113.768 113.828 113.888 113.951 114.023 114.086 114.153 114.208 114.286 114.346 114.423 114.488 114.586 114.626 114.708 114.768 114.843 114.918 114.993 115.076 115.133 115.188 115.278 115.348 115.408 115.468 115.551 115.583 115.603 115.676 115.733 115.783 115.853 115.906 115.926 115.958 116.021 116.058 116.098 116.143 116.168 116.213 116.248 116.298 116.326 116.358 116.411 116.411 116.423 116.458 116.458 117.238 117.641 116.713 116.788 116.883 116.973 117.063 117.103 117.196 117.281 117.323 117.396 117.463 117.543 117.523 117.591 117.626 117.696 117.716 117.753 117.828 117.843 117.908 117.958 118.131 119.016 117.996 118.066 118.131 118.201 118.258 118.353 118.423 118.513 118.576 118.628 118.703 118.771 118.841 118.891 118.908 118.958 119.011 119.051 119.088 119.116 119.151 119.186 119.213 119.246 119.248 119.278 119.331 119.366 119.403 119.448 119.501 119.541 119.598 119.638 119.693 119.741 119.803 119.846 119.893 119.943 120.006 120.061
97.233 97.571 97.678 97.928 98.171 98.281 98.298 98.376 98.316 98.331 98.518 98.566 98.651 98.796 98.936 99.053 99.156 99.238 99.323 99.388 99.483 99.566 99.628 99.696 99.766 99.841 99.908 99.953 100.021 100.051 100.111 100.138 100.193 100.281 100.336 100.366 100.421 100.496 100.558 100.591 100.688 100.798 100.883 100.978 101.083 101.168 101.296 101.403 101.508 101.588 101.701 101.743 101.771 101.813 101.843 101.896 101.953 101.956 101.956 101.978 101.966 101.941 101.933 101.896 101.838 101.781 101.763 101.708 101.673 101.636 101.573 101.531 101.496 101.436 101.401 101.388 101.388 101.366 101.371 101.373 101.401 101.406 101.396 101.431 101.443 101.473 101.466 101.498 101.536 101.563 101.598 101.631 101.666 101.701 101.741 101.771 101.781 101.818 101.853 101.886 101.913 101.936 101.971 102.018 102.073 102.111 102.138 102.258 102.858 102.118 102.168 102.263 102.363 102.468 102.536 102.598 102.661 102.721 102.788 102.903 102.973 103.033 103.123 103.206 103.278 103.353 103.431 103.473 103.531 103.546 103.568 103.578 103.608 103.636 103.648 103.688 103.728 103.786 103.846 103.916 103.971 104.041 104.113 104.168 104.231 104.286 104.351 104.411 104.471 104.546 104.648 104.711 104.803 104.891 104.988 105.096 105.211 105.328 105.446 105.543 105.658 105.758 105.876 105.991 106.086 106.201 106.301 106.396 106.498 106.601 106.668 106.753 106.828 106.923 107.013 107.101 107.171 107.268 107.366 107.451 107.548 107.641 107.718 107.791 107.861 107.938 107.943 107.998 108.058 108.068 108.098 108.073 108.121 108.148 108.133 108.956 108.811 108.143 108.238 108.313 108.401 108.463 108.536 108.576 108.646 108.683 108.731 108.778 108.848 108.918 108.986 109.051 109.131 109.193 109.258 109.351 109.408 109.486 109.576 109.666 109.753 109.848 109.933 110.033 110.138 110.236 110.331 110.453 110.551 110.671 110.783 110.901 111.013 111.133 111.246 111.373 111.458 111.566 111.638 111.711 111.803 112.273 112.641 112.071 112.203 112.321 112.398 112.536 112.598 112.691 112.781 112.856 112.921 113.006 113.093 113.193 113.296 113.348 113.456 113.511 113.596 113.663 113.733 113.788 113.841 113.928 113.986 114.041 114.113 114.161 114.236 114.293 114.353 114.456 114.493 114.576 114.633 114.703 114.761 114.843 114.916 114.993 115.063 115.136 115.226 115.298 115.356 115.418 115.498 115.546 115.623 115.688 115.718 115.781 115.848 115.896 115.961 116.013 116.056 116.063 116.126 116.136 116.213 116.226 116.266 116.328 116.368 116.403 116.428 116.481 116.503 116.553 116.561 116.576 116.553 116.558 117.128 117.921 116.858 116.941 117.021 117.098 117.168 117.236 117.311 117.376 117.453 117.488 117.611 117.641 117.653 117.688 117.741 117.793 117.821 117.863 117.923 117.971 118.011 118.123 118.191 119.118 118.223 118.178 118.258 118.316 118.381 118.461 118.516 118.578 118.643 118.716 118.771 118.856 118.911 118.951 118.973 119.053 119.088 119.138 119.163 119.191 119.223 119.256 119.286 119.308 119.311 119.351 119.411 119.421 119.478 119.518 119.553 119.611 119.663 119.711 119.771 119.816 119.863 119.903 119.991 120.033 120.081 120.138
95.983 96.318 96.538 96.871 97.238 97.688 98.066 98.466 98.836 99.056 99.338 99.308 99.283 99.358 99.373 99.298 99.293 99.336 99.433 99.498 99.583 99.673 99.728 99.776 99.838 99.921 100.006 100.048 100.101 100.191 100.223 100.248 100.328 100.378 100.426 100.491 100.543 100.626 100.678 100.738 100.813 100.913 101.013 101.133 101.248 101.323 101.438 101.531 101.636 101.756 101.828 101.878 101.946 101.951 101.996 102.033 102.081 102.093 102.118 102.131 102.138 102.136 102.101 102.076 102.023 101.993 101.946 101.918 101.856 101.821 101.761 101.711 101.683 101.641 101.616 101.573 101.591 101.566 101.551 101.566 101.576 101.588 101.601 101.643 101.646 101.656 101.701 101.716 101.763 101.778 101.808 101.836 101.873 101.903 101.936 102.006 102.016 102.031 102.058 102.113 102.128 102.163 102.181 102.253 102.293 102.321 102.366 102.583 103.178 102.481 102.388 102.476 102.616 102.691 102.756 102.826 102.911 102.966 103.036 103.113 103.191 103.253 103.346 103.433 103.493 103.596 103.633 103.688 103.733 103.763 103.761 103.798 103.808 103.798 103.848 103.873 103.911 103.976 104.046 104.096 104.166 104.233 104.306 104.346 104.413 104.456 104.531 104.603 104.668 104.728 104.821 104.898 104.998 105.071 105.188 105.276 105.411 105.506 105.638 105.753 105.848 105.976 106.091 106.196 106.306 106.393 106.493 106.603 106.706 106.786 106.861 106.958 107.046 107.128 107.213 107.286 107.378 107.473 107.553 107.646 107.736 107.816 107.891 107.993 108.048 108.111 108.163 108.201 108.231 108.253 108.253 108.238 108.283 108.318 108.323 108.906 109.356 108.286 108.386 108.458 108.561 108.636 108.681 108.751 108.798 108.826 108.876 108.923 109.006 109.046 109.131 109.203 109.276 109.353 109.418 109.476 109.563 109.661 109.721 109.838 109.923 110.011 110.116 110.201 110.316 110.428 110.543 110.653 110.761 110.876 111.001 111.113 111.221 111.331 111.446 111.546 111.643 111.743 111.818 111.871 111.968 112.271 112.873 112.268 112.383 112.473 112.566 112.676 112.731 112.836 112.908 113.011 113.091 113.173 113.258 113.351 113.451 113.528 113.598 113.686 113.751 113.816 113.896 113.941 113.988 114.063 114.143 114.201 114.258 114.311 114.376 114.446 114.483 114.583 114.641 114.708 114.771 114.868 114.931 115.003 115.068 115.128 115.221 115.286 115.391 115.441 115.513 115.578 115.628 115.706 115.761 115.836 115.881 115.926 116.016 116.053 116.123 116.166 116.216 116.238 116.286 116.303 116.368 116.366 116.436 116.456 116.478 116.538 116.586 116.611 116.638 116.671 116.703 116.713 116.641 116.663 117.148 117.808 116.988 117.036 117.143 117.211 117.283 117.343 117.411 117.491 117.521 117.606 117.688 117.743 117.793 117.811 117.838 117.898 117.926 117.963 118.018 118.088 118.121 118.213 118.236 119.056 118.393 118.271 118.351 118.438 118.483 118.571 118.638 118.676 118.751 118.821 118.881 118.963 118.998 119.046 119.108 119.138 119.178 119.236 119.246 119.291 119.316 119.348 119.381 119.376 119.413 119.423 119.473 119.518 119.561 119.593 119.646 119.696 119.743 119.791 119.848 119.911 119.946 119.991 120.046 120.083 120.163 120.216
95.968 96.186 96.421 96.616 96.758 96.971 97.146 97.378 97.646 97.951 98.283 98.681 99.138 99.486 99.788 100.058 100.081 99.981 99.951 99.801 99.811 99.786 99.826 99.883 99.956 100.001 100.048 100.113 100.163 100.236 100.296 100.338 100.426 100.476 100.558 100.603 100.671 100.726 100.801 100.878 100.956 101.038 101.136 101.253 101.356 101.456 101.536 101.663 101.773 101.848 101.971 102.061 102.076 102.076 102.136 102.191 102.191 102.241 102.246 102.248 102.286 102.291 102.276 102.228 102.198 102.161 102.156 102.116 102.068 102.026 101.963 101.903 101.883 101.836 101.796 101.786 101.781 101.768 101.768 101.758 101.771 101.798 101.806 101.833 101.856 101.876 101.908 101.931 101.941 101.973 102.006 102.051 102.078 102.143 102.168 102.201 102.226 102.243 102.271 102.328 102.353 102.388 102.433 102.471 102.511 102.543 102.618 102.828 103.443 102.708 102.633 102.741 102.853 102.931 103.011 103.076 103.136 103.211 103.261 103.331 103.436 103.511 103.576 103.661 103.728 103.783 103.838 103.878 103.943 103.958 103.991 103.991 103.973 103.976 104.023 104.063 104.113 104.163 104.228 104.288 104.338 104.401 104.491 104.546 104.616 104.668 104.723 104.786 104.856 104.941 105.026 105.103 105.203 105.281 105.381 105.493 105.603 105.713 105.843 105.958 106.058 106.156 106.281 106.381 106.491 106.603 106.701 106.816 106.931 107.003 107.088 107.158 107.256 107.346 107.413 107.493 107.578 107.673 107.751 107.853 107.931 108.021 108.118 108.176 108.238 108.288 108.348 108.371 108.398 108.441 108.433 108.426 108.453 108.478 108.513 108.968 109.841 108.488 108.528 108.638 108.716 108.786 108.853 108.888 108.938 108.971 109.031 109.066 109.146 109.213 109.258 109.358 109.431 109.513 109.571 109.643 109.741 109.811 109.903 110.008 110.106 110.216 110.318 110.418 110.516 110.623 110.758 110.858 110.961 111.073 111.193 111.306 111.401 111.511 111.611 111.731 111.806 111.911 111.978 112.048 112.136 112.383 113.243 112.596 112.526 112.633 112.738 112.831 112.906 112.993 113.056 113.156 113.236 113.333 113.428 113.513 113.606 113.658 113.761 113.843 113.918 113.968 114.043 114.096 114.158 114.236 114.321 114.348 114.416 114.458 114.543 114.586 114.656 114.746 114.796 114.876 114.936 115.018 115.073 115.138 115.201 115.288 115.383 115.456 115.533 115.606 115.676 115.758 115.811 115.883 115.951 115.991 116.036 116.096 116.161 116.221 116.261 116.316 116.358 116.393 116.418 116.456 116.518 116.526 116.593 116.608 116.653 116.681 116.731 116.766 116.791 116.803 116.831 116.843 116.763 116.886 117.616 118.038 117.093 117.171 117.256 117.321 117.371 117.433 117.511 117.593 117.653 117.693 117.793 117.851 117.873 117.903 117.961 117.981 118.038 118.088 118.141 118.176 118.231 118.318 118.311 119.101 118.571 118.348 118.446 118.521 118.578 118.668 118.731 118.783 118.863 118.928 119.003 119.051 119.101 119.156 119.206 119.251 119.278 119.306 119.346 119.376 119.401 119.416 119.441 119.486 119.486 119.516 119.533 119.593 119.628 119.668 119.726 119.768 119.803 119.876 119.911 119.968 120.018 120.073 120.118 120.173 120.216 120.298
97.206 97.291 97.438 97.371 97.371 97.321 97.383 97.433 97.523 97.656 97.756 97.913 98.076 98.251 98.476 98.843 99.348 99.768 100.193 100.471 100.541 100.581 100.343 100.138 100.113 100.068 100.146 100.186 100.236 100.303 100.341 100.413 100.476 100.551 100.636 100.693 100.778 100.843 100.921 100.978 101.071 101.163 101.248 101.348 101.463 101.546 101.643 101.761 101.863 101.968 102.061 102.156 102.188 102.216 102.258 102.311 102.346 102.388 102.393 102.406 102.413 102.423 102.428 102.393 102.331 102.318 102.303 102.273 102.226 102.173 102.123 102.073 102.066 102.018 101.966 101.973 101.958 101.958 101.948 101.941 101.953 101.986 101.993 102.038 102.048 102.071 102.103 102.131 102.181 102.186 102.218 102.281 102.298 102.356 102.383 102.416 102.436 102.456 102.513 102.528 102.573 102.613 102.671 102.703 102.736 102.773 102.841 103.001 103.603 102.953 102.848 102.998 103.103 103.146 103.221 103.296 103.363 103.431 103.501 103.556 103.643 103.726 103.798 103.863 103.933 103.983 104.051 104.106 104.146 104.173 104.196 104.181 104.193 104.188 104.213 104.261 104.296 104.351 104.418 104.478 104.543 104.618 104.688 104.731 104.793 104.868 104.916 104.991 105.056 105.128 105.206 105.288 105.386 105.478 105.568 105.678 105.791 105.901 106.023 106.136 106.258 106.391 106.493 106.616 106.713 106.823 106.886 107.023 107.113 107.183 107.286 107.356 107.463 107.546 107.616 107.703 107.771 107.863 107.953 108.023 108.118 108.193 108.293 108.366 108.431 108.496 108.518 108.546 108.601 108.633 108.626 108.601 108.618 108.646 108.676 109.036 110.018 108.688 108.818 108.881 108.896 108.903 108.988 109.043 109.068 109.128 109.163 109.238 109.301 109.361 109.431 109.521 109.593 109.688 109.756 109.848 109.913 110.011 110.106 110.206 110.336 110.418 110.521 110.618 110.741 110.841 110.956 111.058 111.178 111.273 111.381 111.498 111.596 111.691 111.786 111.888 111.976 112.083 112.146 112.228 112.276 112.441 113.291 112.838 112.661 112.778 112.883 112.961 113.063 113.133 113.223 113.333 113.391 113.503 113.608 113.668 113.756 113.831 113.936 114.001 114.076 114.131 114.213 114.266 114.331 114.393 114.461 114.498 114.566 114.631 114.698 114.756 114.826 114.886 114.961 115.023 115.113 115.156 115.238 115.303 115.383 115.453 115.531 115.621 115.701 115.766 115.851 115.918 115.981 116.053 116.101 116.171 116.216 116.276 116.343 116.381 116.406 116.478 116.513 116.543 116.588 116.606 116.676 116.686 116.731 116.766 116.783 116.831 116.876 116.888 116.923 116.931 116.978 116.971 116.996 117.696 118.276 117.833 117.201 117.291 117.396 117.443 117.486 117.543 117.598 117.673 117.751 117.793 117.896 117.961 117.981 118.018 118.066 118.101 118.143 118.168 118.263 118.296 118.306 118.398 118.418 119.063 118.931 118.453 118.548 118.638 118.711 118.778 118.816 118.868 118.956 119.003 119.061 119.123 119.178 119.223 119.278 119.333 119.376 119.413 119.403 119.463 119.498 119.493 119.536 119.543 119.568 119.598 119.648 119.673 119.723 119.766 119.791 119.858 119.893 119.978 119.996 120.053 120.131 120.156 120.206 120.266 120.306 120.373
96.523 96.786 97.213 97.586 97.726 98.003 98.233 98.451 98.736 98.551 98.533 98.518 98.386 98.381 98.401 98.511 98.678 98.818 99.003 99.208 99.526 100.071 100.493 100.708 100.791 100.736 100.653 100.456 100.356 100.386 100.433 100.488 100.551 100.618 100.681 100.768 100.851 100.931 101.013 101.096 101.188 101.281 101.346 101.448 101.563 101.646 101.731 101.853 101.961 102.068 102.163 102.253 102.296 102.326 102.386 102.423 102.456 102.501 102.541 102.568 102.588 102.568 102.573 102.548 102.491 102.478 102.461 102.423 102.401 102.361 102.298 102.266 102.238 102.196 102.153 102.143 102.163 102.151 102.136 102.138 102.158 102.163 102.203 102.218 102.243 102.283 102.311 102.308 102.361 102.376 102.431 102.463 102.508 102.563 102.601 102.638 102.678 102.698 102.726 102.768 102.808 102.848 102.891 102.948 102.986 103.026 103.083 103.256 103.931 103.161 103.096 103.191 103.301 103.398 103.448 103.511 103.608 103.678 103.733 103.791 103.878 103.951 104.021 104.068 104.153 104.216 104.273 104.351 104.361 104.391 104.386 104.371 104.371 104.396 104.408 104.456 104.506 104.556 104.611 104.668 104.718 104.793 104.858 104.918 104.968 105.036 105.086 105.153 105.218 105.316 105.393 105.486 105.573 105.686 105.791 105.881 106.016 106.128 106.236 106.353 106.443 106.573 106.698 106.808 106.898 107.013 107.123 107.218 107.326 107.418 107.511 107.598 107.673 107.733 107.811 107.916 107.968 108.063 108.148 108.218 108.316 108.398 108.471 108.561 108.618 108.661 108.698 108.743 108.776 108.808 108.803 108.778 108.803 108.828 108.796 109.053 110.303 108.966 108.923 108.983 109.038 109.051 109.133 109.186 109.226 109.273 109.328 109.406 109.468 109.533 109.608 109.693 109.786 109.848 109.951 110.048 110.131 110.231 110.328 110.431 110.541 110.643 110.726 110.841 110.943 111.038 111.138 111.256 111.353 111.466 111.571 111.671 111.763 111.883 111.953 112.041 112.153 112.251 112.331 112.396 112.463 112.586 113.328 113.316 112.818 112.913 113.031 113.136 113.238 113.311 113.401 113.491 113.561 113.676 113.753 113.831 113.913 114.013 114.078 114.181 114.231 114.313 114.373 114.431 114.501 114.558 114.621 114.673 114.728 114.788 114.846 114.896 114.991 115.036 115.101 115.166 115.253 115.326 115.393 115.463 115.543 115.618 115.703 115.798 115.866 115.953 116.038 116.108 116.151 116.223 116.271 116.341 116.396 116.456 116.501 116.546 116.588 116.641 116.686 116.711 116.761 116.773 116.816 116.823 116.891 116.908 116.938 116.956 117.016 117.031 117.066 117.096 117.106 117.133 117.408 118.123 117.936 117.668 117.303 117.411 117.491 117.526 117.591 117.646 117.691 117.771 117.828 117.873 117.993 118.056 118.086 118.108 118.166 118.188 118.246 118.283 118.351 118.416 118.406 118.498 118.536 119.051 119.008 118.561 118.648 118.731 118.783 118.858 118.918 118.983 119.053 119.116 119.166 119.238 119.311 119.328 119.378 119.411 119.458 119.481 119.521 119.523 119.538 119.573 119.596 119.618 119.636 119.671 119.703 119.738 119.773 119.818 119.838 119.921 119.976 120.026 120.066 120.128 120.176 120.221 120.276 120.316 120.391 120.416
96.218 96.428 96.626 96.833 97.098 97.358 97.566 97.861 98.143 98.431 98.726 99.086 99.331 99.401 99.413 99.361 99.168 99.058 99.081 99.116 99.216 99.373 99.526 99.751 100.088 100.516 100.888 101.116 101.143 100.956 100.893 100.648 100.648 100.673 100.746 100.821 100.913 100.991 101.071 101.163 101.266 101.341 101.456 101.561 101.641 101.733 101.801 101.916 102.031 102.166 102.261 102.341 102.408 102.451 102.483 102.556 102.588 102.616 102.668 102.721 102.716 102.756 102.733 102.706 102.678 102.633 102.621 102.596 102.566 102.528 102.486 102.448 102.411 102.393 102.328 102.328 102.348 102.326 102.341 102.328 102.373 102.348 102.398 102.428 102.433 102.458 102.473 102.521 102.558 102.593 102.626 102.683 102.731 102.783 102.803 102.838 102.886 102.926 102.948 102.986 103.046 103.081 103.123 103.158 103.226 103.266 103.338 103.486 104.086 103.538 103.331 103.438 103.553 103.623 103.681 103.758 103.851 103.901 103.971 104.048 104.093 104.173 104.251 104.296 104.361 104.436 104.516 104.543 104.568 104.613 104.583 104.588 104.608 104.616 104.606 104.623 104.681 104.728 104.786 104.856 104.926 104.993 105.066 105.116 105.173 105.243 105.293 105.371 105.443 105.511 105.603 105.668 105.778 105.858 105.983 106.086 106.198 106.318 106.431 106.566 106.673 106.786 106.901 107.008 107.136 107.243 107.326 107.443 107.523 107.616 107.723 107.788 107.891 107.966 108.038 108.111 108.193 108.266 108.348 108.421 108.511 108.568 108.646 108.703 108.768 108.828 108.873 108.906 108.963 108.966 108.998 108.983 109.006 108.996 108.938 109.108 110.386 109.198 109.031 109.113 109.143 109.161 109.248 109.326 109.386 109.436 109.511 109.586 109.651 109.733 109.813 109.883 109.993 110.083 110.146 110.243 110.368 110.446 110.551 110.658 110.776 110.866 110.946 111.058 111.153 111.228 111.343 111.443 111.538 111.638 111.753 111.833 111.956 112.041 112.121 112.223 112.331 112.406 112.488 112.563 112.633 112.738 113.383 113.503 112.963 113.061 113.173 113.308 113.393 113.451 113.573 113.636 113.736 113.833 113.906 114.001 114.076 114.168 114.261 114.341 114.423 114.466 114.538 114.611 114.666 114.746 114.781 114.848 114.911 114.951 115.016 115.071 115.148 115.223 115.276 115.358 115.393 115.493 115.563 115.638 115.726 115.796 115.878 115.958 116.046 116.138 116.216 116.288 116.346 116.396 116.456 116.511 116.571 116.626 116.676 116.718 116.771 116.818 116.838 116.893 116.896 116.928 116.953 116.993 117.023 117.061 117.086 117.131 117.146 117.171 117.203 117.241 117.243 117.278 117.663 118.411 117.828 117.583 117.401 117.518 117.581 117.626 117.673 117.723 117.801 117.858 117.936 117.971 118.083 118.126 118.176 118.201 118.256 118.298 118.353 118.388 118.451 118.516 118.501 118.628 118.621 119.058 119.263 118.676 118.758 118.846 118.871 118.933 119.011 119.083 119.141 119.203 119.253 119.331 119.368 119.428 119.458 119.496 119.526 119.561 119.571 119.618 119.626 119.643 119.666 119.708 119.706 119.743 119.776 119.788 119.848 119.871 119.948 120.003 120.043 120.103 120.123 120.186 120.243 120.301 120.341 120.396 120.468 120.483
96.161 96.328 96.543 96.746 96.943 97.143 97.341 97.553 97.771 97.951 98.148 98.338 98.591 98.821 99.263 99.453 99.803 99.981 100.133 99.981 99.856 99.558 99.561 99.701 99.808 99.863 99.976 100.158 100.508 100.906 101.306 101.376 101.378 101.118 101.073 100.936 100.956 101.046 101.121 101.218 101.298 101.403 101.516 101.621 101.743 101.841 101.916 102.021 102.131 102.251 102.371 102.456 102.526 102.543 102.596 102.653 102.698 102.723 102.773 102.796 102.841 102.868 102.871 102.836 102.828 102.798 102.778 102.743 102.701 102.673 102.661 102.618 102.583 102.558 102.528 102.491 102.496 102.506 102.501 102.523 102.523 102.541 102.563 102.606 102.628 102.651 102.676 102.703 102.753 102.776 102.818 102.871 102.906 102.966 103.006 103.056 103.108 103.143 103.163 103.196 103.261 103.306 103.326 103.398 103.456 103.488 103.538 103.683 104.383 103.816 103.558 103.693 103.781 103.851 103.926 104.008 104.083 104.158 104.223 104.281 104.333 104.416 104.471 104.531 104.596 104.653 104.698 104.753 104.783 104.796 104.798 104.801 104.796 104.803 104.808 104.838 104.883 104.923 104.973 105.043 105.113 105.178 105.243 105.318 105.383 105.431 105.476 105.558 105.626 105.696 105.788 105.888 105.966 106.088 106.168 106.286 106.418 106.518 106.633 106.756 106.891 107.001 107.126 107.243 107.353 107.458 107.546 107.656 107.728 107.836 107.931 108.008 108.101 108.183 108.251 108.306 108.376 108.456 108.516 108.598 108.676 108.748 108.833 108.893 108.956 109.001 109.048 109.083 109.123 109.146 109.123 109.168 109.148 109.106 109.051 109.176 110.508 109.273 109.218 109.243 109.308 109.371 109.421 109.526 109.566 109.641 109.698 109.753 109.846 109.936 110.006 110.113 110.193 110.281 110.391 110.481 110.573 110.656 110.776 110.873 110.981 111.066 111.158 111.246 111.333 111.436 111.523 111.631 111.726 111.841 111.908 112.021 112.118 112.203 112.288 112.386 112.486 112.563 112.661 112.718 112.813 112.911 113.423 113.843 113.138 113.213 113.321 113.466 113.556 113.621 113.723 113.796 113.903 113.968 114.071 114.143 114.243 114.343 114.406 114.503 114.573 114.658 114.726 114.771 114.831 114.888 114.946 115.006 115.068 115.118 115.186 115.276 115.316 115.366 115.456 115.518 115.578 115.666 115.733 115.813 115.918 115.991 116.081 116.138 116.226 116.308 116.386 116.441 116.521 116.576 116.636 116.693 116.756 116.803 116.866 116.883 116.941 116.958 116.993 117.046 117.058 117.081 117.103 117.138 117.158 117.218 117.226 117.251 117.291 117.308 117.336 117.371 117.393 117.423 117.676 118.623 117.801 117.511 117.483 117.573 117.653 117.703 117.783 117.801 117.911 117.936 118.018 118.058 118.153 118.231 118.243 118.293 118.366 118.396 118.438 118.488 118.546 118.603 118.606 118.708 118.726 119.041 119.413 118.766 118.843 118.918 118.978 119.028 119.113 119.158 119.208 119.291 119.333 119.386 119.431 119.498 119.541 119.583 119.608 119.628 119.671 119.693 119.693 119.716 119.748 119.781 119.791 119.798 119.848 119.873 119.918 119.946 119.986 120.053 120.108 120.153 120.191 120.253 120.286 120.351 120.401 120.458 120.488 120.551
96.008 96.218 96.406 96.606 96.826 97.053 97.248 97.466 97.663 97.853 98.038 98.203 98.343 98.501 98.691 98.851 99.031 99.206 99.483 99.896 100.358 100.106 99.718 99.781 100.028 100.438 100.223 100.143 100.171 100.196 100.323 100.498 100.793 101.143 101.526 101.658 101.641 101.591 101.346 101.386 101.356 101.451 101.548 101.663 101.783 101.901 101.976 102.103 102.206 102.318 102.458 102.553 102.608 102.658 102.701 102.771 102.811 102.856 102.903 102.908 102.961 102.983 102.978 102.981 102.958 102.938 102.911 102.893 102.878 102.838 102.828 102.771 102.736 102.731 102.678 102.673 102.663 102.671 102.686 102.708 102.731 102.728 102.748 102.781 102.808 102.831 102.853 102.898 102.926 102.976 103.026 103.071 103.116 103.166 103.201 103.256 103.271 103.323 103.343 103.418 103.461 103.511 103.538 103.606 103.651 103.713 103.756 103.876 104.676 104.046 103.801 103.901 104.001 104.071 104.156 104.256 104.306 104.361 104.433 104.481 104.536 104.613 104.673 104.741 104.796 104.846 104.903 104.948 104.978 105.003 104.991 104.986 104.973 104.988 105.016 105.028 105.068 105.111 105.173 105.253 105.281 105.371 105.438 105.508 105.563 105.611 105.686 105.731 105.813 105.891 105.976 106.071 106.146 106.261 106.383 106.491 106.603 106.738 106.858 106.986 107.093 107.226 107.343 107.481 107.563 107.676 107.763 107.841 107.956 108.031 108.126 108.193 108.301 108.353 108.428 108.508 108.588 108.653 108.736 108.793 108.853 108.936 108.988 109.048 109.103 109.181 109.223 109.243 109.296 109.298 109.306 109.291 109.246 109.193 109.153 109.211 110.613 109.733 109.368 109.483 109.526 109.581 109.633 109.711 109.773 109.836 109.911 109.998 110.061 110.148 110.218 110.298 110.391 110.506 110.596 110.681 110.788 110.886 110.986 111.098 111.168 111.276 111.358 111.431 111.526 111.618 111.706 111.801 111.913 112.006 112.091 112.208 112.296 112.378 112.483 112.593 112.673 112.746 112.848 112.896 112.983 113.061 113.481 114.058 113.273 113.358 113.491 113.603 113.718 113.796 113.871 113.966 114.048 114.136 114.221 114.308 114.378 114.491 114.583 114.651 114.743 114.806 114.883 114.943 115.023 115.066 115.113 115.163 115.243 115.301 115.361 115.413 115.478 115.536 115.618 115.678 115.761 115.818 115.893 115.973 116.061 116.161 116.251 116.311 116.408 116.503 116.583 116.618 116.701 116.753 116.806 116.866 116.933 116.956 117.011 117.061 117.086 117.113 117.143 117.171 117.196 117.221 117.263 117.286 117.306 117.348 117.381 117.411 117.411 117.438 117.458 117.503 117.546 117.556 117.631 118.743 118.103 117.598 117.571 117.708 117.743 117.816 117.841 117.918 117.973 118.048 118.086 118.151 118.241 118.288 118.333 118.393 118.423 118.483 118.531 118.568 118.608 118.678 118.696 118.778 118.816 119.118 119.593 118.866 118.926 119.018 119.068 119.121 119.193 119.266 119.316 119.386 119.448 119.491 119.528 119.573 119.611 119.668 119.676 119.718 119.736 119.743 119.766 119.798 119.806 119.841 119.856 119.873 119.921 119.938 119.961 120.011 120.056 120.123 120.166 120.218 120.276 120.316 120.363 120.426 120.481 120.526 120.581 120.623
95.866 96.061 96.273 96.458 96.698 96.923 97.136 97.336 97.548 97.741 97.931 98.101 98.253 98.416 98.596 98.743 98.886 99.003 99.136 99.338 99.456 99.623 99.721 99.853 100.401 101.263 101.143 101.018 101.011 100.756 100.531 100.386 100.361 100.411 100.536 100.726 101.158 101.541 101.778 102.058 102.033 102.033 101.833 101.763 101.828 101.936 102.053 102.148 102.226 102.346 102.486 102.578 102.663 102.738 102.808 102.856 102.901 102.966 103.003 103.026 103.051 103.088 103.121 103.096 103.091 103.056 103.046 103.023 103.018 102.991 102.961 102.923 102.891 102.876 102.833 102.823 102.823 102.833 102.848 102.871 102.888 102.878 102.911 102.953 102.963 102.996 103.028 103.056 103.121 103.163 103.198 103.238 103.296 103.341 103.403 103.436 103.496 103.523 103.558 103.593 103.658 103.711 103.746 103.806 103.871 103.926 103.983 104.093 104.813 104.351 104.021 104.111 104.218 104.301 104.373 104.438 104.516 104.586 104.636 104.686 104.758 104.816 104.878 104.936 105.018 105.081 105.123 105.146 105.181 105.196 105.211 105.183 105.168 105.201 105.223 105.238 105.263 105.316 105.373 105.431 105.488 105.556 105.626 105.676 105.733 105.791 105.863 105.926 105.998 106.076 106.168 106.276 106.356 106.461 106.553 106.686 106.786 106.903 107.058 107.158 107.296 107.421 107.548 107.666 107.783 107.861 107.961 108.056 108.166 108.241 108.316 108.401 108.503 108.576 108.648 108.701 108.786 108.856 108.911 108.968 109.038 109.111 109.161 109.213 109.273 109.328 109.358 109.418 109.446 109.471 109.456 109.401 109.348 109.261 109.226 109.401 110.401 109.948 109.561 109.666 109.726 109.788 109.851 109.926 109.993 110.048 110.121 110.208 110.288 110.361 110.423 110.516 110.616 110.716 110.828 110.903 110.983 111.088 111.176 111.278 111.373 111.478 111.541 111.633 111.731 111.803 111.888 111.996 112.091 112.203 112.298 112.376 112.488 112.576 112.661 112.778 112.843 112.953 113.023 113.096 113.176 113.233 113.553 114.183 113.668 113.516 113.641 113.761 113.871 113.951 114.043 114.128 114.213 114.286 114.386 114.461 114.548 114.628 114.728 114.823 114.903 114.986 115.041 115.111 115.158 115.223 115.291 115.346 115.403 115.486 115.536 115.591 115.636 115.713 115.776 115.831 115.921 115.981 116.053 116.156 116.243 116.323 116.408 116.516 116.596 116.673 116.751 116.788 116.856 116.916 116.966 117.026 117.096 117.108 117.153 117.198 117.226 117.268 117.278 117.323 117.346 117.353 117.376 117.423 117.428 117.468 117.508 117.536 117.523 117.571 117.591 117.616 117.656 117.693 117.683 118.716 118.261 117.653 117.646 117.751 117.853 117.878 117.921 118.011 118.066 118.131 118.181 118.231 118.321 118.391 118.431 118.478 118.528 118.588 118.601 118.666 118.708 118.751 118.788 118.851 118.906 119.101 119.836 118.998 119.028 119.098 119.183 119.236 119.323 119.361 119.426 119.486 119.528 119.591 119.636 119.686 119.713 119.751 119.773 119.811 119.806 119.836 119.858 119.873 119.868 119.921 119.941 119.956 119.996 120.023 120.043 120.098 120.158 120.203 120.258 120.293 120.328 120.398 120.441 120.486 120.553 120.598 120.641 120.688
95.718 95.938 96.118 96.323 96.548 96.751 96.966 97.206 97.408 97.613 97.793 97.958 98.126 98.321 98.461 98.643 98.798 98.931 99.063 99.203 99.323 99.476 99.641 99.793 99.953 100.091 100.353 100.603 100.901 100.953 101.226 101.293 101.158 100.963 100.703 100.606 100.633 100.718 100.911 101.301 101.686 102.243 102.493 102.463 102.473 102.308 102.218 102.208 102.301 102.428 102.541 102.606 102.701 102.796 102.866 102.953 103.028 103.056 103.118 103.143 103.173 103.208 103.246 103.236 103.193 103.191 103.176 103.171 103.163 103.118 103.113 103.071 103.046 103.016 102.973 102.983 103.001 102.986 103.006 103.033 103.066 103.048 103.088 103.101 103.161 103.178 103.203 103.221 103.293 103.336 103.386 103.413 103.466 103.523 103.576 103.608 103.666 103.718 103.748 103.803 103.888 103.921 103.956 104.006 104.056 104.121 104.183 104.296 105.081 104.526 104.241 104.328 104.443 104.506 104.556 104.651 104.721 104.768 104.846 104.908 104.946 105.026 105.078 105.121 105.223 105.261 105.336 105.378 105.388 105.411 105.416 105.396 105.406 105.411 105.421 105.446 105.476 105.501 105.548 105.606 105.666 105.726 105.803 105.858 105.893 105.968 106.051 106.106 106.186 106.266 106.351 106.448 106.553 106.646 106.746 106.888 106.998 107.136 107.261 107.386 107.511 107.626 107.756 107.861 107.956 108.048 108.151 108.261 108.351 108.428 108.526 108.601 108.676 108.733 108.826 108.901 108.951 109.018 109.096 109.146 109.233 109.276 109.326 109.373 109.408 109.468 109.523 109.596 109.638 109.643 109.606 109.513 109.453 109.426 109.506 110.036 111.088 109.948 109.753 109.876 109.936 110.011 110.038 110.136 110.203 110.266 110.343 110.421 110.496 110.568 110.648 110.726 110.823 110.906 111.001 111.101 111.206 111.296 111.388 111.456 111.558 111.656 111.741 111.838 111.926 112.008 112.081 112.181 112.288 112.398 112.501 112.591 112.681 112.783 112.868 112.963 113.041 113.126 113.201 113.283 113.341 113.403 113.568 114.311 114.026 113.656 113.793 113.933 114.028 114.106 114.196 114.281 114.361 114.461 114.541 114.616 114.691 114.793 114.878 114.971 115.056 115.131 115.221 115.251 115.316 115.378 115.456 115.506 115.571 115.641 115.698 115.776 115.818 115.891 115.938 116.003 116.098 116.158 116.248 116.316 116.426 116.511 116.588 116.693 116.746 116.826 116.898 116.966 117.028 117.083 117.133 117.171 117.241 117.258 117.301 117.331 117.343 117.396 117.413 117.428 117.473 117.486 117.501 117.546 117.566 117.591 117.623 117.646 117.638 117.691 117.706 117.721 117.748 117.781 117.781 118.681 118.376 117.713 117.721 117.853 117.926 117.951 118.041 118.088 118.131 118.206 118.266 118.318 118.391 118.478 118.513 118.536 118.611 118.653 118.696 118.738 118.798 118.851 118.888 118.928 118.983 119.098 119.946 119.061 119.106 119.186 119.266 119.333 119.406 119.461 119.508 119.581 119.628 119.668 119.728 119.758 119.786 119.831 119.861 119.886 119.893 119.941 119.946 119.956 119.986 120.003 120.018 120.023 120.063 120.096 120.136 120.186 120.238 120.281 120.308 120.376 120.426 120.483 120.536 120.591 120.638 120.683 120.736 120.786
95.588 95.781 95.958 96.173 96.371 96.591 96.806 97.051 97.241 97.418 97.633 97.806 97.991 98.153 98.348 98.523 98.661 98.846 98.961 99.106 99.248 99.356 99.506 99.616 99.783 99.938 100.093 100.193 100.288 100.431 100.673 100.701 101.053 101.223 101.406 101.508 101.428 101.071 100.911 100.946 101.056 101.251 101.513 101.901 102.458 102.786 102.923 102.836 102.701 102.588 102.603 102.698 102.788 102.868 102.918 103.023 103.116 103.156 103.198 103.266 103.293 103.356 103.346 103.363 103.318 103.296 103.308 103.271 103.281 103.268 103.248 103.231 103.203 103.178 103.146 103.141 103.133 103.148 103.158 103.196 103.216 103.213 103.251 103.266 103.311 103.348 103.366 103.406 103.446 103.501 103.533 103.578 103.623 103.706 103.748 103.796 103.853 103.911 103.926 103.991 104.063 104.101 104.138 104.191 104.233 104.326 104.388 104.478 105.228 104.943 104.418 104.523 104.633 104.716 104.778 104.856 104.923 104.991 105.046 105.096 105.151 105.226 105.288 105.353 105.406 105.488 105.538 105.571 105.586 105.613 105.583 105.613 105.628 105.618 105.623 105.653 105.671 105.698 105.748 105.798 105.846 105.931 105.951 106.036 106.098 106.166 106.216 106.301 106.383 106.461 106.553 106.628 106.723 106.818 106.951 107.071 107.198 107.331 107.448 107.571 107.691 107.833 107.956 108.038 108.143 108.263 108.353 108.458 108.543 108.628 108.713 108.788 108.871 108.933 109.001 109.086 109.133 109.193 109.256 109.326 109.386 109.441 109.496 109.546 109.581 109.646 109.686 109.686 109.673 109.656 109.658 109.786 109.966 110.223 110.528 110.908 110.876 110.026 109.946 110.071 110.161 110.208 110.273 110.348 110.411 110.476 110.546 110.631 110.706 110.778 110.853 110.938 111.031 111.131 111.196 111.298 111.391 111.493 111.578 111.656 111.758 111.863 111.938 112.028 112.126 112.216 112.301 112.406 112.501 112.603 112.686 112.783 112.898 112.991 113.058 113.151 113.246 113.323 113.411 113.453 113.531 113.593 113.696 114.398 114.316 113.808 113.943 114.063 114.193 114.278 114.341 114.431 114.513 114.603 114.693 114.781 114.866 114.951 115.051 115.138 115.206 115.311 115.361 115.413 115.486 115.531 115.611 115.676 115.726 115.811 115.876 115.921 115.986 116.041 116.113 116.181 116.241 116.328 116.393 116.491 116.571 116.663 116.751 116.866 116.923 116.983 117.041 117.131 117.178 117.238 117.271 117.321 117.386 117.403 117.406 117.488 117.473 117.523 117.533 117.551 117.598 117.596 117.631 117.651 117.693 117.716 117.728 117.768 117.758 117.788 117.818 117.841 117.861 117.906 117.888 118.503 118.596 117.836 117.803 117.928 118.006 118.056 118.143 118.178 118.216 118.291 118.341 118.401 118.443 118.563 118.591 118.631 118.671 118.771 118.776 118.833 118.913 118.931 118.978 119.031 119.078 119.181 119.978 119.338 119.193 119.268 119.368 119.426 119.511 119.548 119.628 119.656 119.701 119.743 119.808 119.833 119.851 119.931 119.941 119.951 119.976 119.983 119.998 120.018 120.051 120.068 120.068 120.103 120.128 120.158 120.203 120.273 120.303 120.353 120.393 120.453 120.488 120.536 120.576 120.636 120.708 120.741 120.793 120.853
95.433 95.626 95.803 95.988 96.221 96.411 96.653 96.873 97.056 97.271 97.451 97.628 97.828 98.023 98.191 98.378 98.538 98.698 98.861 98.998 99.133 99.241 99.381 99.521 99.666 99.813 99.951 100.073 100.193 100.276 100.361 100.451 100.518 100.651 100.756 100.948 101.426 101.753 101.776 101.618 101.513 101.318 101.316 101.388 101.551 101.871 102.353 102.861 103.168 103.316 103.253 102.958 102.878 102.938 103.036 103.088 103.156 103.233 103.273 103.336 103.416 103.446 103.446 103.463 103.466 103.463 103.428 103.418 103.406 103.398 103.388 103.371 103.343 103.311 103.288 103.293 103.278 103.298 103.328 103.338 103.358 103.368 103.388 103.423 103.473 103.501 103.541 103.571 103.623 103.661 103.688 103.733 103.786 103.851 103.898 103.946 104.016 104.076 104.106 104.153 104.233 104.278 104.321 104.368 104.421 104.483 104.563 104.661 105.521 105.013 104.581 104.746 104.851 104.933 105.008 105.061 105.126 105.196 105.223 105.298 105.371 105.423 105.476 105.551 105.611 105.651 105.696 105.726 105.753 105.776 105.771 105.786 105.806 105.813 105.806 105.828 105.851 105.896 105.933 105.968 106.046 106.103 106.141 106.178 106.263 106.313 106.376 106.458 106.538 106.618 106.718 106.808 106.901 107.018 107.126 107.256 107.386 107.483 107.618 107.753 107.866 107.986 108.093 108.233 108.331 108.433 108.541 108.653 108.718 108.821 108.873 108.943 109.036 109.123 109.208 109.261 109.336 109.403 109.446 109.498 109.526 109.556 109.596 109.613 109.651 109.738 109.838 110.158 110.351 110.796 110.976 111.048 110.903 110.838 110.598 110.316 110.118 110.121 110.198 110.296 110.348 110.403 110.478 110.563 110.608 110.686 110.761 110.836 110.891 110.973 111.053 111.133 111.223 111.318 111.408 111.496 111.588 111.691 111.781 111.866 111.963 112.051 112.151 112.241 112.326 112.441 112.531 112.621 112.726 112.801 112.906 112.996 113.123 113.198 113.266 113.361 113.451 113.548 113.586 113.643 113.716 113.773 113.863 114.393 114.668 113.946 114.083 114.221 114.343 114.438 114.506 114.588 114.678 114.756 114.841 114.926 115.011 115.098 115.198 115.298 115.381 115.458 115.503 115.568 115.646 115.703 115.783 115.843 115.908 115.971 116.028 116.078 116.141 116.226 116.276 116.328 116.401 116.486 116.561 116.643 116.731 116.846 116.913 117.011 117.081 117.138 117.211 117.286 117.328 117.346 117.396 117.438 117.503 117.526 117.543 117.603 117.596 117.636 117.646 117.673 117.688 117.711 117.726 117.763 117.793 117.828 117.843 117.873 117.878 117.906 117.933 117.948 117.941 117.993 118.011 118.313 118.843 117.981 117.873 118.003 118.071 118.133 118.183 118.258 118.321 118.363 118.438 118.466 118.553 118.643 118.701 118.726 118.776 118.838 118.861 118.921 118.971 119.021 119.081 119.101 119.206 119.271 120.038 119.523 119.286 119.361 119.471 119.551 119.608 119.623 119.696 119.753 119.783 119.838 119.868 119.898 119.956 119.991 120.026 120.023 120.046 120.046 120.073 120.101 120.108 120.133 120.151 120.158 120.211 120.218 120.271 120.308 120.356 120.411 120.468 120.518 120.573 120.623 120.666 120.716 120.778 120.813 120.893 120.938
95.283 95.478 95.648 95.848 96.076 96.286 96.503 96.706 96.906 97.078 97.296 97.476 97.641 97.833 98.041 98.211 98.378 98.551 98.698 98.848 98.993 99.136 99.276 99.401 99.558 99.686 99.826 99.943 100.053 100.171 100.283 100.363 100.451 100.551 100.643 100.756 100.858 101.031 101.323 101.626 102.101 102.363 102.138 101.868 101.683 101.711 101.828 102.051 102.328 102.861 103.276 103.538 103.636 103.291 103.158 103.181 103.248 103.271 103.333 103.391 103.468 103.498 103.536 103.563 103.591 103.571 103.566 103.548 103.536 103.518 103.501 103.486 103.468 103.453 103.436 103.431 103.441 103.431 103.461 103.491 103.486 103.511 103.533 103.571 103.601 103.631 103.696 103.733 103.741 103.788 103.836 103.858 103.936 103.983 104.058 104.103 104.158 104.221 104.253 104.313 104.388 104.438 104.496 104.543 104.601 104.661 104.736 104.798 105.693 105.248 104.778 104.931 105.031 105.126 105.173 105.258 105.336 105.396 105.416 105.491 105.536 105.608 105.661 105.726 105.793 105.846 105.868 105.918 105.938 105.961 105.981 105.971 105.978 105.983 105.988 106.008 106.046 106.063 106.101 106.158 106.221 106.258 106.321 106.391 106.413 106.478 106.563 106.621 106.698 106.778 106.888 106.951 107.071 107.173 107.293 107.423 107.541 107.686 107.796 107.931 108.058 108.181 108.298 108.413 108.518 108.603 108.703 108.783 108.901 109.003 109.076 109.146 109.226 109.288 109.311 109.386 109.433 109.468 109.541 109.668 109.823 109.968 110.236 110.461 110.841 110.936 111.136 111.236 110.956 110.701 110.496 110.343 110.193 110.173 110.206 110.251 110.303 110.346 110.411 110.481 110.548 110.608 110.678 110.746 110.788 110.883 110.953 111.011 111.096 111.183 111.253 111.356 111.416 111.526 111.626 111.718 111.801 111.893 111.976 112.086 112.173 112.278 112.376 112.468 112.566 112.653 112.756 112.831 112.946 113.046 113.141 113.228 113.333 113.418 113.501 113.576 113.636 113.731 113.796 113.838 113.898 113.966 114.018 114.476 114.791 114.108 114.251 114.366 114.501 114.608 114.666 114.748 114.828 114.911 114.993 115.093 115.171 115.271 115.358 115.443 115.543 115.593 115.678 115.743 115.791 115.858 115.941 115.996 116.071 116.123 116.203 116.248 116.313 116.371 116.431 116.491 116.571 116.638 116.726 116.811 116.888 117.001 117.088 117.173 117.253 117.298 117.351 117.423 117.456 117.491 117.538 117.568 117.626 117.636 117.661 117.696 117.726 117.751 117.763 117.786 117.801 117.801 117.836 117.866 117.901 117.933 117.953 117.976 117.993 118.013 118.018 118.051 118.058 118.086 118.106 118.213 119.033 118.103 117.956 118.073 118.178 118.196 118.268 118.333 118.381 118.413 118.506 118.578 118.636 118.716 118.778 118.811 118.846 118.888 118.963 118.998 119.053 119.096 119.173 119.166 119.331 119.368 120.026 119.883 119.361 119.446 119.568 119.643 119.688 119.748 119.781 119.836 119.886 119.903 119.946 119.991 120.048 120.043 120.076 120.106 120.116 120.131 120.168 120.173 120.203 120.223 120.256 120.241 120.306 120.328 120.363 120.411 120.466 120.501 120.571 120.611 120.656 120.708 120.748 120.826 120.868 120.901 120.956 121.006
95.166 95.351 95.513 95.716 95.898 96.121 96.333 96.546 96.756 96.941 97.128 97.321 97.476 97.661 97.858 98.051 98.231 98.386 98.533 98.706 98.856 98.998 99.131 99.276 99.423 99.561 99.691 99.778 99.928 100.038 100.161 100.243 100.356 100.476 100.553 100.681 100.813 100.918 101.041 101.166 101.356 101.658 102.083 102.521 102.591 102.476 102.191 102.011 102.076 102.256 102.466 102.753 103.398 103.758 103.153 103.231 103.303 103.366 103.428 103.498 103.548 103.586 103.631 103.638 103.673 103.701 103.691 103.673 103.638 103.656 103.628 103.631 103.623 103.603 103.588 103.568 103.571 103.586 103.598 103.626 103.658 103.668 103.713 103.738 103.756 103.791 103.818 103.863 103.881 103.931 103.973 104.028 104.066 104.116 104.173 104.241 104.293 104.356 104.396 104.483 104.546 104.583 104.661 104.698 104.758 104.811 104.888 104.966 105.741 105.521 104.936 105.096 105.163 105.281 105.353 105.438 105.528 105.563 105.623 105.686 105.726 105.786 105.876 105.926 105.963 106.031 106.078 106.091 106.126 106.138 106.148 106.161 106.173 106.171 106.166 106.188 106.218 106.241 106.298 106.343 106.388 106.418 106.478 106.528 106.578 106.648 106.723 106.791 106.871 106.946 107.036 107.138 107.253 107.368 107.466 107.586 107.721 107.848 107.966 108.088 108.238 108.351 108.471 108.573 108.686 108.761 108.851 108.933 109.006 109.091 109.136 109.196 109.351 109.481 109.653 109.931 110.273 110.618 110.891 111.113 111.251 111.266 111.193 110.956 110.836 110.536 110.323 110.238 110.218 110.236 110.278 110.306 110.346 110.388 110.438 110.496 110.513 110.551 110.603 110.678 110.738 110.786 110.853 110.933 110.993 111.061 111.153 111.223 111.283 111.378 111.451 111.533 111.651 111.723 111.826 111.941 112.011 112.133 112.191 112.291 112.393 112.521 112.608 112.691 112.791 112.901 112.988 113.073 113.161 113.266 113.361 113.448 113.566 113.631 113.703 113.788 113.858 113.921 113.993 114.036 114.091 114.141 114.223 114.506 115.046 114.258 114.406 114.551 114.636 114.758 114.826 114.896 115.006 115.098 115.158 115.253 115.318 115.413 115.526 115.628 115.686 115.751 115.833 115.878 115.956 116.031 116.101 116.173 116.221 116.308 116.346 116.418 116.483 116.551 116.611 116.678 116.733 116.806 116.863 116.958 117.041 117.141 117.213 117.301 117.373 117.438 117.511 117.548 117.606 117.623 117.683 117.736 117.746 117.773 117.791 117.806 117.861 117.863 117.883 117.898 117.921 117.931 117.946 117.976 118.016 118.013 118.041 118.076 118.078 118.111 118.128 118.163 118.158 118.181 118.203 118.298 119.186 118.263 118.043 118.146 118.271 118.281 118.376 118.423 118.433 118.523 118.578 118.651 118.728 118.813 118.868 118.891 118.916 118.981 119.036 119.083 119.143 119.208 119.271 119.246 119.406 119.446 119.958 120.143 119.476 119.546 119.631 119.743 119.808 119.846 119.886 119.941 119.961 120.001 120.056 120.088 120.116 120.143 120.183 120.178 120.203 120.218 120.243 120.271 120.271 120.298 120.326 120.343 120.388 120.408 120.451 120.491 120.541 120.586 120.651 120.708 120.748 120.811 120.836 120.886 120.938 120.988 121.043 121.086
95.046 95.193 95.368 95.571 95.758 95.978 96.168 96.348 96.548 96.768 96.958 97.138 97.336 97.503 97.713 97.898 98.056 98.203 98.363 98.528 98.693 98.816 98.961 99.096 99.278 99.408 99.521 99.661 99.746 99.903 100.026 100.126 100.231 100.361 100.453 100.576 100.708 100.836 100.966 101.103 101.271 101.413 101.571 101.831 102.153 102.563 102.891 103.001 102.571 102.356 102.323 102.408 102.591 102.798 103.041 104.083 104.001 103.716 103.571 103.576 103.668 103.688 103.728 103.748 103.741 103.781 103.761 103.761 103.743 103.736 103.756 103.741 103.728 103.736 103.738 103.723 103.738 103.736 103.761 103.776 103.793 103.823 103.858 103.883 103.901 103.928 103.966 103.963 104.016 104.056 104.108 104.146 104.188 104.241 104.311 104.373 104.398 104.486 104.551 104.586 104.668 104.738 104.803 104.853 104.908 104.958 105.006 105.113 105.941 105.653 105.058 105.183 105.323 105.448 105.561 105.651 105.686 105.711 105.796 105.858 105.933 105.976 106.031 106.073 106.118 106.208 106.238 106.268 106.308 106.316 106.343 106.356 106.338 106.368 106.363 106.371 106.393 106.428 106.463 106.513 106.551 106.563 106.623 106.698 106.763 106.796 106.893 106.943 107.053 107.131 107.211 107.323 107.421 107.518 107.638 107.743 107.891 108.011 108.128 108.241 108.371 108.473 108.581 108.691 108.788 108.931 109.096 109.283 109.523 109.936 110.313 110.491 110.751 110.836 110.918 110.928 110.856 110.793 110.743 110.478 110.498 110.316 110.298 110.281 110.316 110.348 110.383 110.393 110.443 110.458 110.491 110.548 110.571 110.606 110.661 110.673 110.718 110.718 110.783 110.853 110.921 110.983 111.038 111.121 111.183 111.246 111.346 111.418 111.503 111.591 111.683 111.763 111.848 111.943 112.058 112.158 112.228 112.341 112.436 112.516 112.631 112.736 112.833 112.923 113.021 113.121 113.196 113.291 113.391 113.476 113.586 113.668 113.758 113.858 113.921 114.006 114.056 114.113 114.201 114.241 114.288 114.346 114.396 114.588 115.276 114.493 114.563 114.671 114.801 114.943 114.981 115.043 115.161 115.246 115.311 115.408 115.481 115.596 115.671 115.763 115.838 115.923 115.981 116.036 116.123 116.171 116.251 116.343 116.403 116.446 116.506 116.588 116.641 116.706 116.758 116.846 116.896 116.958 117.061 117.133 117.211 117.286 117.371 117.453 117.533 117.578 117.648 117.706 117.751 117.763 117.831 117.848 117.863 117.903 117.893 117.941 117.951 117.983 117.991 118.006 118.038 118.053 118.061 118.081 118.146 118.121 118.156 118.178 118.193 118.218 118.226 118.248 118.268 118.276 118.298 118.303 119.248 118.561 118.128 118.231 118.348 118.378 118.436 118.501 118.543 118.621 118.676 118.723 118.813 118.883 118.946 118.986 119.001 119.078 119.126 119.168 119.246 119.306 119.361 119.363 119.476 119.556 119.963 120.373 119.641 119.651 119.748 119.853 119.916 119.938 119.993 120.018 120.043 120.091 120.113 120.151 120.193 120.221 120.253 120.276 120.291 120.311 120.341 120.351 120.378 120.388 120.403 120.441 120.466 120.496 120.556 120.583 120.628 120.683 120.733 120.793 120.836 120.876 120.933 120.983 121.046 121.076 121.121 121.186
94.908 95.083 95.248 95.416 95.613 95.808 96.008 96.173 96.391 96.593 96.786 96.996 97.153 97.361 97.536 97.716 97.868 98.048 98.198 98.363 98.531 98.666 98.826 98.966 99.148 99.258 99.381 99.503 99.633 99.746 99.861 99.983 100.073 100.196 100.313 100.436 100.581 100.721 100.863 101.043 101.196 101.378 101.516 101.696 101.866 102.073 102.236 102.651 103.206 103.306 103.026 102.666 102.593 102.703 102.846 103.126 103.966 104.283 104.336 104.001 103.813 103.808 103.793 103.813 103.816 103.803 103.811 103.826 103.836 103.831 103.848 103.851 103.848 103.856 103.831 103.843 103.853 103.863 103.886 103.898 103.921 103.973 103.991 104.006 104.038 104.063 104.098 104.118 104.133 104.168 104.231 104.261 104.323 104.376 104.426 104.473 104.541 104.613 104.658 104.718 104.801 104.871 104.928 104.976 105.036 105.076 105.156 105.236 105.941 105.928 105.141 105.273 105.433 105.583 105.691 105.766 105.838 105.898 105.963 106.041 106.088 106.166 106.211 106.253 106.318 106.381 106.416 106.481 106.521 106.548 106.551 106.538 106.558 106.536 106.566 106.551 106.581 106.621 106.648 106.678 106.731 106.766 106.798 106.853 106.941 106.991 107.038 107.106 107.173 107.271 107.353 107.451 107.551 107.643 107.741 107.848 107.951 108.093 108.248 108.516 108.583 108.733 108.878 109.426 110.101 110.281 110.386 110.368 110.416 110.348 110.446 110.266 110.111 110.018 110.088 110.191 110.233 110.258 110.336 110.376 110.418 110.423 110.451 110.491 110.516 110.566 110.608 110.638 110.661 110.668 110.698 110.723 110.753 110.788 110.823 110.851 110.893 110.926 110.983 111.043 111.106 111.156 111.221 111.303 111.371 111.468 111.546 111.611 111.701 111.811 111.901 111.981 112.073 112.176 112.273 112.368 112.458 112.568 112.641 112.746 112.863 112.988 113.063 113.158 113.263 113.353 113.436 113.513 113.606 113.703 113.801 113.903 113.998 114.073 114.151 114.196 114.276 114.316 114.386 114.436 114.468 114.523 114.608 114.718 115.498 114.921 114.723 114.823 114.961 115.083 115.146 115.218 115.301 115.406 115.481 115.571 115.643 115.738 115.818 115.911 116.001 116.066 116.136 116.218 116.298 116.346 116.423 116.496 116.561 116.623 116.688 116.758 116.826 116.858 116.953 116.993 117.043 117.133 117.186 117.298 117.361 117.451 117.516 117.613 117.683 117.726 117.801 117.836 117.886 117.926 117.946 117.966 117.986 118.038 118.033 118.053 118.066 118.098 118.121 118.133 118.161 118.163 118.173 118.201 118.226 118.233 118.276 118.298 118.296 118.313 118.338 118.343 118.356 118.378 118.388 118.398 119.291 118.808 118.248 118.296 118.421 118.461 118.533 118.578 118.633 118.701 118.768 118.831 118.888 118.961 119.048 119.068 119.118 119.171 119.223 119.268 119.323 119.398 119.458 119.488 119.523 119.653 120.126 121.631 120.031 119.763 119.831 119.938 119.998 120.016 120.071 120.106 120.116 120.183 120.218 120.261 120.301 120.328 120.333 120.373 120.391 120.413 120.441 120.433 120.463 120.476 120.523 120.553 120.568 120.611 120.663 120.708 120.756 120.801 120.851 120.903 120.938 120.998 121.028 121.068 121.143 121.196 121.223 121.283
94.783 94.933 95.101 95.283 95.476 95.658 95.848 96.051 96.231 96.406 96.591 96.811 96.993 97.186 97.388 97.543 97.716 97.871 98.038 98.211 98.356 98.521 98.666 98.846 98.978 99.113 99.261 99.383 99.478 99.601 99.706 99.848 99.943 100.066 100.168 100.301 100.411 100.578 100.726 100.891 101.071 101.273 101.458 101.628 101.816 102.011 102.178 102.326 102.528 102.763 103.153 103.603 103.591 103.258 103.003 102.981 103.103 103.281 103.746 104.333 104.368 104.248 104.023 104.043 103.851 103.873 103.873 103.906 103.918 103.918 103.918 103.941 103.923 103.943 103.926 103.936 103.963 103.973 103.966 104.003 104.023 104.053 104.056 104.078 104.118 104.143 104.163 104.186 104.231 104.278 104.313 104.348 104.396 104.438 104.473 104.538 104.626 104.703 104.766 104.846 104.908 104.951 105.003 105.058 105.126 105.178 105.248 105.333 106.028 106.083 105.246 105.371 105.528 105.686 105.801 105.896 105.976 106.031 106.101 106.188 106.238 106.306 106.368 106.406 106.461 106.526 106.561 106.618 106.656 106.678 106.678 106.691 106.688 106.701 106.701 106.723 106.738 106.756 106.786 106.821 106.858 106.891 106.913 106.951 107.023 107.073 107.148 107.226 107.291 107.338 107.416 107.503 107.736 107.913 108.188 108.461 108.818 109.181 109.433 109.786 109.336 109.043 109.071 109.288 109.466 109.516 109.491 109.523 109.586 109.703 109.828 110.071 110.141 110.113 110.208 110.298 110.351 110.413 110.466 110.543 110.606 110.661 110.661 110.691 110.746 110.766 110.801 110.816 110.851 110.848 110.881 110.923 110.928 110.963 110.993 111.028 111.068 111.123 111.163 111.238 111.296 111.356 111.441 111.498 111.581 111.668 111.741 111.838 111.941 112.028 112.118 112.223 112.303 112.423 112.503 112.601 112.716 112.798 112.873 113.003 113.096 113.201 113.283 113.396 113.491 113.596 113.663 113.746 113.818 113.931 114.023 114.118 114.201 114.273 114.333 114.373 114.448 114.538 114.576 114.633 114.673 114.716 114.768 114.853 115.541 115.118 114.876 115.001 115.126 115.253 115.321 115.376 115.461 115.571 115.636 115.713 115.821 115.921 115.996 116.091 116.153 116.238 116.298 116.358 116.448 116.513 116.573 116.668 116.736 116.768 116.843 116.916 116.968 117.036 117.096 117.161 117.223 117.288 117.358 117.428 117.531 117.608 117.658 117.758 117.828 117.893 117.958 117.986 118.021 118.068 118.068 118.081 118.141 118.168 118.168 118.181 118.208 118.233 118.243 118.243 118.281 118.261 118.298 118.296 118.328 118.358 118.391 118.386 118.411 118.406 118.436 118.461 118.458 118.473 118.483 118.496 119.188 119.266 118.356 118.366 118.491 118.556 118.613 118.676 118.733 118.766 118.836 118.918 118.961 119.066 119.116 119.158 119.206 119.266 119.306 119.381 119.416 119.478 119.556 119.593 119.651 119.731 119.986 121.703 120.676 120.021 119.926 120.038 120.086 120.111 120.183 120.183 120.221 120.263 120.303 120.346 120.371 120.406 120.403 120.456 120.461 120.488 120.521 120.533 120.548 120.578 120.603 120.648 120.691 120.713 120.773 120.801 120.866 120.893 120.948 121.001 121.076 121.093 121.168 121.203 121.256 121.306 121.366 121.386
94.668 94.818 94.986 95.188 95.323 95.506 95.681 95.883 96.083 96.271 96.443 96.628 96.846 97.038 97.206 97.373 97.536 97.706 97.876 98.048 98.211 98.361 98.551 98.676 98.823 98.966 99.108 99.221 99.353 99.481 99.583 99.691 99.813 99.926 100.028 100.151 100.286 100.411 100.586 100.743 100.931 101.141 101.343 101.508 101.741 101.943 102.131 102.293 102.441 102.596 102.728 102.946 103.311 103.716 103.948 103.681 103.373 103.246 103.316 103.413 103.743 104.366 104.623 104.746 104.588 104.191 104.076 104.058 104.193 103.991 103.991 104.028 104.026 104.026 104.018 104.016 104.018 104.058 104.046 104.091 104.136 104.153 104.193 104.203 104.228 104.233 104.256 104.278 104.323 104.381 104.376 104.416 104.431 104.478 104.561 104.618 104.691 104.766 104.853 104.906 104.968 105.031 105.096 105.151 105.208 105.283 105.263 105.381 106.183 106.183 105.391 105.446 105.623 105.783 105.926 106.006 106.096 106.173 106.236 106.296 106.356 106.438 106.473 106.516 106.586 106.636 106.693 106.711 106.751 106.771 106.781 106.791 106.783 106.796 106.813 106.793 106.808 106.858 106.881 106.946 106.998 107.076 107.146 107.261 107.493 107.521 107.671 107.838 107.938 108.233 108.408 108.611 108.816 108.946 108.881 108.878 108.876 108.828 108.821 108.846 108.843 108.878 109.006 109.156 109.383 109.576 109.731 109.943 110.136 109.786 109.908 110.706 110.933 110.408 110.411 110.463 110.571 110.656 110.698 110.756 110.796 110.851 110.851 110.908 110.923 110.968 110.988 110.981 111.033 111.043 111.061 111.121 111.113 111.143 111.181 111.198 111.256 111.306 111.343 111.423 111.478 111.546 111.631 111.701 111.778 111.883 111.953 112.063 112.153 112.258 112.341 112.458 112.541 112.638 112.736 112.846 112.951 113.016 113.121 113.228 113.318 113.433 113.546 113.621 113.713 113.821 113.876 113.971 114.048 114.126 114.233 114.331 114.398 114.483 114.518 114.583 114.671 114.696 114.778 114.808 114.856 114.886 114.951 115.023 115.646 115.616 115.038 115.156 115.291 115.393 115.498 115.541 115.633 115.748 115.798 115.896 115.993 116.088 116.151 116.248 116.326 116.413 116.468 116.541 116.611 116.691 116.748 116.796 116.888 116.933 116.986 117.071 117.136 117.203 117.261 117.301 117.383 117.446 117.536 117.591 117.653 117.746 117.823 117.886 117.978 118.041 118.093 118.143 118.166 118.186 118.226 118.241 118.261 118.293 118.291 118.293 118.318 118.346 118.368 118.358 118.368 118.373 118.386 118.416 118.448 118.463 118.488 118.493 118.511 118.511 118.541 118.536 118.543 118.578 118.586 118.606 119.218 119.453 118.588 118.436 118.558 118.636 118.716 118.768 118.816 118.886 118.953 118.988 119.053 119.143 119.213 119.276 119.293 119.333 119.416 119.468 119.516 119.573 119.671 119.703 119.776 119.811 120.388 120.921 120.666 120.373 120.028 120.106 120.186 120.238 120.261 120.276 120.318 120.363 120.403 120.433 120.498 120.486 120.521 120.543 120.578 120.588 120.608 120.628 120.661 120.703 120.716 120.756 120.781 120.823 120.848 120.916 120.953 121.011 121.056 121.116 121.151 121.193 121.251 121.308 121.351 121.393 121.443 121.498
94.536 94.703 94.873 95.023 95.188 95.371 95.561 95.753 95.916 96.098 96.283 96.471 96.666 96.846 97.031 97.208 97.386 97.533 97.723 97.888 98.031 98.208 98.376 98.518 98.668 98.801 98.941 99.066 99.206 99.348 99.453 99.541 99.671 99.783 99.901 100.021 100.133 100.291 100.438 100.631 100.803 101.001 101.208 101.396 101.621 101.838 102.033 102.228 102.371 102.533 102.693 102.831 102.956 103.098 103.438 104.001 104.286 104.021 103.516 103.533 103.541 103.658 103.801 104.188 104.586 104.881 104.928 104.751 104.811 104.773 104.948 104.753 104.783 104.773 104.673 104.661 104.518 104.458 104.448 104.638 104.641 104.506 104.601 104.658 104.626 104.548 104.573 104.588 104.468 104.531 104.516 104.543 104.571 104.663 104.671 104.738 104.826 104.871 105.121 105.136 105.258 105.443 105.438 105.448 105.588 105.586 105.773 105.826 106.368 106.336 105.646 105.683 105.811 105.946 106.048 106.101 106.228 106.331 106.358 106.503 106.601 106.678 106.793 106.968 107.043 107.156 107.266 107.356 107.573 107.716 107.671 107.916 107.913 107.863 107.853 107.896 108.006 108.076 108.096 108.146 108.176 108.131 108.108 108.136 108.103 108.121 108.171 108.141 108.008 107.926 107.956 107.908 107.918 107.981 108.063 108.153 108.316 108.453 108.698 108.973 109.386 109.753 110.066 110.456 110.626 110.823 110.933 111.071 111.031 110.473 110.013 110.431 111.343 110.706 110.756 110.698 110.758 110.846 110.918 110.928 110.968 111.028 111.053 111.066 111.116 111.143 111.168 111.203 111.213 111.233 111.276 111.283 111.311 111.328 111.361 111.403 111.438 111.488 111.546 111.608 111.693 111.756 111.823 111.916 111.988 112.058 112.176 112.268 112.383 112.463 112.583 112.668 112.763 112.868 112.966 113.078 113.163 113.268 113.358 113.451 113.556 113.676 113.763 113.846 113.936 114.028 114.103 114.178 114.261 114.358 114.433 114.518 114.596 114.678 114.723 114.778 114.858 114.881 114.951 115.006 115.011 115.056 115.131 115.203 115.701 115.763 115.208 115.321 115.436 115.568 115.651 115.721 115.813 115.903 115.968 116.048 116.148 116.246 116.328 116.416 116.506 116.563 116.621 116.696 116.771 116.858 116.896 116.968 117.031 117.106 117.151 117.226 117.308 117.361 117.413 117.486 117.558 117.623 117.701 117.771 117.813 117.891 117.978 118.043 118.141 118.178 118.236 118.268 118.301 118.306 118.358 118.403 118.398 118.421 118.413 118.436 118.436 118.456 118.476 118.491 118.488 118.516 118.518 118.521 118.548 118.566 118.603 118.628 118.628 118.628 118.646 118.648 118.658 118.663 118.676 118.711 119.086 119.691 118.713 118.526 118.653 118.723 118.783 118.828 118.896 118.973 119.031 119.071 119.176 119.233 119.303 119.363 119.401 119.448 119.501 119.576 119.608 119.661 119.753 119.816 119.871 119.933 120.973 120.753 120.606 120.586 120.118 120.196 120.273 120.306 120.331 120.386 120.426 120.463 120.481 120.543 120.573 120.603 120.603 120.633 120.671 120.686 120.733 120.733 120.778 120.788 120.821 120.836 120.896 120.951 120.968 121.021 121.066 121.116 121.173 121.208 121.258 121.321 121.376 121.393 121.448 121.513 121.561 121.616
94.416 94.568 94.718 94.886 95.063 95.228 95.416 95.573 95.783 95.953 96.121 96.311 96.498 96.688 96.861 97.041 97.213 97.386 97.561 97.723 97.871 98.056 98.203 98.368 98.493 98.643 98.791 98.921 99.061 99.183 99.303 99.406 99.518 99.656 99.761 99.901 100.011 100.171 100.311 100.503 100.678 100.873 101.061 101.266 101.461 101.698 101.888 102.113 102.296 102.478 102.651 102.776 102.921 103.063 103.158 103.321 103.746 104.208 104.483 103.846 103.721 103.798 103.793 103.701 103.721 103.866 103.963 104.016 104.226 104.391 104.511 104.518 104.561 104.581 104.778 104.828 104.903 104.981 105.013 105.051 105.073 105.161 105.278 105.313 105.316 105.316 105.366 105.346 105.278 105.246 105.276 105.313 105.186 105.303 105.421 105.611 105.566 105.701 105.941 106.026 106.091 106.163 106.211 106.106 106.288 106.543 106.483 106.428 106.833 106.743 106.498 106.571 106.763 106.871 106.923 107.033 107.093 106.986 107.041 107.113 107.168 107.278 107.268 107.303 107.216 107.173 107.396 107.333 107.443 107.536 107.506 107.471 107.518 107.556 107.593 107.571 107.453 107.391 107.323 107.278 107.251 107.271 107.266 107.293 107.363 107.433 107.466 107.513 107.561 107.751 107.911 108.116 108.353 108.651 108.983 109.318 109.553 109.873 110.228 110.376 110.468 110.518 110.563 110.711 110.716 110.731 110.831 110.963 111.191 111.408 110.428 110.281 111.638 110.981 110.996 110.973 110.978 111.076 111.136 111.128 111.161 111.166 111.213 111.238 111.288 111.313 111.366 111.356 111.393 111.413 111.443 111.486 111.498 111.523 111.543 111.598 111.631 111.683 111.756 111.813 111.901 111.968 112.018 112.118 112.206 112.301 112.378 112.486 112.611 112.711 112.813 112.896 112.998 113.096 113.206 113.263 113.393 113.518 113.603 113.686 113.791 113.881 113.988 114.068 114.151 114.223 114.311 114.403 114.463 114.556 114.626 114.711 114.788 114.863 114.908 114.948 115.016 115.078 115.146 115.168 115.208 115.253 115.311 115.381 115.696 116.386 115.448 115.503 115.596 115.736 115.833 115.896 115.961 116.053 116.131 116.221 116.328 116.396 116.488 116.583 116.648 116.723 116.781 116.846 116.938 116.993 117.066 117.123 117.206 117.258 117.321 117.388 117.431 117.521 117.593 117.643 117.713 117.781 117.826 117.931 117.983 118.058 118.126 118.208 118.281 118.303 118.353 118.413 118.453 118.446 118.473 118.506 118.513 118.548 118.566 118.558 118.566 118.596 118.591 118.598 118.618 118.616 118.618 118.628 118.671 118.678 118.688 118.698 118.716 118.728 118.751 118.751 118.756 118.766 118.768 118.783 118.991 119.868 118.838 118.603 118.721 118.818 118.881 118.933 118.991 119.051 119.131 119.186 119.258 119.306 119.406 119.453 119.496 119.533 119.618 119.668 119.721 119.773 119.843 119.928 119.958 120.023 120.733 121.323 120.536 120.898 120.203 120.296 120.376 120.413 120.438 120.503 120.516 120.531 120.571 120.618 120.673 120.696 120.728 120.746 120.753 120.806 120.803 120.848 120.871 120.911 120.921 120.951 120.998 121.036 121.098 121.138 121.156 121.218 121.266 121.333 121.363 121.428 121.473 121.523 121.571 121.608 121.668 121.698
94.296 94.436 94.588 94.778 94.938 95.088 95.276 95.446 95.613 95.791 95.961 96.138 96.333 96.518 96.701 96.861 97.046 97.203 97.381 97.563 97.721 97.886 98.033 98.211 98.338 98.488 98.643 98.778 98.923 99.046 99.151 99.243 99.386 99.483 99.606 99.748 99.881 100.031 100.191 100.378 100.551 100.738 100.941 101.128 101.343 101.558 101.743 101.956 102.161 102.373 102.536 102.683 102.846 102.981 103.133 103.228 103.336 103.513 104.166 104.843 103.873 104.116 104.873 104.456 104.318 104.118 104.011 103.858 103.771 103.781 103.826 103.831 103.863 103.891 103.911 103.973 104.036 104.096 104.096 104.121 104.123 104.251 104.286 104.316 104.293 104.356 104.458 104.543 104.581 104.683 104.671 104.748 104.781 104.871 104.943 105.093 105.053 105.048 105.078 105.086 105.186 105.188 105.288 105.406 105.503 105.586 105.538 105.706 105.738 105.843 105.781 105.926 105.918 105.896 105.923 105.963 105.998 106.036 106.088 106.193 106.308 106.418 106.516 106.648 106.661 106.736 106.736 106.793 106.861 106.946 106.908 106.903 107.211 107.361 107.398 107.553 107.638 107.801 107.963 107.913 107.903 108.133 108.138 108.308 108.508 108.601 108.628 108.841 109.013 109.156 109.293 109.331 109.508 109.598 109.688 109.853 109.961 110.068 110.091 110.223 110.336 110.443 110.551 110.643 110.741 110.828 110.916 110.981 111.036 111.618 111.106 110.428 111.563 111.368 111.181 111.238 111.221 111.241 111.318 111.313 111.333 111.356 111.406 111.433 111.448 111.513 111.546 111.558 111.586 111.596 111.631 111.663 111.673 111.713 111.753 111.778 111.828 111.873 111.951 112.023 112.088 112.176 112.238 112.328 112.413 112.508 112.626 112.723 112.838 112.941 113.051 113.136 113.238 113.338 113.441 113.526 113.646 113.736 113.813 113.926 114.011 114.096 114.188 114.273 114.358 114.446 114.528 114.593 114.673 114.751 114.813 114.916 114.978 115.048 115.131 115.133 115.201 115.266 115.323 115.331 115.376 115.413 115.483 115.531 115.791 116.426 115.588 115.663 115.783 115.906 115.983 116.058 116.138 116.221 116.301 116.378 116.483 116.551 116.648 116.736 116.808 116.856 116.923 117.011 117.071 117.138 117.211 117.291 117.353 117.418 117.473 117.548 117.603 117.668 117.746 117.796 117.866 117.926 117.998 118.061 118.131 118.216 118.271 118.348 118.416 118.448 118.513 118.556 118.581 118.578 118.601 118.646 118.656 118.653 118.683 118.696 118.703 118.701 118.708 118.713 118.713 118.751 118.751 118.738 118.776 118.773 118.788 118.813 118.831 118.848 118.838 118.828 118.863 118.871 118.858 118.896 118.976 120.021 119.041 118.681 118.806 118.906 118.986 119.043 119.083 119.138 119.211 119.261 119.336 119.431 119.518 119.543 119.631 119.666 119.708 119.771 119.818 119.868 119.936 120.023 120.061 120.138 120.768 121.896 121.271 121.018 120.283 120.373 120.461 120.503 120.531 120.561 120.638 120.656 120.688 120.723 120.766 120.796 120.816 120.861 120.883 120.911 120.923 120.953 120.961 120.996 121.031 121.071 121.098 121.123 121.188 121.221 121.276 121.318 121.386 121.438 121.461 121.521 121.576 121.601 121.668 121.718 121.768 121.811
94.166 94.338 94.481 94.653 94.811 94.978 95.133 95.313 95.483 95.626 95.828 95.991 96.171 96.368 96.548 96.696 96.873 97.031 97.223 97.398 97.546 97.706 97.868 98.048 98.191 98.343 98.496 98.636 98.768 98.871 98.983 99.108 99.233 99.346 99.458 99.608 99.743 99.888 100.061 100.208 100.413 100.593 100.808 100.998 101.191 101.408 101.591 101.811 102.031 102.216 102.401 102.578 102.688 102.853 102.986 103.093 103.193 103.356 103.636 104.686 103.931 103.881 104.076 104.758 104.931 104.906 104.878 104.836 104.811 104.796 104.791 104.751 104.778 104.753 104.721 104.746 104.738 104.698 104.711 104.753 104.703 104.648 104.603 104.603 104.561 104.563 104.528 104.461 104.436 104.466 104.456 104.458 104.548 104.468 104.513 104.496 104.676 104.678 104.711 104.786 104.848 104.898 104.961 105.041 105.256 105.311 105.418 105.471 105.571 105.696 105.903 106.051 106.236 106.283 106.386 106.753 106.791 106.963 107.108 107.363 107.496 107.626 107.753 108.031 107.988 108.186 108.171 108.198 108.311 108.321 108.428 108.486 108.636 108.533 108.543 108.566 108.548 108.608 108.611 108.633 108.683 108.678 108.668 108.818 108.778 108.853 108.898 108.951 109.053 109.151 109.246 109.371 109.493 109.608 109.716 109.846 109.971 110.098 110.243 110.343 110.441 110.528 110.666 110.761 110.861 110.946 111.043 111.133 111.168 111.703 111.588 110.591 111.536 111.788 111.413 111.423 111.423 111.418 111.471 111.491 111.521 111.546 111.581 111.606 111.648 111.696 111.728 111.748 111.778 111.788 111.813 111.838 111.873 111.886 111.943 111.971 112.046 112.098 112.153 112.241 112.283 112.388 112.463 112.541 112.653 112.748 112.856 112.968 113.068 113.181 113.281 113.371 113.463 113.553 113.671 113.766 113.856 113.946 114.028 114.126 114.213 114.306 114.408 114.498 114.566 114.658 114.746 114.811 114.888 114.948 115.033 115.091 115.153 115.228 115.286 115.316 115.366 115.418 115.471 115.526 115.561 115.588 115.646 115.686 115.911 116.578 116.113 115.816 115.913 116.038 116.168 116.223 116.271 116.391 116.478 116.546 116.646 116.728 116.813 116.891 116.966 117.021 117.098 117.166 117.228 117.298 117.361 117.431 117.506 117.563 117.638 117.721 117.748 117.833 117.893 117.966 118.021 118.078 118.158 118.208 118.313 118.341 118.421 118.488 118.553 118.608 118.628 118.691 118.718 118.723 118.751 118.771 118.763 118.808 118.811 118.808 118.831 118.831 118.836 118.843 118.851 118.856 118.866 118.851 118.883 118.901 118.883 118.931 118.936 118.943 118.951 118.933 118.956 118.963 118.968 118.981 119.003 120.021 119.296 118.768 118.898 118.981 119.053 119.128 119.161 119.241 119.318 119.361 119.431 119.518 119.601 119.651 119.723 119.758 119.816 119.863 119.911 120.006 120.041 120.118 120.166 120.258 120.508 121.513 121.086 121.208 120.413 120.456 120.538 120.583 120.623 120.678 120.718 120.746 120.793 120.838 120.861 120.883 120.926 120.963 120.981 120.993 121.028 121.071 121.086 121.113 121.143 121.156 121.228 121.248 121.301 121.341 121.401 121.438 121.491 121.546 121.568 121.658 121.681 121.738 121.791 121.816 121.866 121.916
94.046 94.208 94.361 94.533 94.686 94.841 95.023 95.148 95.343 95.513 95.671 95.848 96.033 96.208 96.373 96.526 96.718 96.886 97.063 97.243 97.386 97.536 97.696 97.861 98.016 98.161 98.306 98.453 98.593 98.716 98.846 98.953 99.081 99.198 99.323 99.441 99.598 99.748 99.898 100.071 100.256 100.458 100.643 100.863 101.078 101.248 101.448 101.638 101.846 102.051 102.236 102.391 102.538 102.681 102.826 102.958 103.061 103.166 103.531 104.486 103.823 103.761 103.883 103.946 103.991 104.108 104.348 104.506 104.526 104.638 104.883 104.881 104.976 104.943 105.048 105.131 105.116 105.106 105.218 105.256 105.208 105.393 105.383 105.478 105.516 105.621 105.486 105.463 105.466 105.591 105.546 105.643 105.678 105.593 105.603 105.701 105.788 105.781 106.113 106.101 106.118 106.186 105.406 105.341 106.426 106.436 106.466 106.618 106.621 106.791 106.851 106.958 106.978 107.073 107.196 107.276 107.388 107.496 107.508 107.646 107.716 107.828 107.901 107.941 107.936 108.031 108.118 108.151 108.176 108.196 108.246 108.268 108.341 108.356 108.388 108.403 108.438 108.478 108.498 108.571 108.621 108.673 108.731 108.778 108.848 108.896 108.993 109.058 109.178 109.271 109.376 109.513 109.626 109.746 109.886 109.996 110.121 110.226 110.368 110.461 110.543 110.678 110.773 110.863 110.973 111.078 111.196 111.296 111.373 111.723 112.121 110.911 111.481 112.081 111.696 111.651 111.556 111.581 111.611 111.656 111.688 111.736 111.756 111.778 111.801 111.876 111.886 111.926 111.936 111.968 111.991 112.006 112.048 112.086 112.123 112.166 112.238 112.286 112.363 112.443 112.491 112.603 112.676 112.763 112.863 112.958 113.081 113.171 113.283 113.393 113.486 113.598 113.693 113.768 113.873 113.971 114.061 114.166 114.253 114.338 114.421 114.506 114.601 114.693 114.778 114.843 114.921 114.988 115.083 115.148 115.213 115.268 115.353 115.411 115.456 115.506 115.543 115.588 115.633 115.706 115.736 115.773 115.813 115.856 115.986 116.638 116.231 115.976 116.096 116.228 116.326 116.406 116.468 116.558 116.626 116.701 116.801 116.886 116.963 117.053 117.108 117.178 117.241 117.323 117.373 117.441 117.503 117.583 117.653 117.723 117.781 117.841 117.921 117.981 118.051 118.108 118.171 118.223 118.283 118.358 118.443 118.486 118.571 118.641 118.701 118.756 118.781 118.816 118.843 118.868 118.881 118.873 118.886 118.931 118.938 118.933 118.918 118.938 118.941 118.973 118.946 118.986 118.971 118.963 118.998 119.003 118.996 119.031 119.046 119.061 119.048 119.028 119.041 119.053 119.083 119.091 119.096 119.961 119.628 118.908 118.971 119.086 119.151 119.221 119.263 119.346 119.406 119.461 119.531 119.618 119.698 119.771 119.816 119.848 119.901 119.961 120.011 120.086 120.151 120.198 120.253 120.356 120.578 121.631 121.876 121.491 120.603 120.546 120.606 120.683 120.748 120.781 120.801 120.843 120.876 120.916 120.948 120.981 121.018 121.056 121.061 121.103 121.138 121.156 121.183 121.211 121.233 121.281 121.296 121.351 121.396 121.433 121.473 121.536 121.568 121.623 121.696 121.728 121.786 121.828 121.873 121.921 121.981 122.031
93.926 94.063 94.226 94.398 94.551 94.741 94.876 95.033 95.201 95.356 95.541 95.696 95.856 96.061 96.208 96.376 96.563 96.703 96.911 97.051 97.196 97.381 97.568 97.703 97.843 98.006 98.158 98.313 98.416 98.531 98.666 98.796 98.903 99.041 99.168 99.296 99.441 99.601 99.738 99.906 100.101 100.298 100.481 100.693 100.903 101.081 101.258 101.458 101.668 101.881 102.023 102.186 102.343 102.496 102.633 102.751 102.823 102.903 103.716 104.221 103.491 103.646 103.741 103.831 103.883 103.976 104.073 104.216 104.321 104.378 104.488 104.616 104.661 104.713 104.773 104.841 104.873 104.888 104.916 104.946 104.948 104.961 104.988 105.021 105.061 105.058 105.078 105.103 105.118 105.171 105.208 105.266 105.241 105.296 105.341 105.491 105.573 105.598 105.688 105.821 105.728 105.861 105.521 105.593 105.798 105.908 105.971 106.141 106.271 106.423 106.491 106.586 106.681 106.778 106.891 106.981 107.113 107.238 107.328 107.426 107.531 107.646 107.738 107.836 107.906 107.978 108.041 108.121 108.186 108.236 108.286 108.341 108.401 108.433 108.466 108.533 108.551 108.618 108.653 108.686 108.736 108.768 108.866 108.911 108.978 109.046 109.123 109.208 109.316 109.413 109.508 109.633 109.733 109.861 109.978 110.111 110.223 110.361 110.476 110.553 110.698 110.806 110.926 111.011 111.141 111.211 111.328 111.458 111.543 111.753 112.326 111.183 111.318 112.401 111.883 111.843 111.791 111.763 111.801 111.841 111.838 111.886 111.918 111.936 111.986 112.018 112.038 112.078 112.101 112.146 112.176 112.198 112.248 112.273 112.303 112.368 112.423 112.488 112.563 112.631 112.708 112.806 112.901 112.978 113.068 113.166 113.271 113.401 113.501 113.603 113.723 113.801 113.918 113.988 114.098 114.201 114.278 114.363 114.458 114.531 114.621 114.718 114.806 114.886 114.973 115.046 115.121 115.196 115.256 115.323 115.391 115.446 115.531 115.583 115.631 115.671 115.723 115.768 115.823 115.868 115.913 115.948 115.976 116.026 116.126 116.743 116.746 116.113 116.258 116.391 116.476 116.563 116.651 116.728 116.801 116.881 116.961 117.048 117.113 117.193 117.256 117.333 117.396 117.476 117.536 117.608 117.641 117.741 117.808 117.873 117.933 117.996 118.061 118.138 118.206 118.251 118.318 118.363 118.453 118.501 118.563 118.636 118.711 118.778 118.836 118.858 118.893 118.951 118.963 118.991 119.011 119.001 119.033 119.041 119.078 119.048 119.071 119.053 119.088 119.071 119.076 119.101 119.081 119.078 119.098 119.118 119.116 119.168 119.143 119.146 119.141 119.151 119.136 119.166 119.173 119.186 119.188 119.853 119.906 119.018 119.073 119.201 119.223 119.321 119.386 119.438 119.501 119.563 119.628 119.701 119.778 119.866 119.903 119.948 120.003 120.076 120.133 120.178 120.233 120.283 120.346 120.431 120.478 121.446 121.836 121.656 120.866 120.618 120.698 120.803 120.801 120.848 120.918 120.956 121.001 121.023 121.056 121.091 121.128 121.128 121.173 121.201 121.223 121.236 121.258 121.296 121.333 121.381 121.403 121.453 121.498 121.543 121.588 121.608 121.678 121.741 121.781 121.838 121.893 121.928 121.968 122.021 122.063 122.113
93.788 93.973 94.116 94.263 94.438 94.618 94.753 94.916 95.091 95.223 95.388 95.543 95.731 95.898 96.048 96.206 96.388 96.563 96.743 96.871 97.023 97.216 97.386 97.528 97.688 97.851 98.006 98.136 98.261 98.388 98.498 98.628 98.753 98.886 99.013 99.168 99.308 99.446 99.578 99.736 99.938 100.116 100.326 100.523 100.723 100.918 101.091 101.283 101.496 101.663 101.821 101.981 102.146 102.293 102.441 102.566 102.656 102.751 103.783 103.751 103.326 103.486 103.591 103.768 103.858 103.943 104.086 104.221 104.243 104.371 104.491 104.586 104.651 104.723 104.771 104.823 104.866 104.886 104.921 104.921 104.931 104.953 104.966 105.003 105.036 105.033 105.071 105.071 105.076 105.113 105.151 105.183 105.186 105.248 105.283 105.316 105.378 105.361 105.368 105.298 105.348 105.526 105.561 105.646 105.761 105.863 105.986 106.116 106.268 106.413 106.533 106.646 106.756 106.863 106.973 107.093 107.206 107.313 107.418 107.531 107.666 107.738 107.853 107.938 108.026 108.098 108.166 108.236 108.293 108.381 108.426 108.453 108.521 108.543 108.588 108.636 108.668 108.723 108.781 108.813 108.846 108.896 108.948 109.001 109.078 109.151 109.208 109.318 109.418 109.498 109.628 109.736 109.866 110.003 110.131 110.246 110.368 110.528 110.623 110.753 110.856 110.941 111.061 111.161 111.283 111.371 111.491 111.593 111.706 111.816 112.493 111.706 111.331 112.688 112.076 111.976 111.961 111.948 111.978 112.026 112.021 112.041 112.086 112.126 112.148 112.166 112.203 112.228 112.281 112.298 112.346 112.368 112.423 112.446 112.496 112.553 112.606 112.668 112.748 112.816 112.923 112.981 113.101 113.176 113.276 113.366 113.481 113.601 113.711 113.808 113.933 114.011 114.096 114.196 114.293 114.378 114.473 114.583 114.646 114.738 114.823 114.918 114.986 115.093 115.171 115.223 115.331 115.371 115.426 115.501 115.566 115.626 115.693 115.748 115.796 115.841 115.873 115.933 115.988 116.028 116.068 116.113 116.141 116.206 116.301 116.791 117.046 116.281 116.413 116.546 116.628 116.726 116.801 116.873 116.978 117.023 117.103 117.196 117.276 117.353 117.401 117.488 117.538 117.621 117.678 117.741 117.816 117.861 117.951 118.016 118.071 118.151 118.211 118.293 118.353 118.431 118.463 118.531 118.588 118.651 118.713 118.771 118.828 118.908 118.968 118.996 119.066 119.083 119.123 119.118 119.146 119.148 119.153 119.173 119.186 119.158 119.176 119.206 119.218 119.183 119.221 119.211 119.201 119.193 119.211 119.241 119.216 119.246 119.258 119.246 119.256 119.256 119.236 119.261 119.271 119.268 119.296 119.688 120.301 119.138 119.138 119.273 119.336 119.401 119.458 119.518 119.596 119.661 119.736 119.791 119.898 119.953 120.003 120.058 120.088 120.151 120.223 120.273 120.351 120.408 120.456 120.536 120.591 121.251 121.866 121.973 121.228 120.723 120.806 120.873 120.908 120.973 121.006 121.043 121.088 121.111 121.156 121.191 121.211 121.248 121.286 121.278 121.326 121.316 121.351 121.408 121.426 121.466 121.506 121.546 121.581 121.626 121.681 121.708 121.756 121.821 121.853 121.916 121.966 121.998 122.068 122.113 122.158 122.213
93.681 93.843 93.986 94.163 94.356 94.481 94.651 94.786 94.931 95.103 95.268 95.416 95.581 95.743 95.898 96.068 96.236 96.416 96.573 96.698 96.878 97.043 97.223 97.388 97.526 97.693 97.823 97.968 98.091 98.198 98.341 98.448 98.581 98.733 98.858 98.991 99.133 99.278 99.446 99.591 99.801 99.926 100.131 100.336 100.546 100.718 100.893 101.076 101.283 101.458 101.636 101.788 101.943 102.091 102.238 102.388 102.498 102.626 103.703 103.141 103.156 103.323 103.458 103.651 103.753 103.878 103.981 104.078 104.223 104.323 104.433 104.531 104.603 104.706 104.753 104.828 104.873 104.908 104.923 104.953 104.991 104.986 105.011 104.996 105.038 105.066 105.063 105.101 105.096 105.111 105.188 105.213 105.243 105.281 105.303 105.346 105.393 105.376 105.398 105.356 105.383 106.106 105.786 105.703 105.828 105.956 106.096 106.233 106.356 106.463 106.598 106.721 106.841 106.938 107.061 107.193 107.283 107.381 107.513 107.621 107.728 107.828 107.933 108.038 108.121 108.181 108.258 108.328 108.383 108.433 108.493 108.533 108.588 108.608 108.668 108.693 108.731 108.806 108.846 108.906 108.951 109.011 109.056 109.126 109.203 109.268 109.338 109.446 109.533 109.628 109.738 109.868 109.983 110.123 110.273 110.403 110.543 110.678 110.773 110.908 111.016 111.108 111.241 111.346 111.431 111.558 111.668 111.763 111.841 111.963 112.538 112.088 111.413 112.771 112.251 112.133 112.096 112.103 112.163 112.196 112.198 112.241 112.246 112.296 112.318 112.338 112.391 112.413 112.446 112.461 112.511 112.531 112.588 112.626 112.676 112.746 112.791 112.856 112.918 113.036 113.113 113.193 113.293 113.383 113.476 113.576 113.693 113.788 113.908 114.021 114.116 114.211 114.301 114.398 114.481 114.578 114.683 114.773 114.838 114.941 115.011 115.091 115.196 115.266 115.336 115.411 115.473 115.541 115.601 115.656 115.726 115.808 115.843 115.903 115.988 116.013 116.048 116.088 116.133 116.183 116.231 116.283 116.306 116.348 116.451 116.988 117.251 116.493 116.593 116.696 116.808 116.898 116.963 117.043 117.106 117.198 117.256 117.363 117.436 117.503 117.563 117.623 117.708 117.773 117.836 117.878 117.963 118.026 118.098 118.166 118.218 118.276 118.358 118.416 118.498 118.558 118.601 118.668 118.728 118.801 118.843 118.913 118.981 119.036 119.106 119.151 119.173 119.228 119.238 119.263 119.268 119.303 119.291 119.288 119.311 119.308 119.318 119.331 119.323 119.331 119.348 119.308 119.336 119.318 119.311 119.358 119.341 119.371 119.333 119.353 119.366 119.363 119.363 119.373 119.363 119.378 119.386 119.608 120.433 119.406 119.216 119.348 119.421 119.496 119.558 119.611 119.673 119.756 119.808 119.888 119.981 120.041 120.086 120.146 120.201 120.258 120.311 120.383 120.418 120.486 120.548 120.613 120.678 121.031 121.741 122.021 121.558 120.806 120.878 120.973 121.013 121.043 121.101 121.133 121.183 121.228 121.256 121.288 121.306 121.328 121.356 121.383 121.391 121.431 121.438 121.483 121.516 121.543 121.601 121.616 121.666 121.718 121.756 121.816 121.831 121.878 121.953 121.996 122.043 122.101 122.138 122.186 122.251 122.286
