ncols 485
nrows 31
xllcorner    250002
yllcorner    134836
cellsize     2
NODATA_value -9999
8.939 10.466 9.046 7.311 7.241 7.291 7.306 7.371 7.374 7.364 7.311 7.299 7.279 7.261 7.236 7.219 7.229 7.231 7.244 7.249 7.241 7.236 7.201 7.209 7.203 7.179 7.223 7.259 7.235 7.246 7.254 7.254 7.235 7.238 7.198 7.167 7.2 7.244 7.27 8.032 10.812 10.364 7.5 7.454 7.346 7.236 7.199 7.149 7.141 7.174 7.221 7.226 7.219 7.254 7.296 7.276 7.301 7.281 7.294 7.254 7.254 7.204 7.306 7.326 7.344 7.334 7.404 7.461 7.496 7.579 7.614 7.561 7.626 7.551 7.414 7.509 7.484 7.471 7.394 7.336 7.329 7.254 7.234 7.286 7.316 7.321 7.284 7.356 7.346 7.359 7.354 7.346 7.386 7.419 7.454 7.451 7.399 7.366 7.386 7.444 7.374 7.411 7.426 7.474 7.501 7.494 7.479 7.496 7.494 7.504 7.431 7.454 7.551 7.561 7.606 7.564 7.859 8.701 8.786 7.874 7.824 7.831 7.874 7.894 7.931 7.906 7.871 7.869 7.906 7.961 7.961 7.991 7.919 7.894 7.936 8.009 7.979 8.031 7.966 8.004 7.991 7.986 8.021 8.054 8.001 7.969 7.961 7.944 7.981 7.989 7.896 7.929 7.936 7.921 7.864 7.826 7.931 7.869 7.816 7.826 7.851 7.931 7.931 7.919 7.911 7.951 7.911 7.941 7.984 8.001 8.124 8.034 8.041 8.099 8.104 8.144 8.189 8.164 8.176 8.229 8.246 8.214 8.149 8.131 8.179 8.196 8.281 8.184 8.259 8.256 8.294 8.251 8.199 8.236 8.174 8.156 8.164 8.189 8.189 8.163 8.138 8.156 8.171 8.228 8.248 8.336 8.291 8.218 8.278 8.341 8.376 8.441 8.376 8.581 8.448 8.443 8.426 9.018 11.751 10.763 8.991 11.916 11.673 14.238 14.358 13.988 15.126 11.841 12.203 12.341 13.203 12.746 9.413 8.831 8.576 8.601 8.618 8.618 8.701 8.681 8.661 8.406 8.113 8.098 8.096 8.236 8.271 8.283 8.288 8.296 8.321 8.391 8.368 8.418 8.398 8.438 8.503 8.523 8.536 8.573 8.578 8.586 8.636 8.666 8.681 8.633 8.676 8.703 8.713 8.733 8.746 8.786 8.813 8.838 8.856 8.871 8.891 8.911 8.948 8.998 9.061 9.091 9.126 9.156 9.206 9.211 9.223 9.221 9.216 9.236 9.243 9.241 9.248 9.251 9.261 9.281 9.291 9.283 9.273 9.281 9.283 9.266 9.261 9.286 9.263 9.263 9.271 9.253 9.273 9.268 9.313 9.348 9.358 9.371 9.388 9.421 9.423 9.448 9.448 9.478 9.478 9.468 9.496 9.513 9.531 9.548 9.568 9.573 9.571 9.578 9.568 9.616 9.628 9.676 9.733 9.731 9.651 9.696 9.641 9.713 9.756 9.726 9.706 9.776 9.848 9.848 9.821 9.866 9.898 9.941 9.893 9.903 9.928 9.966 9.923 9.903 9.951 9.996 10.008 10.018 9.988 10.026 10.041 10.021 10.043 10.083 10.106 10.078 10.068 10.056 10.066 10.038 10.081 10.058 10.058 10.023 10.018 10.036 10.063 10.051 10.038 10.026 9.983 9.931 9.941 9.993 10.038 10.006 9.933 9.998 10.041 10.001 9.991 10.008 10.096 10.076 10.033 10.008 10.041 10.013 10.021 10.033 10.056 10.038 10.028 10.038 10.063 10.063 10.048 10.051 10.093 10.148 10.163 10.118 10.136 10.148 10.153 10.121 10.118 10.141 10.153 10.136 10.148 10.171 10.138 10.098 10.068 10.073 10.058 9.986 9.873 9.858 9.831 9.856 10.963 13.226 13.268 13.903 11.131 10.123 14.816 16.471 16.931 16.706 15.438 10.151 10.053 10.096 10.198 10.221 10.183 10.141 10.121 10.141 10.141 10.118 10.133 10.088 10.053 10.068 10.126 10.123 10.128 10.078 10.086 10.111 10.191 10.221 10.253 10.258 10.263 10.261 10.238 10.178 10.006 9.688 9.671 9.606 10.033 10.163 10.163 10.151 10.066 10.051 9.971
7.999 9.856 10.451 7.671 7.204 7.236 7.319 7.331 7.359 7.356 7.321 7.319 7.311 7.279 7.254 7.276 7.279 7.274 7.284 7.266 7.261 7.239 7.229 7.224 7.216 7.22 7.213 7.237 7.224 7.24 7.265 7.247 7.233 7.217 7.182 7.139 7.181 7.234 7.264 7.657 10.377 10.788 8.076 7.426 7.321 7.239 7.231 7.126 7.074 7.124 7.199 7.199 7.216 7.219 7.269 7.279 7.286 7.299 7.251 7.269 7.209 7.224 7.241 7.261 7.261 7.324 7.369 7.376 7.409 7.464 7.519 7.426 7.504 7.451 7.396 7.521 7.426 7.331 7.366 7.351 7.351 7.249 7.179 7.286 7.194 7.271 7.214 7.264 7.311 7.321 7.361 7.366 7.381 7.401 7.399 7.436 7.411 7.326 7.414 7.376 7.381 7.389 7.469 7.479 7.451 7.476 7.441 7.456 7.474 7.484 7.431 7.441 7.566 7.526 7.589 7.576 7.956 9.074 9.004 10.419 7.809 7.836 7.851 7.874 7.884 7.846 7.816 7.849 7.901 7.924 7.849 7.896 7.934 7.861 7.881 7.921 7.916 7.949 7.901 7.901 7.979 7.964 7.949 7.939 7.906 7.916 8.009 7.929 7.964 7.966 7.886 7.861 7.839 7.784 7.826 7.829 7.836 7.856 7.841 7.886 7.834 7.844 7.921 7.866 7.931 7.924 7.886 7.951 8.114 8.089 8.079 8.036 8.084 8.081 8.099 8.151 8.154 8.171 8.164 8.166 8.184 8.184 8.211 8.176 8.161 8.186 8.176 8.174 8.199 8.249 8.244 8.299 8.189 8.191 8.239 8.161 8.146 8.144 8.141 8.131 8.073 8.108 8.146 8.213 8.226 8.241 8.218 8.133 8.148 8.271 8.353 8.418 8.371 8.438 8.433 8.438 8.411 8.856 11.743 11.946 10.071 9.066 9.728 11.713 11.791 13.266 12.156 8.471 11.953 8.628 12.566 14.096 10.913 9.011 8.561 8.528 8.566 8.571 8.636 8.696 9.491 8.461 8.081 8.068 8.066 8.136 8.211 8.238 8.263 8.268 8.273 8.296 8.336 8.376 8.371 8.401 8.431 8.468 8.463 8.508 8.546 8.556 8.626 8.623 8.641 8.651 8.681 8.676 8.701 8.738 8.746 8.761 8.781 8.798 8.821 8.848 8.808 8.841 8.851 8.888 8.928 8.948 8.998 9.056 9.091 9.111 9.158 9.173 9.231 9.258 9.281 9.268 9.261 9.243 9.243 9.246 9.216 9.213 9.176 9.183 9.198 9.206 9.231 9.238 9.218 9.223 9.253 9.258 9.276 9.278 9.301 9.303 9.343 9.338 9.381 9.388 9.388 9.376 9.408 9.436 9.443 9.463 9.478 9.488 9.493 9.541 9.551 9.561 9.576 9.571 9.576 9.583 9.608 9.638 9.711 9.713 9.628 9.623 9.583 9.696 9.721 9.676 9.646 9.708 9.766 9.823 9.793 9.808 9.851 9.878 9.878 9.871 9.876 9.913 9.941 9.896 9.908 9.946 9.958 9.971 9.981 9.983 10.013 9.991 9.983 10.026 10.021 10.006 10.016 10.028 10.031 10.023 10.033 10.048 10.026 10.033 10.023 10.011 10.036 10.028 9.998 10.011 9.976 9.953 9.931 9.968 9.981 9.978 9.946 9.976 10.191 10.031 10.006 10.016 10.063 10.071 10.021 10.028 10.043 10.028 10.021 10.003 10.028 10.026 10.008 10.031 10.018 10.038 10.026 10.031 10.093 10.143 10.138 10.113 10.111 10.141 10.153 10.108 10.113 10.146 10.153 10.126 10.118 10.128 10.126 10.118 10.118 10.078 9.971 9.878 9.791 9.698 9.721 9.723 9.791 10.053 13.433 15.023 11.003 9.998 11.138 12.243 15.231 14.343 14.421 10.046 10.096 10.068 10.198 10.203 10.131 10.103 10.083 10.096 10.093 10.083 10.091 10.016 10.003 10.033 10.046 10.038 10.068 10.031 10.008 10.053 10.116 10.186 10.208 10.198 10.208 10.228 10.191 10.106 9.973 9.753 9.826 9.716 9.928 10.053 10.036 10.056 10.061 9.996 9.918
7.509 9.534 10.669 8.024 7.259 7.229 7.266 7.326 7.354 7.329 7.329 7.316 7.279 7.294 7.281 7.296 7.309 7.304 7.314 7.286 7.264 7.242 7.254 7.242 7.248 7.231 7.243 7.254 7.252 7.232 7.245 7.256 7.227 7.209 7.15 7.157 7.185 7.234 7.26 7.267 10.089 10.733 8.734 7.424 7.361 7.306 7.209 7.156 7.096 7.121 7.174 7.236 7.219 7.206 7.251 7.249 7.264 7.276 7.286 7.244 7.191 7.159 7.169 7.191 7.221 7.211 7.266 7.319 7.319 7.401 7.436 7.391 7.419 7.424 7.439 7.429 7.466 7.369 7.351 7.259 7.294 7.269 7.191 7.204 7.169 7.244 7.229 7.241 7.304 7.304 7.341 7.354 7.341 7.344 7.406 7.434 7.396 7.399 7.394 7.319 7.321 7.414 7.459 7.484 7.481 7.521 7.474 7.441 7.459 7.509 7.449 7.464 7.496 7.531 7.541 7.576 8.554 11.176 9.354 10.094 7.919 7.801 7.796 7.816 7.846 7.821 7.796 7.859 7.846 7.876 7.869 7.874 7.846 7.856 7.869 7.911 7.791 7.831 7.791 7.816 7.781 7.816 7.901 7.881 7.859 7.889 7.929 7.931 7.911 7.849 7.849 7.864 7.846 7.759 7.846 7.786 7.841 7.766 7.841 7.806 7.821 7.846 7.846 7.829 7.859 7.899 7.991 8.006 8.056 8.079 8.154 8.109 8.191 8.116 8.126 8.181 8.179 8.171 8.159 8.224 8.251 8.184 8.226 8.114 8.114 8.156 8.166 8.209 8.191 8.161 8.179 8.251 8.141 8.164 8.249 8.111 8.126 8.114 8.136 8.086 8.058 8.066 8.081 8.163 8.203 8.178 8.081 8.103 8.131 8.138 8.218 8.303 8.368 8.371 8.373 8.443 8.486 8.421 8.896 10.796 9.296 8.598 9.543 11.511 11.383 12.341 13.128 10.506 13.411 9.343 10.748 12.541 10.328 8.896 8.493 8.468 8.543 8.543 8.603 8.733 9.578 8.351 8.113 8.086 8.053 8.133 8.198 8.218 8.238 8.261 8.268 8.281 8.341 8.356 8.376 8.388 8.421 8.428 8.453 8.463 8.501 8.536 8.588 8.628 8.638 8.636 8.656 8.688 8.663 8.711 8.733 8.761 8.773 8.776 8.766 8.791 8.811 8.831 8.821 8.873 8.871 8.881 8.926 8.963 8.983 9.021 9.056 9.096 9.113 9.163 9.228 9.216 9.233 9.258 9.253 9.276 9.263 9.238 9.216 9.221 9.231 9.228 9.236 9.251 9.226 9.231 9.248 9.268 9.263 9.241 9.256 9.286 9.298 9.328 9.376 9.381 9.353 9.353 9.361 9.393 9.371 9.398 9.416 9.448 9.453 9.478 9.508 9.511 9.506 9.521 9.526 9.536 9.576 9.608 9.656 9.636 9.608 9.618 9.576 9.658 9.666 9.636 9.636 9.676 9.736 9.778 9.753 9.756 9.798 9.831 9.806 9.821 9.826 9.848 9.858 9.841 9.856 9.898 9.916 9.926 9.933 9.953 9.973 9.928 9.933 9.981 9.986 9.958 9.963 9.966 9.983 9.973 9.986 10.008 9.993 9.993 9.983 10.013 10.026 10.046 10.041 9.996 9.988 9.941 9.916 9.936 9.971 9.953 9.906 9.901 9.928 9.923 9.928 9.963 10.013 10.031 10.006 10.016 10.021 9.983 9.978 9.983 9.993 9.993 9.988 9.968 10.003 10.013 9.978 9.951 9.998 10.041 10.033 10.043 10.061 10.076 10.088 10.051 10.083 10.106 10.116 10.091 10.053 10.103 10.081 10.061 10.078 10.046 9.968 9.846 9.716 9.628 11.116 9.613 9.666 9.531 12.716 12.786 10.778 12.573 12.946 10.983 16.578 16.643 15.066 10.686 10.271 10.003 10.078 10.141 10.121 10.066 10.058 10.048 10.058 10.041 10.048 10.021 9.988 9.966 9.991 9.953 9.956 9.958 9.968 9.998 10.046 10.091 10.133 10.123 10.108 10.108 10.076 10.018 9.973 9.821 9.753 9.686 9.793 9.911 9.921 9.961 9.981 9.946 9.891
7.319 9.391 10.611 8.931 7.241 7.169 7.201 7.231 7.279 7.291 7.259 7.274 7.269 7.249 7.274 7.274 7.276 7.284 7.259 7.259 7.269 7.257 7.258 7.253 7.237 7.25 7.273 7.244 7.26 7.286 7.275 7.291 7.277 7.244 7.194 7.217 7.181 7.205 7.204 7.151 9.743 10.689 9.221 7.796 7.354 7.304 7.271 7.221 7.156 7.121 7.139 7.189 7.189 7.199 7.219 7.221 7.221 7.204 7.216 7.191 7.174 7.146 7.134 7.176 7.141 7.161 7.206 7.289 7.326 7.309 7.364 7.381 7.406 7.406 7.391 7.446 7.461 7.409 7.356 7.291 7.261 7.221 7.191 7.204 7.224 7.239 7.231 7.279 7.281 7.296 7.366 7.341 7.324 7.409 7.384 7.381 7.396 7.364 7.331 7.331 7.329 7.391 7.431 7.466 7.516 7.499 7.471 7.451 7.439 7.489 7.424 7.436 7.461 7.489 7.524 7.541 7.844 9.691 9.226 8.101 7.771 7.771 7.749 7.754 7.804 7.741 7.801 7.781 7.789 7.796 7.809 7.851 7.851 7.856 7.796 7.836 7.779 7.769 7.769 7.754 7.786 7.806 7.766 7.829 7.809 7.834 7.851 7.901 7.859 7.861 7.819 7.851 7.781 7.789 7.824 7.806 7.819 7.799 7.786 7.769 7.791 7.856 7.856 7.824 7.861 7.886 7.914 7.966 8.001 8.056 8.019 8.141 8.184 8.119 8.151 8.121 8.159 8.136 8.184 8.134 8.159 8.224 8.191 8.154 8.116 8.121 8.186 8.141 8.144 8.216 8.171 8.114 8.106 8.114 8.119 8.146 8.151 8.169 8.139 8.101 8.096 8.066 8.021 8.078 8.138 8.141 8.046 8.076 8.078 8.123 8.173 8.201 8.281 8.333 8.433 8.358 8.491 8.413 8.388 8.711 8.878 8.546 9.071 10.613 11.181 12.046 13.751 9.998 11.291 8.826 11.613 11.578 11.731 8.768 8.448 8.448 8.493 8.476 8.531 8.551 9.146 8.166 8.108 8.106 8.088 8.151 8.206 8.203 8.226 8.241 8.251 8.278 8.308 8.331 8.333 8.363 8.366 8.393 8.411 8.451 8.483 8.538 8.578 8.548 8.563 8.571 8.588 8.633 8.663 8.668 8.728 8.713 8.736 8.748 8.748 8.786 8.783 8.798 8.806 8.843 8.863 8.868 8.918 8.916 8.968 9.003 9.036 9.026 9.051 9.058 9.066 9.081 9.106 9.083 9.121 9.161 9.201 9.208 9.238 9.273 9.278 9.298 9.308 9.311 9.321 9.283 9.293 9.343 9.283 9.241 9.248 9.266 9.278 9.298 9.333 9.361 9.376 9.396 9.383 9.378 9.391 9.391 9.408 9.413 9.438 9.453 9.466 9.471 9.491 9.501 9.516 9.551 9.546 9.626 9.638 9.581 9.588 9.561 9.533 9.631 9.673 9.621 9.593 9.671 9.708 9.758 9.723 9.726 9.781 9.816 9.816 9.751 9.821 9.836 9.866 9.828 9.846 9.883 9.911 9.921 9.931 9.953 9.941 9.936 9.928 9.963 9.978 9.943 9.943 9.961 9.953 9.938 9.968 9.976 9.981 9.926 9.963 9.958 10.011 10.008 9.998 9.988 9.981 9.906 9.903 9.968 9.963 9.911 9.903 9.876 9.861 9.873 9.861 9.931 9.963 9.963 9.923 9.966 9.966 9.966 9.951 9.936 9.958 9.968 9.941 9.963 9.981 9.971 9.946 9.923 9.966 9.996 9.983 10.006 10.011 10.041 10.031 9.991 10.033 10.081 10.073 10.048 10.061 10.103 10.063 10.006 10.041 10.038 9.953 9.843 9.696 9.686 12.353 11.551 9.461 9.598 10.966 12.858 11.801 11.476 17.518 14.051 16.798 16.921 15.693 10.333 10.108 9.923 9.956 10.016 10.038 10.031 10.018 10.006 9.993 9.971 9.988 9.961 9.921 9.908 9.928 9.883 9.903 9.928 9.951 9.991 10.001 10.073 10.058 10.101 10.063 10.051 9.998 9.926 9.888 9.801 9.643 9.641 9.718 9.763 9.813 9.868 9.843 9.878 9.828
7.094 7.694 8.669 8.124 7.231 7.306 7.136 7.171 7.204 7.221 7.199 7.211 7.194 7.201 7.199 7.219 7.249 7.231 7.206 7.241 7.244 7.229 7.244 7.237 7.222 7.244 7.302 7.295 7.297 7.293 7.279 7.309 7.297 7.28 7.232 7.216 7.225 7.233 7.196 7.281 8.706 9.429 9.166 7.561 7.396 7.344 7.296 7.266 7.239 7.154 7.129 7.169 7.216 7.219 7.196 7.166 7.199 7.214 7.179 7.154 7.129 7.164 7.149 7.186 7.074 7.096 7.151 7.244 7.254 7.309 7.296 7.274 7.274 7.291 7.374 7.384 7.386 7.339 7.291 7.234 7.171 7.166 7.169 7.201 7.259 7.234 7.281 7.321 7.291 7.301 7.379 7.321 7.361 7.376 7.414 7.411 7.431 7.364 7.349 7.384 7.379 7.366 7.451 7.439 7.484 7.524 7.499 7.441 7.431 7.426 7.386 7.416 7.406 7.434 7.474 7.476 9.704 10.564 9.306 8.284 7.701 7.769 7.726 7.714 7.744 7.739 7.754 7.754 7.774 7.761 7.759 7.786 7.761 7.799 7.754 7.831 7.761 7.736 7.709 7.691 7.681 7.766 7.746 7.819 7.841 7.816 7.821 7.894 7.766 7.754 7.741 7.781 7.821 7.786 7.809 7.801 7.854 7.776 7.766 7.786 7.874 7.816 7.836 7.814 7.824 7.879 7.861 7.876 7.966 8.021 8.026 8.064 8.091 8.121 8.084 8.046 8.061 8.119 8.121 8.136 8.151 8.134 8.109 8.091 8.074 8.081 8.076 8.104 8.129 8.121 8.211 8.176 8.106 8.094 8.069 8.096 8.109 8.114 8.061 8.108 8.113 8.076 8.016 8.028 8.061 8.036 8.028 8.021 8.053 8.108 8.163 8.203 8.233 8.173 8.191 8.331 8.306 8.358 8.406 8.393 8.463 9.846 9.853 8.771 9.248 11.296 12.271 12.493 12.243 12.941 14.108 13.516 11.098 8.643 8.403 8.418 8.423 8.408 8.476 8.508 8.478 8.148 8.093 8.101 8.078 8.186 8.201 8.213 8.233 8.266 8.271 8.313 8.316 8.341 8.313 8.338 8.363 8.373 8.421 8.431 8.433 8.496 8.538 8.538 8.513 8.516 8.571 8.613 8.621 8.646 8.661 8.696 8.706 8.718 8.741 8.753 8.763 8.808 8.801 8.813 8.816 8.851 8.878 8.911 8.958 8.946 8.976 9.008 9.008 9.003 9.006 9.011 9.003 9.001 9.038 9.036 9.041 9.043 9.076 9.073 9.141 9.188 9.203 9.238 9.261 9.263 9.288 9.348 9.316 9.253 9.291 9.323 9.353 9.336 9.378 9.433 9.431 9.401 9.398 9.388 9.431 9.438 9.468 9.441 9.448 9.408 9.398 9.436 9.433 9.451 9.481 9.513 9.561 9.646 9.601 9.473 9.528 9.436 9.471 9.586 9.623 9.578 9.583 9.626 9.663 9.708 9.691 9.643 9.716 9.736 9.723 9.731 9.751 9.768 9.761 9.771 9.783 9.838 9.881 9.853 9.891 9.893 9.921 9.891 9.873 9.923 9.928 9.926 9.928 9.931 9.951 9.908 9.936 9.941 9.956 9.906 9.923 9.943 9.941 9.961 9.933 9.948 9.938 9.881 9.868 9.921 9.931 9.913 9.873 9.848 9.851 9.846 9.801 9.866 9.911 9.918 9.873 9.926 9.941 9.918 9.913 9.916 9.948 9.941 9.901 9.923 9.911 9.926 9.898 9.878 9.918 9.941 9.931 9.948 9.948 9.976 9.981 9.936 9.986 9.998 10.041 9.998 10.011 10.033 10.033 10.026 10.043 9.981 9.908 9.838 9.673 9.623 10.768 11.631 10.953 10.191 14.153 14.958 18.161 20.048 18.431 13.631 15.876 15.671 11.178 9.813 9.796 9.798 9.838 9.908 9.963 9.973 9.958 9.978 9.931 9.943 9.936 9.876 9.868 9.851 9.816 9.816 9.818 9.846 9.886 9.886 9.896 9.958 9.981 10.018 9.996 9.976 9.926 9.856 9.786 9.713 9.641 9.596 9.648 9.671 9.728 9.781 9.801 9.806 9.791
9.444 8.376 7.726 8.794 7.189 7.464 7.396 7.186 7.111 7.114 7.129 7.114 7.086 7.114 7.131 7.134 7.151 7.156 7.158 7.17 7.184 7.167 7.193 7.189 7.203 7.213 7.246 7.261 7.252 7.289 7.28 7.281 7.277 7.273 7.253 7.204 7.187 7.154 7.218 7.371 8.726 9.004 8.924 7.741 7.409 7.346 7.324 7.276 7.269 7.214 7.169 7.159 7.189 7.184 7.169 7.166 7.186 7.201 7.204 7.186 7.171 7.149 7.114 7.171 7.091 7.116 7.161 7.214 7.209 7.209 7.219 7.269 7.241 7.291 7.339 7.299 7.321 7.321 7.246 7.211 7.109 7.131 7.141 7.144 7.199 7.241 7.319 7.264 7.221 7.256 7.274 7.271 7.366 7.394 7.371 7.381 7.381 7.346 7.354 7.396 7.381 7.439 7.494 7.466 7.514 7.501 7.476 7.429 7.426 7.409 7.364 7.394 7.404 7.396 7.431 7.486 8.534 9.689 9.639 8.206 7.776 7.739 7.691 7.699 7.754 7.714 7.719 7.731 7.736 7.739 7.759 7.806 7.761 7.734 7.779 7.739 7.746 7.789 7.781 7.734 7.681 7.701 7.699 7.721 7.769 7.774 7.794 7.801 7.826 7.769 7.704 7.774 7.781 7.846 7.811 7.864 7.784 7.744 7.771 7.766 7.746 7.821 7.826 7.839 7.841 7.816 7.866 7.844 7.926 7.971 7.979 7.956 8.029 8.034 8.016 7.994 8.054 8.036 8.111 8.061 8.059 8.076 8.134 8.096 8.084 8.079 8.134 8.116 8.161 8.144 8.226 8.091 8.039 8.024 8.041 8.119 8.039 8.026 8.019 8.033 8.003 8.006 8.031 7.988 7.998 7.988 7.996 7.996 8.008 8.066 8.078 8.073 8.096 8.186 8.218 8.276 8.316 8.376 8.478 8.463 8.396 9.843 10.341 8.568 8.598 11.551 12.656 12.361 13.051 11.906 12.163 11.356 9.281 8.603 8.398 8.398 8.378 8.403 8.398 8.423 8.306 8.103 8.086 8.071 8.086 8.181 8.188 8.191 8.196 8.253 8.248 8.278 8.303 8.323 8.333 8.348 8.391 8.368 8.398 8.413 8.441 8.466 8.511 8.541 8.561 8.576 8.581 8.603 8.641 8.638 8.686 8.671 8.688 8.696 8.731 8.726 8.728 8.763 8.758 8.773 8.816 8.821 8.856 8.866 8.898 8.921 8.946 8.956 8.961 8.968 8.968 8.991 9.006 9.028 9.013 9.011 9.018 9.016 9.051 9.063 9.053 9.061 9.073 9.093 9.091 9.131 9.163 9.218 9.181 9.176 9.296 9.351 9.383 9.381 9.468 9.538 9.518 9.466 9.413 9.396 9.393 9.433 9.438 9.456 9.443 9.441 9.458 9.421 9.401 9.446 9.483 9.516 9.571 9.576 9.546 9.426 9.476 9.383 9.413 9.538 9.606 9.551 9.541 9.608 9.663 9.661 9.643 9.626 9.686 9.691 9.673 9.691 9.691 9.701 9.708 9.706 9.721 9.793 9.836 9.788 9.818 9.838 9.871 9.851 9.838 9.898 9.891 9.878 9.883 9.896 9.903 9.881 9.908 9.921 9.893 9.896 9.911 9.928 9.923 9.908 9.901 9.911 9.928 9.871 9.838 9.898 9.918 9.896 9.823 9.848 9.841 9.803 9.763 9.813 9.853 9.856 9.873 9.903 9.896 9.898 9.896 9.888 9.933 9.911 9.866 9.903 9.926 9.906 9.858 9.823 9.826 9.886 9.858 9.853 9.893 9.911 9.941 9.936 9.928 9.961 9.973 9.966 9.968 10.028 9.988 9.943 9.921 9.923 9.878 9.778 9.681 9.653 9.638 11.751 13.176 12.553 11.568 15.333 16.288 18.861 13.263 10.526 12.921 12.593 10.128 9.788 9.773 9.763 9.823 9.873 9.893 9.918 9.893 9.918 9.916 9.908 9.898 9.883 9.861 9.856 9.851 9.816 9.816 10.426 10.176 11.351 10.156 10.958 9.948 9.968 9.991 9.948 9.926 9.868 9.756 9.626 9.581 9.491 9.551 9.651 9.701 9.761 9.831 9.818 9.781
9.109 9.436 9.444 7.854 8.644 9.631 9.414 8.819 8.539 7.994 7.759 7.199 7.079 7.076 7.036 7.064 7.061 7.049 7.061 7.087 7.107 7.115 7.127 7.122 7.154 7.168 7.179 7.186 7.196 7.208 7.22 7.22 7.211 7.242 7.229 7.209 7.114 7.073 7.191 7.284 9.704 11.764 10.539 7.851 7.369 7.326 7.294 7.284 7.264 7.264 7.236 7.239 7.266 7.239 7.199 7.199 7.226 7.276 7.261 7.221 7.219 7.204 7.126 7.186 7.144 7.109 7.134 7.139 7.221 7.211 7.216 7.236 7.244 7.279 7.329 7.339 7.276 7.324 7.244 7.189 7.124 7.131 7.119 7.131 7.126 7.196 7.241 7.256 7.276 7.264 7.244 7.276 7.314 7.349 7.374 7.419 7.306 7.351 7.311 7.366 7.336 7.389 7.414 7.434 7.459 7.449 7.421 7.371 7.381 7.404 7.354 7.346 7.359 7.336 7.391 7.429 9.421 10.266 10.954 8.669 7.706 7.679 7.674 7.699 7.699 7.674 7.659 7.691 7.701 7.701 7.686 7.726 7.701 7.731 7.766 7.726 7.741 7.764 7.731 7.711 7.646 7.656 7.709 7.816 7.746 7.746 7.714 7.739 7.741 7.751 7.711 7.781 7.724 7.711 7.726 7.764 7.789 7.749 7.706 7.709 7.746 7.801 7.784 7.814 7.746 7.736 7.799 7.821 7.921 7.881 7.939 7.934 7.976 7.964 7.994 7.979 8.024 8.054 8.049 8.079 8.076 8.121 8.054 8.129 8.111 8.101 8.021 8.056 8.041 8.041 8.129 8.066 8.044 8.026 8.031 7.969 7.971 7.999 7.994 7.961 7.901 7.931 7.983 7.958 7.988 7.983 8.006 7.948 7.976 8.021 8.053 8.061 8.046 8.056 8.076 8.141 8.123 8.301 8.526 8.491 8.418 8.283 8.486 8.478 8.566 10.311 12.693 12.901 14.008 12.673 9.558 8.213 8.778 8.518 8.346 8.366 8.356 8.388 8.378 8.381 8.201 8.121 8.071 8.098 8.116 8.156 8.148 8.163 8.183 8.208 8.236 8.258 8.281 8.308 8.326 8.336 8.368 8.388 8.381 8.406 8.433 8.466 8.528 8.511 8.556 8.561 8.568 8.606 8.571 8.611 8.633 8.631 8.648 8.688 8.668 8.716 8.746 8.748 8.771 8.773 8.803 8.818 8.851 8.868 8.888 8.918 8.946 8.968 8.971 8.958 8.991 8.983 8.996 9.013 9.028 8.986 9.031 9.006 9.013 9.031 9.041 9.058 9.043 9.031 9.016 9.028 9.071 9.091 9.118 9.173 9.218 9.261 9.311 9.388 9.408 9.458 9.453 9.448 9.441 9.408 9.371 9.311 9.368 9.388 9.388 9.418 9.401 9.351 9.406 9.426 9.441 9.431 9.468 9.513 9.488 9.393 9.461 9.363 9.401 9.481 9.511 9.491 9.521 9.566 9.626 9.648 9.626 9.646 9.678 9.706 9.688 9.663 9.686 9.671 9.666 9.668 9.686 9.758 9.768 9.731 9.776 9.808 9.808 9.811 9.801 9.836 9.851 9.863 9.863 9.891 9.911 9.873 9.881 9.888 9.863 9.853 9.881 9.881 9.878 9.843 9.858 9.861 9.823 9.786 9.821 9.858 9.876 9.826 9.793 9.793 9.776 9.773 9.726 9.763 9.803 9.801 9.823 9.853 9.851 9.841 9.853 9.851 9.878 9.893 9.843 9.878 9.898 9.866 9.836 9.803 9.841 9.856 9.831 9.823 9.851 9.878 9.856 9.871 9.868 9.908 9.923 9.921 9.906 9.891 9.868 9.841 9.838 9.828 9.813 9.773 9.731 9.661 9.648 9.681 10.241 10.093 12.218 11.023 12.318 11.778 10.071 11.231 13.431 12.688 10.396 9.753 9.766 9.751 9.771 9.871 9.896 9.918 9.886 9.901 9.891 9.901 9.881 9.876 9.858 9.871 9.868 9.896 9.858 10.403 13.128 15.558 14.218 15.371 11.063 9.938 9.931 9.901 9.901 9.846 9.708 9.528 9.408 9.386 9.426 9.646 9.718 9.738 9.781 9.753 9.726
8.021 7.949 8.171 8.009 8.924 10.354 9.659 9.839 10.916 11.231 11.526 10.839 10.244 9.819 8.896 8.589 8.074 7.45 7.441 7.353 7.308 7.246 7.038 7.061 7.3 7.255 7.138 7.135 7.155 7.135 7.159 7.158 7.123 7.147 7.216 7.18 7.103 7.114 7.156 9.104 12.546 14.151 13.166 7.419 7.256 7.266 7.236 7.221 7.274 7.299 7.281 7.284 7.231 7.229 7.241 7.264 7.271 7.269 7.241 7.254 7.279 7.229 7.194 7.139 7.126 7.126 7.189 7.166 7.204 7.261 7.199 7.224 7.291 7.321 7.341 7.331 7.326 7.354 7.384 7.256 7.201 7.199 7.199 7.204 7.194 7.226 7.211 7.266 7.309 7.279 7.264 7.296 7.321 7.314 7.376 7.371 7.314 7.306 7.344 7.386 7.346 7.394 7.464 7.431 7.421 7.461 7.431 7.429 7.386 7.396 7.384 7.381 7.374 7.376 7.376 7.431 10.271 11.424 9.569 8.109 7.736 7.686 7.654 7.664 7.701 7.694 7.701 7.664 7.691 7.661 7.701 7.711 7.684 7.746 7.699 7.701 7.724 7.671 7.711 7.721 7.754 7.709 7.696 7.776 7.764 7.724 7.726 7.749 7.721 7.801 7.729 7.729 7.714 7.731 7.729 7.719 7.796 7.774 7.784 7.749 7.766 7.771 7.764 7.761 7.801 7.734 7.761 7.749 7.789 7.916 7.931 7.906 7.921 8.006 7.984 7.989 8.036 8.049 8.041 8.081 8.079 8.074 8.094 8.096 8.021 8.049 8.036 8.086 8.031 8.016 8.051 8.064 8.031 8.011 7.949 7.909 7.924 7.896 7.941 7.976 7.953 7.916 7.921 7.918 7.973 7.956 7.948 7.901 7.946 7.973 8.036 8.041 8.048 8.061 8.046 8.091 8.108 8.138 8.278 8.373 8.421 8.303 8.358 8.668 9.016 8.766 10.461 12.346 13.013 11.651 8.396 8.246 8.756 8.436 8.293 8.346 8.321 8.378 8.363 8.378 8.161 8.108 8.136 8.146 8.126 8.136 8.153 8.136 8.181 8.181 8.221 8.276 8.283 8.308 8.336 8.371 8.361 8.361 8.366 8.338 8.393 8.433 8.498 8.476 8.476 8.498 8.511 8.528 8.538 8.578 8.603 8.616 8.628 8.653 8.668 8.713 8.736 8.738 8.751 8.748 8.773 8.796 8.818 8.846 8.883 8.898 8.916 8.946 8.941 8.931 8.936 8.953 8.963 8.991 9.001 8.991 8.993 9.003 9.028 9.026 9.053 9.016 9.003 8.991 9.006 9.028 9.051 9.061 9.093 9.093 9.131 9.158 9.216 9.303 9.306 9.346 9.356 9.363 9.346 9.343 9.298 9.201 9.251 9.348 9.403 9.346 9.286 9.296 9.356 9.383 9.403 9.438 9.441 9.426 9.356 9.358 9.401 9.288 9.346 9.418 9.471 9.456 9.471 9.533 9.588 9.598 9.591 9.586 9.668 9.683 9.651 9.658 9.683 9.663 9.638 9.673 9.676 9.678 9.696 9.671 9.708 9.731 9.763 9.738 9.761 9.818 9.816 9.808 9.811 9.858 9.838 9.856 9.853 9.878 9.861 9.811 9.843 9.863 9.863 9.826 9.831 9.833 9.773 9.758 9.781 9.818 9.793 9.771 9.743 9.746 9.736 9.758 9.723 9.768 9.808 9.786 9.796 9.803 9.841 9.841 9.843 9.851 9.873 9.868 9.831 9.871 9.888 9.876 9.828 9.798 9.846 9.841 9.823 9.848 9.858 9.873 9.858 9.863 9.868 9.863 9.843 9.828 9.826 9.808 9.793 9.796 9.781 9.756 9.763 9.723 9.703 9.623 9.591 9.641 9.813 10.393 12.221 11.653 11.971 10.238 10.118 12.001 15.086 14.948 11.498 9.778 9.861 9.758 9.806 9.886 9.911 9.898 9.861 9.846 9.838 9.858 9.851 9.851 9.823 9.821 9.841 9.818 9.801 10.493 13.806 14.856 16.393 17.086 11.828 9.776 9.758 9.718 9.776 9.726 9.618 9.443 9.431 9.448 9.448 9.618 9.753 9.741 9.696 9.613 9.551
7.851 7.861 7.851 7.946 8.016 8.004 7.989 7.831 7.899 8.929 9.466 9.389 9.639 9.876 10.941 11.361 11.317 11.181 10.974 10.591 10.137 9.978 8.98 8.934 8.851 8.367 7.869 7.143 7.356 8.34 7.264 7.911 7.508 7.084 7.091 7.088 7.059 7.101 7.176 8.961 11.444 12.491 10.624 7.814 7.229 7.214 7.179 7.161 7.181 7.184 7.176 7.204 7.201 7.174 7.236 7.221 7.274 7.281 7.224 7.204 7.211 7.134 7.106 7.126 7.096 7.119 7.144 7.176 7.199 7.216 7.201 7.246 7.294 7.331 7.356 7.366 7.374 7.369 7.354 7.306 7.249 7.276 7.271 7.299 7.281 7.209 7.251 7.239 7.229 7.251 7.279 7.269 7.309 7.324 7.354 7.364 7.304 7.364 7.316 7.346 7.336 7.356 7.366 7.381 7.421 7.396 7.449 7.426 7.449 7.461 7.414 7.379 7.419 7.409 7.384 7.404 8.524 9.616 9.294 8.011 7.721 7.676 7.611 7.639 7.724 7.756 7.739 7.709 7.696 7.699 7.706 7.706 7.709 7.706 7.709 7.684 7.691 7.691 7.679 7.701 7.664 7.681 7.706 7.716 7.764 7.714 7.749 7.724 7.679 7.716 7.674 7.766 7.674 7.696 7.669 7.666 7.754 7.746 7.766 7.771 7.754 7.791 7.744 7.769 7.806 7.829 7.791 7.806 7.849 7.881 7.896 7.909 7.944 7.989 7.949 7.976 8.009 8.029 8.054 8.019 8.039 8.029 7.986 8.019 7.971 7.989 7.974 8.014 7.986 8.029 8.001 7.994 7.951 7.901 7.904 7.884 7.866 7.886 7.909 7.878 7.848 7.883 7.928 7.876 7.928 7.918 7.896 7.908 7.923 7.961 7.991 7.993 8.053 8.048 8.046 8.026 8.093 8.098 8.353 8.591 8.518 8.403 8.426 8.391 8.741 8.543 8.551 9.023 10.116 8.598 8.558 8.506 8.803 8.393 8.291 8.333 8.303 8.371 8.326 8.401 8.136 8.081 8.088 8.136 8.123 8.143 8.136 8.138 8.171 8.196 8.226 8.251 8.273 8.241 8.291 8.321 8.293 8.343 8.368 8.368 8.371 8.426 8.473 8.473 8.508 8.533 8.548 8.576 8.598 8.631 8.638 8.658 8.638 8.678 8.696 8.706 8.698 8.693 8.703 8.718 8.741 8.766 8.806 8.818 8.841 8.863 8.861 8.881 8.876 8.878 8.893 8.906 8.908 8.936 8.951 8.958 8.943 8.941 8.983 9.011 8.998 9.011 9.021 8.993 8.996 8.983 9.043 9.063 9.071 9.096 9.098 9.131 9.133 9.161 9.208 9.276 9.313 9.308 9.276 9.303 9.226 9.153 9.133 9.223 9.271 9.251 9.203 9.276 9.311 9.306 9.331 9.346 9.418 9.381 9.346 9.331 9.346 9.238 9.253 9.298 9.363 9.411 9.453 9.488 9.536 9.546 9.536 9.571 9.601 9.623 9.626 9.623 9.638 9.628 9.616 9.613 9.646 9.686 9.666 9.671 9.698 9.708 9.713 9.678 9.716 9.768 9.758 9.758 9.773 9.796 9.801 9.798 9.818 9.796 9.836 9.803 9.803 9.836 9.823 9.808 9.808 9.801 9.778 9.766 9.763 9.776 9.816 9.763 9.733 9.731 9.706 9.706 9.686 9.748 9.786 9.778 9.778 9.826 9.821 9.816 9.791 9.806 9.838 9.846 9.811 9.826 9.853 9.836 9.798 9.776 9.773 9.816 9.798 9.836 9.853 9.826 9.823 9.798 9.776 9.726 9.723 9.743 9.748 9.721 9.673 9.691 9.676 9.706 9.676 9.603 9.596 9.596 9.661 9.523 9.493 10.066 12.166 12.486 13.068 10.863 10.241 12.393 14.993 13.883 10.746 10.641 9.858 9.676 9.731 9.811 9.811 9.731 9.696 9.681 9.636 9.681 9.631 9.606 9.583 9.553 9.646 9.551 9.588 9.781 11.396 12.471 14.366 12.473 9.878 9.586 9.541 9.546 9.523 9.498 9.486 9.458 9.453 9.386 9.273 9.661 9.781 9.773 9.673 9.483 9.281
7.881 7.844 7.851 7.849 7.901 7.984 7.824 7.869 7.851 7.834 7.846 7.811 7.769 7.804 7.999 7.82 8.18 8.911 9.482 10.062 10.902 11.317 11.851 12.307 12.15 10.816 11.028 10.255 10.395 12.352 11.034 12.378 9.254 7.13 8.136 7.679 8.056 7.744 7.614 10.159 11.164 13.471 8.986 7.944 7.371 7.264 7.276 7.149 7.156 7.174 7.204 7.206 7.196 7.194 7.154 7.214 7.219 7.184 7.176 7.121 7.064 7.029 7.026 7.004 7.036 7.074 7.089 7.096 7.129 7.151 7.156 7.211 7.234 7.256 7.271 7.291 7.296 7.251 7.234 7.196 7.219 7.286 7.254 7.241 7.261 7.249 7.239 7.256 7.269 7.269 7.306 7.314 7.336 7.386 7.394 7.339 7.389 7.389 7.379 7.366 7.346 7.349 7.349 7.351 7.366 7.384 7.414 7.421 7.461 7.451 7.466 7.401 7.454 7.424 7.396 7.381 8.151 8.931 10.141 8.096 7.541 7.589 7.616 7.659 7.704 7.756 7.774 7.734 7.769 7.764 7.704 7.691 7.704 7.691 7.724 7.686 7.679 7.671 7.666 7.679 7.626 7.686 7.681 7.684 7.669 7.629 7.644 7.646 7.696 7.699 7.671 7.649 7.594 7.679 7.686 7.684 7.656 7.666 7.691 7.676 7.721 7.686 7.764 7.786 7.766 7.801 7.789 7.766 7.794 7.816 7.934 7.894 7.959 7.986 7.979 7.989 7.989 8.024 7.999 7.966 7.984 7.981 8.006 7.994 8.026 8.021 7.986 8.039 8.004 7.991 7.951 7.964 7.901 7.936 7.886 7.851 7.911 7.866 7.884 7.851 7.821 7.816 7.776 7.826 7.851 7.898 7.968 7.988 7.948 7.956 8.006 7.986 8.078 8.036 8.078 8.031 8.001 8.096 8.388 8.413 8.408 8.421 8.368 8.466 8.878 8.566 8.568 8.578 8.548 8.543 8.521 8.633 8.791 8.311 8.286 8.333 8.321 8.358 8.333 8.343 8.128 8.103 8.098 8.148 8.138 8.111 8.118 8.123 8.161 8.186 8.201 8.226 8.238 8.226 8.253 8.263 8.291 8.326 8.358 8.388 8.416 8.481 8.508 8.516 8.543 8.538 8.581 8.598 8.621 8.638 8.651 8.638 8.648 8.636 8.656 8.683 8.721 8.701 8.748 8.756 8.766 8.773 8.811 8.828 8.843 8.851 8.871 8.866 8.876 8.851 8.853 8.858 8.898 8.926 8.903 8.916 8.938 8.943 8.961 8.961 8.978 8.981 8.943 8.936 8.946 8.973 8.991 9.006 8.998 9.036 9.026 9.066 9.071 9.101 9.111 9.141 9.198 9.203 9.196 9.206 9.236 9.196 9.173 9.148 9.091 9.073 9.106 9.201 9.291 9.301 9.263 9.258 9.276 9.261 9.288 9.296 9.278 9.251 9.211 9.248 9.303 9.368 9.413 9.458 9.476 9.453 9.468 9.501 9.526 9.568 9.568 9.583 9.608 9.618 9.576 9.606 9.633 9.656 9.663 9.638 9.666 9.666 9.681 9.648 9.643 9.686 9.731 9.711 9.726 9.748 9.736 9.741 9.788 9.796 9.803 9.796 9.813 9.846 9.848 9.836 9.821 9.826 9.786 9.743 9.776 9.786 9.801 9.731 9.671 9.706 9.691 9.701 9.678 9.716 9.781 9.728 9.731 9.766 9.771 9.788 9.758 9.778 9.786 9.803 9.773 9.798 9.811 9.791 9.753 9.761 9.741 9.796 9.793 9.816 9.813 9.748 9.748 9.711 9.713 9.696 9.661 9.663 9.666 9.661 9.641 9.628 9.641 9.616 9.613 9.563 9.558 9.548 9.531 9.428 9.493 10.176 12.993 13.228 14.088 11.598 10.376 15.096 17.951 12.768 9.813 10.608 10.961 9.618 9.493 9.348 9.378 9.298 9.263 9.301 9.253 9.248 9.278 9.301 9.266 9.213 9.268 9.278 9.301 9.256 9.696 10.181 10.991 13.011 11.263 9.293 9.256 9.278 9.256 9.266 9.258 9.283 9.301 9.201 9.218 9.646 9.798 9.801 9.623 9.361 9.071
7.926 7.896 7.919 7.919 7.861 7.849 7.856 7.874 7.879 7.871 7.846 7.829 7.821 7.834 7.868 7.841 7.824 7.802 7.779 7.795 7.863 8.409 9.003 9.241 9.294 10.317 10.742 10.305 12.311 12.877 12.997 13.074 13.492 12.112 12.536 12.984 12.654 10.771 9.409 11.996 13.729 13.374 12.469 10.366 11.129 10.171 11.186 11.276 11.314 9.616 9.729 9.466 7.919 7.879 7.619 7.859 7.121 7.101 7.106 7.056 6.989 6.956 6.981 7.139 6.966 6.984 7.019 7.521 9.391 7.194 7.099 7.126 7.151 7.191 7.204 7.209 7.196 7.166 7.124 7.069 7.106 7.141 7.129 7.151 7.196 7.234 7.236 7.266 7.269 7.266 7.299 7.304 7.309 7.316 7.319 7.321 7.371 7.369 7.341 7.346 7.354 7.326 7.351 7.371 7.384 7.381 7.429 7.419 7.419 7.481 7.451 7.429 7.406 7.346 7.336 7.649 9.329 12.071 12.094 8.699 8.494 7.524 7.619 7.649 7.671 7.706 7.751 7.786 7.751 7.694 7.669 7.661 7.631 7.684 7.646 7.639 7.646 7.649 7.631 7.654 7.631 7.629 7.606 7.601 7.621 7.616 7.619 7.626 7.714 7.636 7.599 7.636 7.604 7.649 7.596 7.626 7.644 7.674 7.649 7.704 7.704 7.711 7.711 7.701 7.689 7.741 7.801 7.741 7.781 7.786 7.841 7.856 7.899 7.919 7.951 7.964 8.009 8.014 8.001 7.974 7.994 8.024 8.031 8.039 8.009 7.976 7.974 7.969 7.996 8.009 7.961 7.949 7.949 7.916 7.816 7.816 7.796 7.774 7.819 7.756 7.763 7.728 7.778 7.826 7.846 7.883 7.923 7.998 8.033 8.033 8.043 8.053 8.048 8.021 8.018 7.988 8.021 8.176 8.318 8.378 8.371 8.396 8.296 8.241 8.411 8.563 8.548 8.583 8.548 8.508 8.451 8.403 8.421 8.273 8.261 8.316 8.286 8.338 8.318 8.348 8.083 8.091 8.036 8.071 8.106 8.081 8.113 8.121 8.146 8.173 8.203 8.211 8.243 8.238 8.268 8.263 8.316 8.326 8.358 8.378 8.441 8.498 8.553 8.553 8.561 8.566 8.591 8.633 8.648 8.626 8.653 8.661 8.648 8.656 8.656 8.698 8.721 8.686 8.701 8.728 8.743 8.751 8.768 8.781 8.813 8.821 8.821 8.823 8.863 8.838 8.876 8.853 8.881 8.891 8.936 8.921 8.933 8.938 8.948 8.983 8.991 8.973 8.976 8.936 8.953 8.966 8.988 8.981 8.996 8.988 9.013 9.013 9.021 9.048 9.061 9.096 9.101 9.113 9.121 9.093 9.141 9.126 9.166 9.186 9.113 9.073 9.071 9.088 9.181 9.221 9.243 9.236 9.236 9.198 9.198 9.236 9.286 9.301 9.291 9.218 9.271 9.333 9.368 9.396 9.451 9.451 9.466 9.498 9.518 9.551 9.526 9.541 9.573 9.578 9.566 9.586 9.593 9.653 9.666 9.651 9.688 9.693 9.671 9.638 9.676 9.696 9.698 9.678 9.691 9.736 9.731 9.728 9.736 9.773 9.773 9.776 9.778 9.823 9.851 9.821 9.826 9.811 9.788 9.741 9.711 9.748 9.776 9.736 9.676 9.698 9.698 9.698 9.681 9.741 9.748 9.743 9.718 9.736 9.743 9.741 9.721 9.756 9.736 9.751 9.726 9.768 9.761 9.758 9.728 9.751 9.758 9.796 9.773 9.711 9.711 9.708 9.681 9.648 9.648 9.616 9.563 9.573 9.598 9.603 9.636 9.631 9.633 9.643 9.591 9.563 9.563 9.603 9.638 9.366 9.321 11.168 13.458 13.568 14.466 12.496 10.396 14.541 16.158 16.018 9.741 10.811 10.331 10.013 9.551 9.813 11.586 10.143 9.366 9.413 9.341 9.438 9.511 9.391 9.383 9.408 9.401 9.416 9.501 9.476 9.453 9.486 9.468 9.596 9.993 9.531 9.461 9.391 9.478 9.358 9.353 9.641 9.478 9.358 9.253 9.586 9.821 9.736 9.543 9.296 9.066
8.456 8.024 8.076 7.974 7.934 7.861 7.949 8.054 8.081 8.066 8.124 8.101 8.061 7.955 7.799 7.81 7.837 7.817 7.816 7.811 7.796 7.799 7.791 7.784 7.776 7.763 7.861 8.846 9.17 8.006 8.796 13.203 12.987 13.079 13.049 13.234 12.859 12.039 10.229 10.441 11.874 12.174 11.946 11.854 12.426 12.256 12.494 13.186 13.554 12.714 11.634 12.046 12.691 10.739 11.639 12.954 11.621 10.401 8.956 8.451 8.021 7.384 7.269 9.026 8.094 12.156 6.871 10.436 12.501 10.031 8.999 7.051 7.109 7.104 7.106 7.131 7.084 7.029 6.984 6.969 6.959 7.039 7.096 7.101 7.104 7.146 7.176 7.206 7.196 7.206 7.226 7.271 7.251 7.271 7.244 7.236 7.274 7.276 7.261 7.276 7.309 7.281 7.296 7.329 7.334 7.319 7.336 7.351 7.356 7.339 7.361 7.334 7.286 7.274 7.304 7.819 8.186 9.769 9.341 8.089 8.199 7.526 7.534 7.554 7.574 7.589 7.626 7.639 7.601 7.606 7.614 7.609 7.624 7.624 7.609 7.631 7.639 7.634 7.616 7.601 7.599 7.614 7.581 7.604 7.596 7.589 7.626 7.654 7.646 7.629 7.601 7.629 7.614 7.616 7.599 7.584 7.591 7.624 7.671 7.671 7.661 7.679 7.704 7.721 7.704 7.744 7.729 7.711 7.734 7.759 7.809 7.826 7.846 7.869 7.871 7.926 7.966 7.961 7.921 7.929 7.974 7.979 7.986 7.976 7.996 7.946 7.984 7.959 7.966 7.984 8.009 7.974 7.936 7.896 7.856 7.834 7.836 7.829 7.919 7.841 7.808 7.813 7.791 7.841 7.863 7.901 7.943 7.943 7.996 7.978 7.956 7.973 7.958 8.011 8.031 8.036 8.146 8.343 8.396 8.403 8.391 8.328 8.273 8.268 9.333 9.188 9.506 9.538 9.631 8.561 8.406 8.351 8.271 8.216 8.256 8.288 8.268 8.333 8.333 8.381 8.058 8.026 8.021 8.048 8.051 8.073 8.118 8.138 8.166 8.153 8.151 8.163 8.206 8.213 8.241 8.288 8.326 8.333 8.383 8.411 8.451 8.523 8.533 8.531 8.528 8.536 8.581 8.621 8.626 8.638 8.643 8.671 8.668 8.668 8.658 8.663 8.686 8.671 8.703 8.733 8.738 8.753 8.758 8.793 8.803 8.813 8.816 8.806 8.823 8.846 8.853 8.828 8.866 8.878 8.903 8.911 8.911 8.913 8.938 8.951 8.978 8.971 8.951 8.948 8.923 8.936 8.951 8.956 8.976 8.998 8.976 8.983 9.006 9.006 9.033 9.033 9.041 9.063 9.048 9.071 9.091 9.066 9.123 9.141 9.163 9.133 9.113 9.086 9.078 9.121 9.166 9.206 9.273 9.276 9.208 9.193 9.251 9.268 9.326 9.318 9.333 9.321 9.308 9.316 9.376 9.418 9.441 9.463 9.498 9.523 9.506 9.513 9.541 9.536 9.543 9.571 9.606 9.643 9.633 9.613 9.661 9.666 9.681 9.633 9.653 9.693 9.696 9.696 9.711 9.721 9.708 9.711 9.713 9.721 9.716 9.723 9.738 9.768 9.771 9.768 9.776 9.781 9.778 9.733 9.738 9.766 9.778 9.721 9.703 9.696 9.683 9.686 9.683 9.701 9.731 9.693 9.683 9.706 9.701 9.676 9.676 9.681 9.671 9.676 9.658 9.718 9.713 9.721 9.688 9.681 9.678 9.701 9.676 9.628 9.641 9.638 9.613 9.586 9.593 9.563 9.566 9.596 9.583 9.593 9.661 9.643 9.666 9.636 9.583 9.556 9.516 9.511 9.478 9.298 9.228 11.581 13.753 13.888 14.138 13.238 10.693 14.168 15.886 16.531 9.998 10.646 10.426 10.313 9.873 10.898 12.648 12.046 9.808 9.756 9.701 9.723 9.696 9.686 9.743 9.736 9.793 9.746 9.761 9.768 9.796 9.753 9.736 9.698 9.726 9.783 9.761 9.698 9.728 9.753 9.786 9.826 9.806 9.741 9.441 9.458 9.826 9.706 9.458 9.253 9.101
9.451 8.779 8.926 8.629 8.254 7.909 8.059 8.041 8.106 8.019 8.096 8.276 8.343 8.32 8.132 8.01 7.964 7.88 7.855 7.89 7.861 7.827 7.808 7.891 8.835 9.113 8.764 7.834 9.283 8.86 9.338 9.684 10.991 10.741 11.679 11.779 8.591 8.361 8.079 8.276 8.659 9.856 9.134 10.089 10.416 9.961 10.864 12.934 13.546 12.779 11.956 12.919 13.204 13.444 14.846 15.656 13.859 14.001 12.511 11.316 10.949 10.691 11.874 13.306 13.659 13.074 13.561 13.941 12.414 10.511 11.764 10.124 10.494 10.589 10.574 7.544 7.689 8.684 7.146 6.929 8.546 6.906 7.381 7.489 7.091 7.069 7.094 7.134 7.899 8.244 7.144 7.164 7.181 7.124 7.446 7.181 7.564 7.144 7.151 7.154 7.151 7.156 7.204 7.216 7.234 7.194 7.221 7.204 7.209 7.191 7.211 7.234 7.226 7.149 7.231 9.126 8.394 12.519 13.711 10.471 13.081 13.254 7.374 7.439 7.489 7.491 7.496 7.486 7.506 7.516 7.551 7.551 7.549 7.554 7.544 7.551 7.596 7.604 7.579 7.594 7.554 7.566 7.591 7.569 7.569 7.534 7.549 7.559 7.566 7.576 7.579 7.619 7.596 7.576 7.559 7.609 7.541 7.596 7.611 7.594 7.621 7.661 7.684 7.681 7.674 7.686 7.746 7.749 7.776 7.811 7.831 7.864 7.891 7.886 7.914 7.879 7.941 7.974 7.896 7.984 7.979 7.964 8.016 7.974 7.939 7.901 7.946 7.951 7.916 7.999 8.061 7.976 7.871 7.846 7.849 7.849 7.846 7.821 7.844 7.876 7.836 7.853 7.816 7.801 7.813 7.863 7.943 7.938 7.993 7.996 8.038 8.061 8.063 8.076 8.091 8.088 8.228 8.341 8.381 8.391 8.343 8.313 9.151 12.523 13.678 13.801 14.543 13.301 13.831 12.711 11.413 9.978 8.298 8.243 8.266 8.291 8.203 8.336 8.403 8.868 7.966 7.983 7.998 8.036 8.078 8.101 8.118 8.153 8.168 8.113 8.111 8.136 8.161 8.193 8.216 8.256 8.321 8.343 8.413 8.433 8.478 8.498 8.516 8.523 8.486 8.516 8.548 8.563 8.553 8.593 8.618 8.631 8.606 8.623 8.656 8.658 8.721 8.741 8.738 8.746 8.751 8.783 8.813 8.816 8.843 8.851 8.866 8.856 8.851 8.898 8.891 8.861 8.908 8.903 8.938 8.951 8.961 8.981 8.988 8.958 9.008 8.971 8.971 8.976 8.981 8.938 9.001 8.993 8.978 8.983 8.968 8.988 9.006 9.018 9.048 9.046 9.048 9.063 9.073 9.078 9.071 9.048 9.093 9.086 9.096 9.098 9.101 9.088 9.141 9.123 9.138 9.158 9.173 9.203 9.238 9.281 9.301 9.296 9.238 9.281 9.336 9.371 9.381 9.348 9.341 9.383 9.421 9.431 9.438 9.481 9.483 9.493 9.511 9.508 9.496 9.523 9.551 9.588 9.558 9.573 9.618 9.616 9.626 9.621 9.668 9.683 9.678 9.713 9.718 9.708 9.718 9.688 9.688 9.706 9.683 9.703 9.701 9.726 9.726 9.743 9.728 9.753 9.738 9.698 9.728 9.753 9.761 9.703 9.676 9.693 9.691 9.653 9.673 9.711 9.726 9.676 9.681 9.678 9.676 9.658 9.643 9.651 9.671 9.638 9.656 9.648 9.666 9.668 9.628 9.626 9.651 9.638 9.613 9.648 9.653 9.613 9.601 9.613 9.631 9.608 9.623 9.628 9.606 9.638 9.623 9.586 9.611 9.601 9.553 9.498 9.451 9.398 9.343 9.221 9.151 11.033 13.246 13.878 15.448 14.538 10.618 12.803 14.743 13.506 10.036 9.946 9.811 9.803 9.823 9.913 10.998 10.506 9.871 9.821 9.791 9.783 9.758 9.746 9.783 9.801 9.853 9.818 9.816 9.776 9.751 9.721 9.721 9.698 9.746 9.746 9.803 9.783 9.816 9.816 9.881 9.943 10.053 9.916 9.586 9.268 9.813 9.713 9.421 9.243 9.101
7.724 7.706 8.519 8.631 8.089 8.074 9.041 7.776 9.166 9.141 9.394 9.841 8.916 9.066 8.525 8.089 8.042 7.963 7.934 7.893 7.911 7.895 7.91 8.591 10.794 11.508 10.667 7.915 7.841 7.777 8.713 10.731 9.711 8.281 8.931 7.979 7.774 7.786 7.739 7.734 7.774 7.744 7.754 7.779 7.774 7.776 8.739 10.244 8.966 9.434 9.734 10.566 9.329 10.281 13.506 15.596 13.231 12.044 11.991 11.471 11.484 11.326 11.589 12.564 14.234 12.064 10.056 14.789 14.251 12.974 10.019 14.851 13.059 14.359 13.011 11.716 11.211 11.866 12.326 12.579 11.284 12.119 11.831 12.154 10.336 10.181 9.149 10.471 13.189 13.146 8.079 7.969 9.751 11.954 12.311 11.154 9.199 7.086 7.239 7.666 9.071 7.244 8.879 8.926 8.214 7.246 7.736 8.281 7.376 7.886 7.179 7.376 7.751 7.164 10.191 8.829 7.361 8.946 10.994 9.764 15.409 9.094 8.224 7.361 7.411 7.416 7.434 7.431 7.449 7.469 7.456 7.439 7.459 7.459 7.456 7.451 7.471 7.439 7.451 7.449 7.481 7.484 7.501 7.491 7.529 7.504 7.516 7.554 7.566 7.569 7.559 7.594 7.564 7.566 7.581 7.574 7.574 7.566 7.604 7.581 7.591 7.616 7.629 7.619 7.651 7.689 7.684 7.751 7.746 7.789 7.786 7.806 7.836 7.884 7.876 7.859 7.879 7.886 7.919 7.941 7.941 7.936 7.936 7.899 7.891 7.904 7.946 7.921 7.989 7.969 7.956 7.954 7.854 7.856 7.856 7.841 7.826 7.816 7.826 7.813 7.823 7.846 7.826 7.811 7.893 7.966 8.138 8.103 8.021 7.988 7.981 8.061 8.113 8.073 8.096 8.163 8.296 8.281 8.401 8.346 8.313 9.368 10.916 13.313 12.381 12.848 11.176 14.076 14.826 13.676 13.613 12.458 8.968 8.246 8.281 8.286 8.231 8.321 8.418 9.326 7.938 7.926 7.941 7.986 8.048 8.056 8.093 8.118 8.158 8.116 8.156 8.156 8.143 8.186 8.211 8.243 8.258 8.303 8.348 8.393 8.453 8.473 8.458 8.463 8.441 8.443 8.453 8.456 8.488 8.528 8.568 8.598 8.621 8.661 8.626 8.661 8.703 8.656 8.661 8.688 8.688 8.698 8.753 8.791 8.788 8.798 8.813 8.831 8.851 8.873 8.876 8.838 8.876 8.871 8.891 8.906 8.906 8.906 8.918 8.916 8.951 8.953 8.961 8.941 8.966 8.946 8.966 9.001 9.033 9.023 9.048 9.038 9.023 9.061 9.041 9.093 9.098 9.071 9.061 9.076 9.081 9.056 9.108 9.103 9.123 9.126 9.131 9.121 9.161 9.161 9.151 9.143 9.141 9.156 9.153 9.196 9.193 9.226 9.261 9.308 9.361 9.373 9.386 9.378 9.398 9.408 9.401 9.413 9.436 9.443 9.463 9.468 9.498 9.488 9.481 9.523 9.541 9.541 9.553 9.558 9.603 9.606 9.616 9.636 9.633 9.651 9.633 9.676 9.686 9.698 9.706 9.723 9.696 9.691 9.691 9.658 9.718 9.723 9.723 9.713 9.716 9.718 9.691 9.656 9.688 9.703 9.731 9.673 9.651 9.641 9.671 9.688 9.666 9.708 9.708 9.661 9.658 9.668 9.676 9.673 9.693 9.678 9.666 9.633 9.648 9.631 9.638 9.613 9.593 9.591 9.581 9.578 9.588 9.601 9.591 9.571 9.566 9.591 9.601 9.626 9.586 9.583 9.578 9.596 9.568 9.536 9.546 9.543 9.523 9.463 9.408 9.311 9.356 9.303 9.193 9.626 10.723 12.366 13.693 11.796 10.648 14.286 14.978 13.913 10.641 10.001 9.896 9.846 9.816 9.823 9.838 9.811 9.766 9.783 9.811 9.791 9.783 9.791 9.798 9.786 9.808 9.798 9.758 9.873 9.728 9.721 9.683 9.686 9.696 9.706 9.718 9.716 9.678 9.701 9.728 9.778 10.023 9.973 9.811 9.098 9.736 9.618 9.413 9.278 9.166
7.321 7.289 7.306 7.359 7.261 7.441 7.526 6.949 6.949 7.701 9.799 9.906 9.194 10.247 9.774 8.553 8.863 9.448 8.805 8.49 8.157 8.16 8.167 8.46 9.681 10.592 9.548 7.874 7.706 9.082 12.661 13.806 15.579 12.391 13.881 10.034 7.921 7.919 7.879 7.836 8.239 8.336 10.121 10.651 9.254 7.774 7.781 7.759 7.776 7.789 8.366 9.336 9.276 9.029 9.381 12.304 11.391 11.534 10.451 10.711 11.001 9.889 8.406 12.204 11.039 12.474 11.589 13.956 11.656 10.459 14.494 14.311 14.354 14.736 13.791 12.616 12.484 12.741 13.059 13.014 12.616 14.596 11.046 12.689 14.151 12.594 14.284 15.026 15.154 13.926 13.606 13.136 14.519 14.471 14.254 12.454 12.751 10.896 12.684 11.306 10.551 10.081 10.161 12.321 10.879 10.781 10.134 9.661 9.189 9.459 7.786 9.319 10.194 9.781 10.179 11.056 7.234 8.294 7.194 10.601 10.256 12.881 9.186 7.326 7.736 8.796 8.659 8.756 9.509 8.256 7.364 7.379 7.406 7.409 7.411 7.399 7.379 7.401 7.406 7.409 7.441 7.441 7.469 7.471 7.471 7.494 7.484 7.511 7.519 7.576 7.569 7.594 7.586 7.544 7.524 7.536 7.541 7.546 7.589 7.589 7.609 7.681 7.659 7.669 7.706 7.694 7.704 7.704 7.739 7.769 7.791 7.819 7.824 7.826 7.834 7.864 7.871 7.864 7.886 7.924 7.946 7.899 7.921 7.909 7.911 7.929 7.946 7.939 7.931 7.914 7.916 7.934 7.904 7.936 7.874 7.866 7.866 7.871 7.849 7.836 7.836 7.823 7.836 7.878 7.916 7.896 8.218 8.173 7.981 7.953 7.948 7.976 8.033 8.063 8.156 8.218 8.283 8.298 8.333 8.293 8.353 9.028 12.828 14.368 11.148 10.361 12.598 12.196 13.333 12.513 12.738 10.236 8.291 8.221 8.281 8.268 8.223 8.333 8.538 9.413 7.878 7.888 7.921 7.911 7.968 8.001 8.038 8.041 8.088 8.096 8.118 8.158 8.163 8.166 8.171 8.211 8.223 8.258 8.271 8.303 8.381 8.416 8.456 8.436 8.441 8.413 8.386 8.408 8.423 8.488 8.498 8.546 8.556 8.571 8.586 8.571 8.598 8.586 8.608 8.626 8.636 8.663 8.738 8.753 8.756 8.783 8.806 8.791 8.801 8.818 8.833 8.841 8.841 8.851 8.861 8.863 8.836 8.876 8.876 8.888 8.923 8.948 8.943 8.956 8.983 8.963 8.971 9.006 9.003 9.003 9.023 9.018 9.006 9.028 9.056 9.058 9.056 9.058 9.046 9.013 9.016 9.011 9.033 9.018 9.046 9.081 9.096 9.076 9.088 9.103 9.121 9.101 9.098 9.108 9.116 9.136 9.091 9.128 9.176 9.251 9.328 9.298 9.273 9.316 9.343 9.361 9.351 9.336 9.343 9.346 9.363 9.411 9.421 9.421 9.403 9.436 9.466 9.458 9.453 9.466 9.508 9.508 9.528 9.563 9.568 9.573 9.568 9.631 9.638 9.648 9.663 9.658 9.653 9.676 9.671 9.671 9.666 9.711 9.711 9.721 9.711 9.706 9.671 9.681 9.688 9.713 9.681 9.681 9.681 9.703 9.688 9.643 9.663 9.708 9.703 9.671 9.681 9.671 9.711 9.668 9.668 9.653 9.616 9.571 9.616 9.586 9.588 9.566 9.556 9.566 9.541 9.558 9.558 9.571 9.611 9.583 9.553 9.561 9.573 9.588 9.556 9.511 9.543 9.601 9.558 9.496 9.538 9.526 9.486 9.431 9.383 9.361 9.303 9.233 9.236 9.418 10.183 11.538 12.001 11.086 11.771 13.791 14.483 15.281 11.891 9.901 9.826 9.768 9.733 9.711 9.753 9.761 9.706 9.681 9.731 9.756 9.781 9.838 9.988 11.728 10.411 15.366 15.983 13.656 10.728 9.681 9.616 9.598 9.593 9.598 9.613 9.598 9.603 9.551 9.546 9.556 9.798 9.891 9.823 9.233 9.528 9.478 9.323 9.248 9.108
7.731 8.009 7.344 7.261 7.279 7.246 7.226 7.209 7.139 7.136 7.518 7.135 7.441 7.831 8.543 7.648 8.123 8.586 8.184 8.54 8.777 8.722 9.174 8.848 9.193 9.086 8.695 8.532 8.542 8.341 11.354 14.129 12.424 13.646 14.234 12.321 10.496 9.979 10.014 10.714 12.281 11.376 11.831 14.249 12.761 10.569 7.954 7.901 7.851 7.849 7.819 7.836 7.789 7.764 7.764 7.731 7.721 7.829 8.971 8.559 9.276 7.801 8.109 10.089 10.509 11.639 10.404 10.544 8.844 10.604 12.414 13.361 13.459 10.889 10.879 10.539 11.111 11.559 12.679 13.584 11.916 13.769 11.911 12.109 13.804 12.519 13.976 14.951 15.359 12.199 13.191 14.306 15.116 14.376 13.084 12.679 14.381 13.634 13.749 13.701 11.964 13.031 13.699 13.506 12.724 13.576 14.319 13.314 14.684 14.514 14.294 14.529 12.149 10.294 12.644 13.516 8.959 9.424 9.799 13.649 17.574 14.626 9.714 8.984 11.754 12.849 13.116 13.471 13.659 11.634 8.386 8.104 8.231 8.401 8.466 9.301 10.641 8.279 7.934 8.274 8.006 8.191 8.041 8.166 8.139 7.976 7.854 7.929 8.014 7.939 7.911 7.866 7.739 7.926 7.799 7.751 7.544 7.544 7.836 7.591 7.614 7.769 7.834 7.696 7.671 7.776 7.696 7.726 7.734 7.794 7.771 7.784 7.779 7.811 7.781 7.839 7.839 7.859 7.874 7.879 7.909 7.916 7.929 7.919 7.919 7.936 7.959 7.944 7.951 7.949 7.929 7.886 7.851 7.854 7.839 7.849 7.814 7.809 7.839 7.836 7.816 7.798 7.866 8.111 8.921 8.018 8.163 8.621 8.078 7.976 7.986 7.948 7.896 8.003 8.168 8.256 8.236 8.323 8.306 8.298 8.521 8.638 11.216 13.291 11.206 11.563 12.426 12.373 10.896 9.131 8.893 8.373 8.331 8.228 8.266 8.266 8.283 8.323 8.818 9.038 7.851 7.871 7.891 7.936 7.933 7.953 7.966 7.986 8.013 8.066 8.096 8.128 8.166 8.173 8.186 8.228 8.263 8.281 8.271 8.266 8.318 8.336 8.348 8.368 8.356 8.353 8.373 8.371 8.366 8.456 8.481 8.488 8.508 8.518 8.511 8.491 8.518 8.521 8.536 8.556 8.573 8.651 8.676 8.691 8.708 8.736 8.746 8.768 8.763 8.753 8.778 8.793 8.801 8.803 8.831 8.838 8.833 8.861 8.901 8.908 8.926 8.931 8.938 8.926 8.928 8.948 8.948 8.973 9.016 9.023 9.021 9.008 8.986 9.016 9.026 9.031 9.016 8.998 9.008 8.998 8.988 8.983 9.011 8.993 8.993 8.996 9.031 9.038 9.036 9.056 9.063 9.101 9.108 9.108 9.121 9.111 9.093 9.123 9.136 9.173 9.226 9.233 9.238 9.218 9.276 9.266 9.291 9.301 9.301 9.296 9.328 9.343 9.368 9.346 9.368 9.418 9.426 9.406 9.396 9.393 9.456 9.471 9.496 9.511 9.513 9.518 9.538 9.546 9.558 9.576 9.591 9.583 9.573 9.613 9.608 9.593 9.631 9.646 9.678 9.683 9.681 9.698 9.676 9.681 9.711 9.681 9.656 9.633 9.643 9.653 9.628 9.613 9.601 9.651 9.658 9.636 9.633 9.653 9.646 9.628 9.628 9.563 9.588 9.546 9.563 9.556 9.536 9.543 9.516 9.536 9.528 9.531 9.501 9.523 9.503 9.498 9.498 9.488 9.528 9.531 9.513 9.486 9.546 9.561 9.528 9.471 9.463 9.473 9.448 9.403 9.361 9.348 9.206 9.283 9.261 9.438 10.146 11.763 11.786 11.008 11.148 15.183 15.231 13.878 10.518 9.666 9.713 9.731 9.661 9.616 9.601 9.601 9.593 9.573 9.596 9.606 9.696 9.773 9.731 12.681 15.596 18.458 18.561 16.011 11.266 9.548 9.471 9.423 9.413 9.443 9.416 9.411 9.418 9.311 9.273 9.321 9.468 9.661 9.546 9.298 9.111 9.433 9.276 9.186 9.073
7.421 7.299 7.291 7.779 7.581 7.174 7.151 7.124 7.226 7.394 7.389 7.155 7.147 7.137 7.128 7.148 7.167 7.374 7.786 7.098 7.275 7.846 8.086 7.142 7.674 7.161 7.224 7.385 7.399 7.504 7.891 9.049 9.664 11.754 12.549 10.314 9.869 10.466 10.614 10.691 11.076 12.261 13.519 12.896 13.839 11.991 7.926 7.971 8.101 8.144 8.206 8.776 11.154 9.511 7.929 8.039 9.134 11.629 12.989 13.059 10.969 7.794 7.789 7.789 8.931 8.344 8.039 7.774 7.746 8.231 9.956 8.646 10.289 8.806 7.874 7.729 7.954 8.991 8.736 9.896 8.214 8.984 7.686 7.731 9.779 10.851 11.431 14.044 12.769 12.981 7.599 8.561 10.611 10.711 11.421 12.569 14.031 12.666 13.654 12.769 13.811 12.381 12.984 13.631 13.691 15.259 15.801 14.481 14.099 15.026 15.651 15.694 14.431 11.631 12.536 12.251 11.829 12.251 10.259 10.624 13.979 9.569 8.439 10.079 11.461 12.631 13.764 14.826 14.736 12.901 9.319 8.279 8.199 8.409 8.736 10.471 12.004 11.139 10.871 11.299 8.824 8.416 8.456 8.474 8.486 8.456 8.471 8.564 8.631 8.634 8.469 8.389 8.571 8.649 8.696 8.781 8.759 10.604 12.124 11.114 9.611 8.974 8.866 9.054 9.196 8.991 8.971 9.086 9.186 10.141 9.956 9.571 10.226 10.161 9.594 9.664 9.616 9.659 9.311 9.191 9.724 9.459 10.696 9.839 10.041 8.594 9.221 9.104 8.569 8.499 8.301 8.111 8.169 8.399 8.039 9.476 10.951 8.541 7.851 7.918 8.368 8.611 8.493 10.598 13.088 12.351 9.491 8.603 8.268 8.113 8.153 8.158 8.241 8.463 8.721 8.328 8.361 8.348 8.363 8.513 8.926 8.663 11.433 12.998 12.636 11.096 8.558 8.891 8.516 8.516 8.426 8.381 8.301 8.206 8.253 8.281 8.263 8.341 8.991 8.966 7.873 7.858 7.911 7.936 7.943 7.966 7.988 8.003 8.026 8.048 8.073 8.098 8.126 8.141 8.153 8.178 8.238 8.238 8.271 8.288 8.298 8.303 8.276 8.276 8.248 8.323 8.308 8.328 8.313 8.381 8.401 8.423 8.461 8.468 8.468 8.491 8.503 8.488 8.516 8.518 8.551 8.621 8.621 8.648 8.683 8.703 8.718 8.748 8.756 8.758 8.771 8.776 8.806 8.793 8.813 8.823 8.823 8.848 8.838 8.873 8.886 8.886 8.898 8.926 8.916 8.933 8.938 8.948 8.956 9.001 9.011 8.983 8.983 8.948 8.978 8.998 8.991 8.988 8.993 8.988 9.036 9.026 9.016 9.016 8.998 8.983 8.998 9.026 9.053 9.046 9.051 9.093 9.108 9.113 9.108 9.098 9.083 9.111 9.106 9.116 9.121 9.123 9.148 9.166 9.201 9.241 9.251 9.268 9.288 9.311 9.318 9.293 9.336 9.363 9.376 9.378 9.366 9.378 9.408 9.436 9.441 9.471 9.466 9.478 9.491 9.538 9.541 9.578 9.568 9.596 9.581 9.558 9.558 9.541 9.526 9.563 9.591 9.581 9.601 9.621 9.633 9.631 9.626 9.631 9.633 9.606 9.626 9.608 9.623 9.631 9.646 9.581 9.598 9.608 9.578 9.588 9.593 9.593 9.598 9.601 9.598 9.556 9.573 9.541 9.513 9.493 9.518 9.531 9.523 9.493 9.471 9.461 9.436 9.466 9.461 9.446 9.446 9.466 9.491 9.488 9.486 9.471 9.493 9.523 9.496 9.446 9.476 9.476 9.471 9.426 9.368 9.348 9.253 9.198 9.308 9.401 11.991 13.131 12.308 10.991 11.358 16.726 14.571 13.086 10.186 9.481 9.498 9.543 9.573 9.498 9.443 9.393 9.378 9.391 9.413 9.421 9.516 9.573 9.593 17.113 18.458 18.438 15.623 16.291 13.226 9.386 9.298 9.241 9.238 9.273 9.276 9.271 9.253 9.188 9.123 9.106 9.158 9.286 9.293 9.271 8.961 9.233 9.286 9.201 9.088
7.154 7.186 7.274 7.646 7.719 7.109 7.044 7.049 7.164 7.651 7.377 7.217 7.431 7.321 7.208 7.242 7.36 7.214 7.158 7.238 7.206 7.158 7.233 7.199 7.46 8.108 8.198 7.171 7.716 7.576 6.996 6.841 6.911 8.164 7.774 7.546 8.309 8.941 9.416 8.961 8.411 8.851 9.214 10.606 12.586 9.691 7.876 8.361 8.611 8.544 8.436 8.504 11.991 10.996 7.939 8.081 11.071 12.354 13.154 13.101 11.261 8.199 8.274 8.766 10.919 10.541 9.371 11.199 10.276 11.844 12.299 11.216 10.014 10.379 10.899 10.114 8.991 7.909 7.754 7.776 7.756 7.776 7.734 8.141 8.206 9.216 8.606 11.301 8.711 8.846 8.024 11.589 8.229 9.829 12.791 11.324 9.196 10.616 10.921 12.234 11.329 12.626 12.779 12.366 11.731 13.974 12.846 12.834 11.306 9.994 14.931 13.014 11.214 9.414 9.244 8.024 9.036 10.734 8.436 8.269 8.154 7.919 8.109 9.686 10.396 12.366 13.919 14.576 14.349 13.276 8.891 7.789 7.764 7.859 7.859 8.411 9.936 9.524 10.194 11.406 9.466 7.821 7.946 7.946 8.119 7.921 7.861 7.931 8.044 7.926 7.849 7.876 8.024 7.984 8.149 8.439 11.431 12.926 13.414 13.216 11.666 9.089 9.169 9.191 9.191 9.904 10.274 10.621 12.341 11.609 12.344 12.116 12.356 12.529 12.286 11.784 11.581 12.044 11.761 10.796 10.846 12.316 13.686 13.124 12.359 12.456 12.631 12.516 9.471 9.444 9.266 9.269 10.264 10.716 10.499 12.026 12.834 12.209 12.089 12.318 12.611 11.683 11.618 13.921 14.993 13.523 11.681 9.066 9.141 9.016 9.293 9.218 9.406 9.438 9.331 9.006 8.763 8.828 9.053 9.243 10.846 11.198 11.828 12.993 13.386 11.086 8.583 8.541 8.588 10.168 8.471 8.356 8.201 8.196 8.211 8.221 8.251 8.363 9.101 8.291 7.948 7.951 8.011 8.043 8.003 7.943 7.966 8.021 8.036 8.088 8.098 8.576 9.481 8.663 8.143 8.176 8.196 8.228 8.218 8.221 8.238 8.266 8.261 8.263 8.288 8.283 8.273 8.276 8.291 8.536 8.366 8.371 8.431 8.446 8.451 8.498 8.518 8.531 8.561 8.586 8.611 8.618 8.641 8.676 9.003 9.296 8.748 8.751 8.743 8.746 8.726 8.746 8.776 8.763 8.786 8.826 8.798 8.793 8.801 8.823 8.841 8.856 8.878 8.883 8.886 8.906 8.931 8.951 8.981 8.971 8.933 8.933 8.946 8.951 8.943 8.951 8.941 8.926 8.958 8.988 8.986 8.991 8.986 8.958 9.001 9.023 8.986 9.016 9.048 9.038 9.056 9.041 9.053 9.061 9.081 9.091 9.081 9.071 9.076 9.091 9.071 9.076 9.083 9.111 9.176 9.201 9.208 9.261 9.273 9.308 9.321 9.333 9.333 9.376 9.378 9.381 9.343 9.381 9.388 9.378 9.393 9.381 9.456 9.468 9.463 9.518 9.541 9.561 9.548 9.581 9.508 9.518 9.478 9.466 9.463 9.496 9.513 9.526 9.523 9.503 9.553 9.566 9.598 9.578 9.571 9.563 9.551 9.558 9.541 9.558 9.571 9.548 9.523 9.548 9.531 9.516 9.506 9.531 9.516 9.516 9.531 9.528 9.526 9.511 9.471 9.473 9.483 9.481 9.433 9.423 9.438 9.448 9.431 9.453 9.443 9.446 9.478 9.498 9.506 9.523 9.508 9.481 9.503 9.518 9.491 9.448 9.448 9.451 9.443 9.398 9.343 9.346 9.308 9.273 9.293 9.868 11.688 11.966 11.703 11.083 12.618 16.113 15.328 15.136 10.773 9.388 9.356 9.338 9.403 9.441 9.373 9.318 9.276 9.223 9.271 9.236 9.306 9.326 9.348 13.773 17.613 16.383 18.936 17.483 15.551 9.408 9.161 9.111 9.091 9.136 9.141 9.123 9.083 9.023 9.018 8.976 8.976 9.006 9.121 9.146 9.088 8.591 9.328 9.243 9.113
7.181 7.171 7.341 7.554 7.586 7.089 7.063 7.074 7.147 7.22 7.125 7.238 7.821 7.298 7.178 7.431 7.426 7.471 7.075 7.451 7.156 7.083 7.101 7.093 7.188 7.143 7.142 7.219 7.274 7.184 7.381 7.274 7.676 7.719 7.259 7.984 7.844 7.381 7.919 7.299 6.181 6.876 7.099 8.681 8.596 7.984 7.624 7.976 7.594 7.209 7.759 7.916 7.281 8.324 7.979 7.514 9.139 11.279 12.426 12.049 9.676 8.379 9.804 11.059 11.826 11.721 11.824 12.061 13.104 14.201 14.361 13.606 13.204 11.874 14.444 15.099 12.341 9.014 8.116 9.969 11.804 11.294 11.136 13.459 11.801 11.279 10.934 9.096 8.486 11.131 13.024 10.844 13.311 11.014 10.701 8.936 8.014 7.789 9.279 9.016 8.871 9.726 8.916 8.034 7.964 8.339 8.141 7.779 7.866 9.111 10.429 11.546 9.159 7.809 7.784 7.799 7.791 7.816 7.796 7.831 7.844 7.809 7.886 8.231 8.314 9.959 13.091 13.539 13.001 10.626 8.369 7.849 7.824 7.881 7.841 7.836 7.871 7.894 7.941 7.991 7.931 7.954 7.914 7.859 7.879 7.856 7.801 7.926 7.994 7.831 7.766 7.776 7.781 7.814 7.849 8.129 11.344 12.359 13.241 13.286 12.599 9.081 8.296 8.564 8.656 10.846 10.971 11.214 12.581 12.426 12.601 13.066 12.654 12.674 12.281 11.884 11.664 12.074 12.569 11.216 11.386 12.271 13.721 14.386 11.331 13.761 14.359 13.681 11.419 8.879 9.066 9.039 9.889 10.931 10.909 12.259 12.614 12.604 12.634 11.751 13.121 11.586 12.973 11.211 10.571 13.436 10.368 8.896 9.123 9.318 9.528 9.626 9.851 9.531 9.293 9.396 9.376 9.546 9.758 10.031 11.223 11.358 11.258 12.681 11.753 11.028 8.736 8.551 9.293 9.203 8.376 8.303 8.196 8.191 8.243 8.263 8.238 8.323 9.161 9.021 8.876 8.816 8.611 9.093 9.166 8.611 8.718 8.823 10.568 8.613 9.503 12.031 9.736 11.216 8.188 8.243 8.208 8.188 8.196 8.691 8.741 8.213 8.221 8.268 8.256 8.288 9.371 11.978 11.373 9.271 10.926 9.188 8.463 8.483 8.518 8.541 8.566 8.566 8.586 8.621 10.698 9.576 10.856 11.191 12.296 12.031 11.108 9.538 8.701 8.691 8.688 8.723 8.738 8.763 8.736 8.791 8.808 8.836 8.843 8.841 8.863 8.858 8.851 8.843 8.843 8.891 8.881 8.948 8.963 8.926 8.958 8.958 8.966 8.936 8.956 8.921 8.943 8.908 8.938 8.913 8.901 8.931 8.941 8.956 8.961 9.011 8.998 9.038 9.028 9.058 9.081 9.066 9.038 9.003 9.048 9.066 9.033 9.038 9.068 9.031 9.011 9.046 9.063 9.053 9.073 9.063 9.141 9.203 9.221 9.238 9.268 9.293 9.273 9.306 9.301 9.291 9.258 9.281 9.316 9.338 9.341 9.356 9.378 9.411 9.438 9.443 9.513 9.516 9.538 9.498 9.461 9.443 9.433 9.438 9.431 9.423 9.458 9.433 9.411 9.413 9.453 9.463 9.481 9.498 9.463 9.456 9.463 9.466 9.481 9.498 9.466 9.483 9.496 9.471 9.473 9.453 9.431 9.446 9.463 9.456 9.498 9.506 9.516 9.478 9.426 9.453 9.458 9.393 9.351 9.366 9.421 9.436 9.383 9.396 9.418 9.441 9.416 9.428 9.456 9.478 9.436 9.438 9.451 9.468 9.491 9.441 9.438 9.473 9.468 9.451 9.371 9.351 9.306 9.441 9.438 11.476 12.593 13.501 11.581 11.196 12.328 16.776 15.821 13.623 9.361 9.278 9.893 9.233 9.223 9.223 9.296 9.283 9.298 9.278 9.268 9.263 9.253 9.241 9.203 10.138 18.046 19.943 17.103 19.471 13.426 9.023 8.998 8.978 8.998 9.013 9.046 9.008 8.958 8.968 8.946 8.916 8.891 8.911 8.958 9.143 9.213 8.823 9.056 9.033 9.033
8.094 7.801 7.334 7.629 7.134 7.091 7.065 7.089 7.371 7.73 7.235 7.042 7.169 7.09 7.134 7.37 7.059 7.258 6.978 7.369 6.978 7.051 7.017 6.98 7.112 7.036 7.616 7.224 7.209 7.431 9.621 8.346 7.229 7.244 7.234 7.269 7.274 8.216 9.126 7.364 6.754 7.011 7.129 7.124 7.109 7.096 7.056 7.066 7.106 7.124 7.089 7.081 7.054 7.034 7.026 7.051 7.009 7.806 8.339 7.226 7.041 7.619 7.244 8.071 10.294 9.221 9.856 9.746 11.519 13.921 14.501 14.071 12.589 11.344 14.031 14.594 13.266 8.586 8.551 11.519 12.991 13.209 13.101 14.169 13.556 12.554 11.994 10.786 10.969 12.816 13.769 14.354 13.724 13.076 10.264 8.891 11.816 10.356 12.211 10.071 10.771 11.829 9.206 7.661 10.869 12.001 12.954 9.964 10.124 10.234 9.876 9.389 7.784 7.781 7.831 7.866 8.186 7.846 8.424 10.526 7.856 9.236 8.209 7.866 7.879 8.179 8.996 9.681 8.561 7.936 7.879 7.891 7.889 7.904 7.881 7.891 7.876 7.901 7.926 7.924 7.924 7.944 7.919 7.944 7.924 7.914 7.916 7.909 7.904 7.924 7.891 7.911 7.944 7.931 7.949 7.936 9.361 11.224 11.371 10.149 9.959 8.554 7.956 7.979 7.946 8.199 8.019 9.896 12.054 10.574 11.094 10.574 10.961 9.864 9.176 9.179 9.554 11.989 12.324 10.246 9.901 12.056 12.084 13.736 12.079 14.331 14.101 13.236 11.186 8.666 8.961 8.946 8.539 8.706 9.046 11.244 11.969 12.421 12.279 12.381 11.731 12.716 15.083 16.166 14.043 12.343 9.588 8.871 8.971 9.023 9.023 9.181 9.151 8.833 8.818 8.646 8.591 9.258 9.471 9.366 9.866 10.126 10.348 11.123 11.208 10.606 8.698 8.496 8.451 8.381 8.348 8.233 8.193 8.226 8.273 8.256 8.218 8.328 8.666 9.893 9.733 9.426 9.343 9.966 10.623 10.861 10.968 11.103 11.343 10.861 11.356 13.268 12.931 12.748 9.676 9.541 9.083 10.123 11.691 12.216 12.516 10.638 8.786 8.836 8.836 10.061 12.871 11.763 12.603 13.756 13.393 12.646 11.313 9.043 8.806 9.353 11.168 11.293 9.876 11.598 13.018 15.021 14.873 11.946 12.603 16.306 14.121 13.758 11.021 11.618 10.706 10.333 9.631 9.493 8.908 8.851 8.768 8.766 8.743 9.068 8.788 8.926 8.766 8.771 8.801 8.823 8.823 8.871 8.886 8.871 8.856 8.868 8.843 9.263 10.216 9.898 10.021 10.158 8.961 8.891 8.826 8.886 8.911 8.931 8.963 8.948 8.968 9.023 8.986 9.041 9.388 9.038 9.036 8.993 9.021 9.036 9.488 10.276 9.546 9.011 8.981 9.348 9.096 9.586 9.088 9.111 9.143 9.176 9.211 10.526 10.403 12.183 9.206 9.263 9.278 9.271 9.181 9.203 9.273 9.338 9.391 9.378 9.388 9.418 9.438 10.443 9.448 9.466 9.473 9.491 9.468 9.463 9.466 9.476 9.486 9.438 9.438 9.476 9.451 9.448 9.436 9.418 9.426 9.443 9.458 9.431 9.438 9.446 9.463 9.491 9.476 9.483 9.503 9.491 9.441 9.443 9.433 9.391 9.408 9.416 9.458 9.473 9.466 9.386 9.361 9.403 9.388 9.343 9.326 9.336 9.391 9.436 9.383 9.371 9.386 9.386 9.371 9.418 9.431 9.458 9.446 9.451 9.483 9.528 9.523 9.493 9.473 9.473 9.496 9.481 9.421 9.416 9.371 9.336 9.378 10.591 12.548 13.883 12.281 11.373 13.041 16.396 14.808 14.818 10.148 11.631 10.143 9.296 9.188 9.158 9.183 9.561 9.243 9.286 9.368 9.396 9.393 9.351 9.296 9.171 12.331 14.751 11.616 10.828 9.836 8.991 8.956 8.968 8.996 9.066 9.101 9.076 9.068 9.093 9.061 9.046 9.068 9.051 9.063 9.076 9.211 9.131 8.951 8.941 8.903
7.199 7.446 7.924 10.129 7.624 7.095 7.071 7.047 7.15 7.292 7.187 6.972 6.956 6.983 6.947 6.933 6.923 6.922 6.935 6.915 6.916 6.922 6.954 7.012 7.083 7.124 7.819 7.149 7.224 7.326 9.479 9.016 7.176 7.241 7.291 7.349 8.214 10.359 11.886 9.216 6.651 7.061 7.114 7.136 7.096 7.069 7.036 7.081 7.106 7.134 7.134 7.096 7.056 7.026 7.059 7.044 7.054 7.079 7.076 7.056 7.036 7.056 7.061 7.036 6.976 6.939 7.724 6.996 7.594 12.009 11.111 7.969 8.319 8.409 9.161 9.931 9.691 7.311 8.216 8.699 9.671 9.896 11.476 10.876 12.379 11.201 11.139 10.369 10.969 12.596 13.391 13.869 13.419 14.359 14.811 12.206 11.294 12.906 13.634 13.436 13.099 13.061 13.974 13.384 13.519 14.241 14.091 12.916 11.301 11.486 10.646 12.596 10.649 12.079 11.229 11.471 10.896 10.444 11.636 11.634 10.259 11.014 11.266 9.191 7.936 7.894 8.311 9.184 8.304 7.919 8.019 8.154 8.439 8.601 8.764 8.336 8.339 8.049 7.921 7.924 7.921 7.914 7.911 7.916 8.436 9.041 10.214 7.924 8.059 7.969 8.226 8.734 8.024 8.521 7.924 7.939 7.924 8.376 9.789 9.201 7.936 7.939 7.976 7.976 7.989 7.989 7.971 8.046 8.236 7.989 7.996 8.349 7.949 7.954 7.969 7.964 7.969 7.979 7.974 7.956 7.984 8.316 10.066 10.736 12.401 12.601 12.959 11.001 9.474 8.151 8.179 8.171 8.181 8.044 8.061 8.751 9.144 9.634 10.239 11.406 9.038 9.353 12.568 15.451 14.456 13.213 9.673 8.533 8.711 8.706 8.748 8.908 8.883 9.106 8.701 8.613 8.613 8.716 8.621 8.708 9.613 9.963 9.913 10.163 10.351 9.511 8.591 8.443 8.421 8.373 8.303 8.216 8.161 8.221 8.251 8.226 8.243 8.293 8.298 8.586 9.611 9.723 9.621 10.481 10.676 11.201 11.726 10.911 10.361 11.011 13.323 14.133 14.246 13.463 11.693 9.491 9.823 11.186 12.838 13.068 12.496 11.473 9.813 9.516 9.563 11.588 13.578 13.093 14.506 14.593 14.133 12.588 11.016 10.016 9.953 11.846 13.098 12.286 13.123 12.968 13.801 13.923 15.353 12.941 16.253 15.973 14.986 14.683 13.808 13.661 13.728 13.346 13.296 12.491 11.293 10.593 10.116 9.966 11.238 13.373 13.236 11.873 10.156 9.456 9.438 10.273 10.543 9.516 9.586 10.371 10.303 10.823 10.718 13.121 14.083 13.428 12.653 13.593 12.616 10.893 9.356 10.103 10.103 9.883 10.923 10.916 10.476 11.813 12.506 12.948 12.188 10.806 9.311 9.438 10.396 10.798 12.453 13.148 13.198 12.571 11.683 13.221 12.076 13.681 13.143 13.238 12.958 11.048 11.831 11.483 13.678 12.321 12.733 9.633 9.263 9.413 9.251 9.101 9.176 9.943 9.763 9.281 9.296 9.326 9.328 9.303 9.326 9.358 9.711 10.661 9.421 10.648 10.728 9.701 9.483 12.278 10.448 9.458 9.443 9.431 9.443 9.441 9.438 9.463 9.486 9.468 9.473 9.453 9.438 9.483 9.601 9.458 9.501 9.473 9.428 9.358 9.393 9.413 9.386 9.381 9.381 9.376 9.363 9.321 9.318 9.351 9.316 9.301 9.281 9.323 9.288 9.353 9.313 9.333 9.328 9.356 9.358 9.413 9.453 9.508 9.501 9.518 9.568 9.603 9.588 9.541 9.503 9.506 9.488 9.493 9.441 9.448 9.421 9.363 9.366 9.731 11.116 11.806 11.326 11.523 12.238 16.196 15.593 14.481 9.448 10.356 10.141 9.221 9.146 9.158 9.081 13.006 9.351 9.318 9.516 10.536 13.268 11.501 10.041 9.271 9.318 10.163 9.111 9.111 9.096 9.081 10.458 9.213 9.156 9.191 9.238 9.881 9.333 9.311 9.348 9.316 9.261 9.238 9.908 11.326 10.686 10.051 9.888 12.493 9.618
7.726 7.696 7.409 7.315 7.311 7.08 7.027 6.999 7.137 7.303 7.14 6.948 6.942 6.923 6.911 6.897 6.894 6.869 6.871 6.875 6.88 6.872 6.878 6.877 6.889 6.996 7.016 7.121 7.189 8.064 9.644 8.724 7.139 7.174 7.239 7.314 7.751 9.206 7.951 8.791 7.031 7.246 7.104 7.089 7.059 7.064 7.046 7.066 7.096 7.096 7.064 7.054 7.056 7.021 7.036 6.986 7.014 7.081 7.111 7.039 7.041 7.171 7.064 7.074 7.024 6.994 7.194 7.026 7.004 8.669 8.396 7.001 7.031 7.006 7.019 7.026 7.091 6.994 7.256 6.979 7.269 8.299 7.214 7.631 7.499 7.419 7.829 8.421 8.214 7.734 7.619 10.029 10.169 10.719 9.661 9.284 12.111 12.564 13.441 13.019 12.411 11.341 11.144 11.964 11.916 13.226 13.941 13.796 10.659 11.779 10.809 10.099 13.699 13.876 12.629 12.209 12.139 12.314 10.811 12.674 14.209 13.146 13.499 11.689 8.414 8.694 11.171 12.779 12.341 10.031 9.274 11.371 11.239 11.926 11.514 11.376 11.599 12.046 8.879 7.931 7.949 7.949 8.009 8.321 11.629 12.449 11.811 11.951 12.364 12.421 11.806 11.994 12.186 11.586 8.564 7.966 7.971 8.319 8.124 7.919 7.944 7.956 7.959 7.961 7.976 8.034 8.631 8.419 7.986 8.011 7.996 7.971 7.964 7.979 7.971 8.001 8.014 8.044 8.021 8.031 9.034 8.181 8.044 8.044 8.041 8.184 8.146 8.086 8.119 8.126 8.131 8.126 8.101 8.091 8.046 8.051 8.079 8.129 8.111 8.071 8.091 8.071 10.153 11.658 8.101 8.058 8.143 8.213 8.183 8.208 8.251 8.271 8.263 8.206 8.213 8.203 8.198 8.196 8.208 8.256 9.383 9.506 8.833 8.851 8.696 8.436 8.413 8.408 8.368 8.318 8.211 8.193 8.148 8.213 8.263 8.238 8.206 8.251 8.286 8.251 8.628 9.446 9.351 9.523 9.313 9.026 9.328 8.828 8.741 9.886 13.288 14.276 14.491 12.156 12.723 9.286 9.146 10.503 10.846 12.291 11.976 10.188 9.046 9.021 9.278 12.046 14.133 12.626 11.683 10.686 14.178 11.873 9.336 9.486 9.893 12.633 13.321 12.881 13.148 14.641 14.948 14.841 14.363 14.738 15.891 15.718 15.116 14.033 14.061 13.696 13.653 13.673 13.231 12.361 12.163 11.223 10.873 10.886 12.046 12.823 13.768 13.413 11.033 9.238 9.161 9.736 10.753 11.231 11.831 11.906 11.466 11.811 13.018 14.506 14.568 14.206 12.223 13.768 13.011 10.788 10.273 11.206 11.793 11.658 12.321 13.353 12.546 12.826 12.621 12.843 12.488 11.718 10.546 10.826 12.138 12.296 13.118 13.508 13.841 13.658 14.516 12.426 14.866 14.331 13.273 13.148 15.753 14.183 16.043 15.886 15.291 12.511 15.563 12.333 11.113 11.118 11.538 10.496 11.771 13.493 14.066 12.408 13.548 10.453 11.886 9.526 9.166 13.446 17.433 12.801 14.061 14.546 14.251 14.146 9.326 12.493 12.943 11.593 11.661 11.998 10.348 9.471 9.473 9.701 9.376 10.343 11.388 9.626 10.213 11.023 11.736 10.041 9.496 10.223 11.103 9.576 10.281 10.606 10.781 9.313 9.631 12.078 11.753 10.391 10.256 9.308 9.301 9.868 9.266 9.308 10.456 9.618 9.973 9.313 9.338 10.178 10.133 10.021 13.708 13.133 10.688 9.691 11.283 9.963 9.653 9.571 9.558 9.568 9.558 9.486 10.491 9.806 9.846 9.338 9.298 10.581 12.281 14.928 15.111 12.733 12.881 15.368 16.746 12.063 9.878 9.266 9.286 9.421 10.826 12.808 13.496 17.513 13.473 13.866 12.641 12.678 15.281 16.438 12.386 9.191 12.228 14.421 13.061 10.896 12.061 11.908 13.396 11.626 9.841 11.551 13.726 14.266 10.026 9.293 10.976 11.721 9.486 9.343 13.013 14.076 13.633 15.818 12.163 14.041 14.196
7.516 7.299 7.257 7.251 7.201 7.091 6.94 6.974 7.097 7.086 7.033 6.984 6.873 6.869 6.891 6.957 6.974 6.94 6.931 6.959 7.019 6.941 6.892 6.831 6.834 6.811 6.984 7.096 7.124 7.656 9.494 8.211 7.111 7.166 7.204 7.204 7.154 7.139 7.084 7.031 7.354 9.024 8.596 7.106 7.054 7.029 7.001 6.986 7.034 7.039 7.031 7.041 7.044 7.026 7.024 7.021 7.044 7.071 7.051 7.051 7.009 7.041 7.074 7.069 6.999 6.954 6.981 7.041 7.041 7.599 7.081 7.076 7.044 6.976 7.044 7.071 7.069 7.076 7.096 7.071 7.069 7.051 7.051 7.059 7.061 7.079 7.111 7.146 7.169 7.096 9.121 7.924 7.594 8.154 8.084 7.731 8.251 7.746 9.609 10.259 9.949 7.931 8.021 7.489 8.856 8.251 7.484 11.224 12.486 10.601 12.311 9.674 9.456 8.241 8.804 9.696 9.454 9.359 10.806 12.916 14.649 13.156 10.944 10.094 7.694 8.176 10.201 9.941 10.491 8.706 7.881 8.701 8.106 9.476 9.686 9.591 9.201 8.919 7.889 7.654 7.671 7.694 7.669 8.114 9.964 10.761 10.609 12.939 12.879 12.421 12.359 12.499 13.171 11.316 10.159 7.826 8.616 11.311 10.754 8.004 7.979 8.049 8.469 8.006 8.524 9.471 9.764 9.016 8.039 8.089 8.029 9.169 11.829 12.554 10.939 8.354 8.001 7.976 8.261 11.456 9.259 10.404 12.349 10.129 8.034 8.046 8.046 8.059 8.051 8.079 8.091 8.069 8.071 8.066 8.061 8.094 8.076 8.051 8.061 8.066 8.001 8.016 8.026 9.371 8.098 8.536 8.108 8.126 8.131 8.166 8.141 8.151 8.131 8.138 8.181 8.191 8.168 8.183 8.166 8.158 8.453 8.233 8.231 8.226 8.303 8.318 8.346 8.361 8.378 8.268 8.193 8.163 8.163 8.231 8.266 8.221 8.238 8.203 8.208 8.193 8.168 8.158 8.163 8.258 8.256 8.221 8.228 8.266 8.278 8.701 11.366 11.096 10.766 12.356 10.101 8.373 8.308 8.313 8.463 8.776 8.893 8.318 8.328 8.328 8.343 9.373 12.088 8.666 11.991 13.541 11.721 10.161 8.411 8.471 8.946 11.113 12.266 12.811 12.778 14.246 14.488 13.271 12.696 12.408 14.341 12.223 12.486 10.641 11.681 13.013 13.281 13.838 13.263 11.528 11.061 10.071 10.071 11.481 13.196 10.861 13.353 13.923 11.566 8.403 8.433 8.451 8.946 10.218 10.538 10.418 10.133 11.791 13.061 14.098 14.708 13.423 11.688 12.031 10.951 9.916 9.598 9.968 10.443 11.266 13.148 12.676 13.241 12.956 12.108 11.881 11.686 10.963 10.231 10.798 11.921 11.563 12.391 13.021 13.183 13.223 13.751 12.106 13.971 12.668 13.471 15.078 16.151 16.138 13.138 15.891 15.413 8.823 14.463 12.116 12.848 10.831 11.778 11.836 13.601 12.681 14.488 13.388 12.531 14.308 12.803 13.476 15.756 15.846 12.891 14.951 14.931 14.508 15.901 15.483 14.408 15.273 13.426 12.968 13.926 13.766 12.276 12.016 12.193 11.886 12.241 12.896 13.301 14.631 13.603 12.878 12.181 11.053 9.843 10.731 13.903 12.288 15.193 13.888 13.461 12.621 11.251 13.363 14.883 14.463 12.941 13.991 12.308 13.563 14.123 14.888 13.821 13.841 12.493 13.308 13.868 13.811 15.293 15.136 16.366 16.936 15.861 12.438 13.126 12.408 10.568 9.563 9.571 9.723 9.591 10.468 14.741 16.758 14.518 11.416 13.343 13.901 16.981 18.911 21.421 17.963 12.361 17.148 13.733 12.306 10.473 9.178 9.521 14.703 17.621 19.801 16.816 18.533 15.373 16.561 15.591 15.208 16.328 17.066 15.453 16.166 17.551 17.516 17.763 16.091 17.756 17.478 16.493 16.016 16.791 16.921 16.298 16.181 10.833 11.146 13.561 10.141 14.153 13.716 14.076 15.201 14.728 14.711 13.056 15.918 15.958
6.859 7.976 7.301 7.029 7.01 6.786 6.775 6.797 6.85 6.882 6.82 6.835 6.747 6.761 6.801 6.937 6.943 6.951 6.955 7.093 7.196 7.387 7.136 6.761 6.761 6.786 7.431 7.039 7.019 7.054 7.671 7.026 7.021 7.069 7.076 7.016 6.974 6.986 6.949 6.921 8.014 10.636 8.721 7.069 7.034 6.979 6.944 6.971 7.006 7.024 7.041 7.036 7.021 7.026 7.046 7.031 7.021 7.029 7.021 6.981 6.976 7.069 7.024 7.041 7.059 7.066 7.021 7.039 7.001 7.021 7.024 7.036 7.036 7.006 7.069 7.071 7.049 7.081 7.076 7.051 7.101 7.066 7.039 7.054 7.066 7.084 7.466 7.126 7.166 7.131 7.186 7.151 7.179 7.156 8.336 7.146 7.151 7.159 7.156 7.654 7.534 7.189 7.159 7.169 7.426 8.024 7.131 9.159 11.544 11.181 11.044 9.066 7.171 7.159 7.124 7.091 7.336 7.091 7.629 11.754 12.931 10.064 9.136 11.189 8.396 7.541 8.194 7.329 7.276 7.261 7.261 7.266 7.294 7.304 7.299 7.314 7.914 7.911 8.944 8.029 7.439 7.489 7.389 7.946 11.254 11.071 12.411 12.344 12.119 8.106 9.334 9.999 14.774 8.779 8.326 7.666 7.796 9.359 8.564 8.061 8.126 7.729 7.834 7.836 8.141 8.366 9.356 8.344 7.739 7.774 7.851 9.021 12.096 11.676 11.179 9.249 7.954 7.946 8.364 12.944 14.799 14.624 13.741 15.159 11.051 8.006 8.019 7.991 8.016 8.021 8.026 8.006 8.054 8.041 8.431 9.281 10.914 9.294 7.999 8.138 7.881 12.481 12.033 12.688 11.268 10.263 8.061 8.093 8.068 8.071 8.091 8.383 8.906 8.263 8.806 8.196 8.196 8.201 8.226 8.163 8.196 8.241 8.236 8.241 8.283 8.323 8.356 8.341 8.296 8.218 8.176 8.163 8.196 8.226 8.548 8.243 8.203 8.176 8.181 8.196 8.176 8.151 8.113 8.163 8.286 8.266 8.241 8.278 8.283 8.278 8.256 8.641 8.871 8.318 8.256 8.226 8.238 8.256 8.248 8.216 8.238 8.261 8.263 8.268 8.263 8.448 9.138 8.498 9.771 11.696 9.176 8.338 8.286 8.301 8.278 8.506 8.458 9.056 9.363 10.406 12.033 9.003 8.486 8.368 10.581 9.376 9.138 9.418 8.558 9.138 10.451 11.138 9.388 8.676 8.316 8.436 8.788 10.026 13.038 10.203 11.128 12.913 10.313 8.303 8.271 8.303 8.311 8.311 8.323 8.296 8.273 9.988 11.236 11.563 12.631 10.748 8.783 8.606 8.456 8.486 8.463 8.418 8.473 9.036 11.791 11.528 12.253 10.731 10.286 11.451 10.936 9.508 9.323 9.878 10.588 9.796 11.088 11.938 10.503 9.706 9.018 10.061 8.873 10.193 12.168 13.843 15.176 12.996 13.648 15.186 15.851 14.018 13.658 14.356 14.598 11.548 10.653 12.303 10.483 11.463 14.656 8.801 14.773 13.966 16.991 12.123 13.853 14.353 13.153 13.358 15.558 16.043 15.418 16.626 16.393 15.403 13.741 13.006 14.253 14.781 12.556 11.971 12.226 11.728 12.708 14.036 13.968 15.133 15.436 12.516 11.051 10.246 10.601 9.533 12.693 10.753 14.881 13.948 14.556 11.396 11.026 12.691 15.088 15.148 13.743 15.683 17.343 16.768 17.191 16.696 11.131 16.516 15.121 17.091 16.598 16.973 13.556 15.673 14.471 17.678 15.116 17.873 13.433 15.131 15.353 13.011 9.876 9.753 10.106 12.948 16.868 18.191 17.458 14.686 16.403 18.151 17.731 18.071 16.651 20.531 15.823 15.556 16.376 16.863 10.833 11.583 13.658 17.761 20.436 20.606 15.323 16.858 20.008 17.196 18.123 15.063 18.321 20.226 17.301 15.921 19.086 18.483 18.911 17.198 18.521 13.813 13.718 17.778 17.621 17.301 17.501 15.516 13.791 11.286 11.668 14.918 15.213 15.191 15.336 12.796 16.956 16.966 13.231 15.803 14.253
6.771 7.039 6.77 6.782 6.742 6.747 6.734 6.734 6.734 6.739 6.703 6.736 6.723 6.718 6.714 6.704 6.696 6.672 6.693 6.699 6.714 6.769 6.754 6.684 6.701 6.719 6.814 6.754 6.779 6.799 6.826 6.836 6.809 6.774 6.791 6.779 6.786 6.801 6.796 6.844 6.876 7.796 7.791 6.911 6.906 6.919 6.871 6.929 6.949 6.976 6.961 6.961 6.981 6.986 6.999 7.011 6.981 6.966 6.996 6.891 7.811 8.271 8.084 6.951 6.981 7.004 6.981 6.961 6.931 6.944 6.966 6.954 6.986 6.989 6.986 6.979 7.009 7.006 7.019 7.086 7.061 7.056 7.076 7.064 7.074 7.076 7.109 7.121 7.351 7.374 8.114 7.141 7.126 7.141 7.141 7.129 7.139 7.139 7.194 7.146 7.161 7.156 7.114 7.139 7.246 7.214 7.136 7.274 7.109 10.131 10.526 7.146 7.111 7.154 7.136 7.096 7.086 7.026 7.041 8.021 7.179 8.984 12.856 12.344 16.204 12.841 7.386 7.306 8.736 9.396 8.569 7.426 7.279 7.281 7.606 7.256 7.649 7.986 9.421 15.229 15.446 10.256 7.494 14.206 19.141 17.229 18.099 19.634 19.244 15.444 7.751 13.541 18.171 14.531 9.784 7.956 7.694 7.911 7.516 8.374 8.236 7.554 7.674 8.049 8.061 10.176 9.724 9.271 7.506 7.566 7.576 7.599 8.274 8.194 7.829 7.599 8.384 11.759 12.679 10.791 14.226 15.256 17.043 16.389 8.711 7.824 7.841 8.354 7.919 7.904 8.374 8.056 7.979 7.976 8.981 11.514 11.126 9.089 8.024 8.778 8.753 15.501 14.628 13.828 12.938 9.573 8.056 8.061 8.101 8.113 9.546 12.643 12.266 11.786 11.603 9.198 8.418 8.388 8.348 8.251 8.283 8.321 8.296 8.301 8.323 8.351 8.348 8.318 8.253 8.198 8.178 8.198 8.208 8.211 8.231 8.193 8.188 8.171 8.211 8.276 8.231 8.186 8.098 8.278 8.893 8.616 8.273 8.208 8.258 8.286 8.308 10.003 11.966 12.433 10.536 8.191 8.223 9.711 11.896 10.888 8.606 8.256 8.283 8.278 8.251 8.266 8.296 8.303 8.268 8.356 8.248 9.648 9.911 8.606 8.246 8.236 8.228 8.248 8.248 8.258 8.271 8.338 8.548 8.723 9.243 9.083 8.911 8.396 8.321 8.961 8.383 8.761 8.261 8.556 8.933 8.226 8.261 8.248 10.298 11.888 10.953 11.018 10.266 9.836 8.156 8.168 8.511 8.143 8.148 8.133 8.108 8.108 8.503 8.396 8.571 9.401 8.118 8.553 8.858 8.088 8.091 8.088 8.068 8.096 8.048 9.161 9.126 8.048 8.086 8.128 8.313 7.993 8.018 8.018 7.993 8.001 8.148 8.473 8.238 8.016 7.991 8.031 7.921 7.933 10.118 12.913 13.961 13.861 12.141 11.661 11.348 12.088 11.958 12.773 13.296 10.071 9.156 11.128 10.523 13.951 14.953 11.506 9.671 14.611 15.421 9.631 12.976 13.333 15.181 11.793 14.021 15.518 13.973 13.693 13.831 12.851 12.931 12.656 12.626 12.813 12.206 9.851 10.058 9.721 8.893 10.761 12.178 14.523 12.663 10.341 9.678 11.588 10.396 10.243 8.228 8.478 11.923 12.708 12.891 9.911 9.498 10.806 11.466 12.603 15.388 11.566 15.661 14.911 16.686 15.671 8.871 12.478 16.993 15.606 15.258 17.361 13.591 15.761 14.491 10.991 12.973 15.738 16.863 16.011 17.936 13.823 9.496 8.321 9.241 13.506 15.058 15.856 15.868 14.168 17.003 18.258 17.848 15.068 16.413 18.846 15.021 16.771 16.063 14.668 13.381 15.551 15.803 12.808 16.293 17.798 12.331 16.801 15.471 17.298 16.513 15.563 19.983 18.166 15.911 16.513 17.248 19.793 17.966 13.758 14.718 10.348 15.321 15.718 17.481 17.106 15.236 14.931 16.253 13.548 14.691 13.641 15.686 15.113 16.326 17.543 18.663 15.178 13.041 8.828 11.443
6.782 6.816 6.785 6.77 6.774 6.773 6.762 6.813 6.77 6.761 6.788 6.752 6.745 6.745 6.731 6.731 6.734 6.715 6.745 6.738 6.724 6.719 6.719 6.721 6.749 6.759 6.736 6.736 6.744 6.796 6.804 6.811 6.771 6.759 6.754 6.744 6.741 6.729 6.729 6.731 6.751 6.769 6.779 6.804 6.819 6.784 6.754 6.781 6.794 6.796 6.824 6.784 6.799 6.794 6.781 6.829 6.849 6.856 6.841 6.856 6.854 6.884 6.926 6.936 6.926 6.916 6.921 6.919 6.919 6.926 6.944 6.919 6.894 6.911 6.911 6.921 6.986 6.909 6.914 6.956 6.934 6.961 6.954 7.009 7.004 7.009 7.006 7.014 7.104 7.949 7.149 6.954 6.929 6.924 6.924 6.951 6.969 7.016 7.094 7.134 7.149 7.151 7.144 7.146 7.161 7.184 7.154 7.146 7.301 9.456 9.021 7.231 7.144 7.129 7.104 7.089 7.069 7.016 7.059 7.079 7.176 9.044 17.004 18.181 18.439 13.389 7.624 7.299 7.626 7.211 10.641 9.546 8.729 8.339 9.616 11.756 8.014 7.291 11.421 19.239 20.304 17.664 8.009 16.886 19.686 19.916 18.804 19.954 20.189 17.534 17.444 18.799 19.351 18.549 15.049 7.309 7.374 7.339 7.356 7.374 7.464 7.809 8.921 10.281 14.631 18.956 17.736 10.471 7.486 7.449 8.449 8.629 8.736 9.954 9.276 7.461 12.154 19.066 19.329 16.136 15.234 13.094 15.926 14.551 7.699 7.491 7.474 7.514 8.884 11.564 7.609 7.574 8.424 7.614 7.599 7.674 7.864 7.604 7.621 7.718 11.626 14.321 13.551 13.711 12.063 7.788 7.818 7.863 7.893 7.948 8.528 10.863 10.746 10.251 10.248 8.241 8.458 8.716 8.576 8.408 8.248 8.263 8.323 8.341 8.311 8.351 8.363 8.263 8.208 8.193 8.208 8.163 8.171 8.153 8.168 8.181 8.151 8.156 8.156 8.283 8.328 8.243 8.128 8.143 9.176 9.643 9.118 9.281 9.393 9.013 10.596 12.333 13.556 13.576 12.473 9.411 12.353 12.396 11.303 10.486 8.213 8.198 8.258 8.246 8.306 8.208 8.253 8.241 8.266 9.898 10.091 13.418 11.111 10.611 8.243 8.236 9.288 9.091 8.246 8.878 10.141 9.468 12.036 11.058 9.981 10.208 9.531 12.988 12.908 15.973 15.936 12.313 11.408 12.013 12.606 8.798 12.488 10.323 8.928 8.176 8.171 8.331 12.531 11.833 10.778 11.518 13.308 11.633 8.151 8.116 8.131 8.136 11.648 9.388 8.966 8.571 11.546 13.323 11.408 10.346 9.303 8.036 8.058 8.003 7.973 7.978 7.998 7.963 7.971 7.951 7.928 7.948 7.936 7.958 7.983 7.988 7.996 7.953 7.951 7.951 7.961 7.941 7.943 7.938 7.953 8.488 9.523 11.558 10.108 9.203 10.211 8.238 8.648 9.786 11.268 11.523 8.633 8.763 12.301 12.418 12.423 10.183 8.436 12.788 13.648 10.236 12.043 12.403 13.181 12.258 14.926 11.821 10.523 8.148 11.378 10.533 7.781 9.766 8.293 9.023 8.701 7.871 7.603 7.608 7.593 7.643 8.793 9.183 10.766 10.606 11.183 10.543 10.168 10.341 10.286 7.756 7.901 9.311 7.511 7.466 7.443 7.653 8.476 7.473 7.698 11.753 13.728 11.648 13.033 10.951 7.341 11.831 14.746 12.178 12.188 15.416 9.636 11.548 10.856 10.986 10.783 9.628 12.738 13.373 14.588 13.103 9.501 9.061 7.808 10.678 15.656 12.276 11.148 7.571 9.476 16.621 16.841 18.348 18.468 16.023 13.068 13.071 10.486 11.113 9.233 11.943 14.001 14.681 13.071 16.996 12.721 16.501 16.191 12.583 13.996 13.811 16.298 18.078 11.541 13.913 15.413 15.348 16.448 11.468 14.076 10.316 16.141 14.901 12.998 16.788 16.793 16.581 15.008 15.816 14.443 13.878 14.376 14.693 16.623 16.338 18.251 13.541 11.733 8.903 12.916
7.029 6.87 6.867 6.833 6.848 6.851 6.839 6.827 6.84 6.854 6.833 6.829 6.802 6.812 6.812 6.806 6.807 6.802 6.786 6.791 6.781 6.811 6.794 6.776 6.799 6.771 6.786 6.799 6.814 6.809 6.836 6.824 6.804 6.819 6.809 6.821 6.809 6.796 6.816 6.814 6.799 6.796 6.804 6.809 6.811 6.826 6.814 6.796 6.834 6.831 6.849 6.859 6.876 6.856 6.849 6.841 6.831 6.826 6.851 6.866 6.874 6.889 6.934 6.924 6.909 6.906 6.884 6.874 6.866 6.889 6.876 6.874 6.904 6.876 6.896 6.869 6.891 6.971 6.936 6.966 6.964 6.974 6.959 6.976 6.971 6.986 7.539 7.714 7.326 7.009 7.016 6.971 6.931 6.909 6.949 6.901 6.894 6.904 6.906 6.911 6.991 7.026 7.061 7.094 7.119 7.146 7.166 7.144 7.116 7.116 7.126 7.144 7.159 7.166 7.164 7.116 7.109 7.046 7.064 7.119 7.164 7.609 12.039 15.949 18.491 13.031 11.364 7.979 11.686 14.514 17.224 13.811 12.981 15.909 16.464 13.329 8.331 7.721 14.871 20.259 21.026 19.881 11.579 15.906 19.141 16.736 14.044 19.171 18.881 13.201 12.851 15.091 18.938 17.971 16.491 7.429 7.359 7.361 7.371 7.414 7.404 7.421 12.861 13.646 13.146 19.041 18.609 14.809 8.429 9.286 18.091 15.709 15.291 16.944 14.539 7.816 14.409 19.364 20.374 16.313 10.356 9.124 9.881 8.101 7.519 7.494 8.419 16.236 15.046 18.511 12.384 14.601 9.359 7.546 7.564 7.556 7.581 9.466 7.559 12.033 13.871 17.158 12.603 11.388 8.751 7.683 8.846 7.713 7.708 7.703 10.288 8.816 9.366 7.833 7.851 8.008 8.193 8.321 7.973 7.998 8.563 8.221 8.261 8.271 8.283 8.291 8.326 8.206 8.213 8.148 8.146 8.143 8.106 8.121 8.126 8.096 8.118 8.101 8.098 8.158 8.281 8.288 8.226 8.123 8.591 9.516 9.666 9.681 9.858 10.031 10.253 11.571 14.331 14.071 12.041 10.006 12.231 14.478 13.751 13.646 10.538 9.371 9.131 9.018 9.113 8.911 10.753 11.626 10.848 11.011 14.481 13.386 13.843 12.601 9.996 9.426 10.788 11.786 10.126 10.078 11.403 13.368 11.351 11.453 14.108 12.991 12.881 13.808 14.728 16.396 14.388 15.433 14.253 14.243 14.436 16.213 15.753 14.846 12.946 9.598 9.736 12.953 11.758 11.676 13.076 15.698 15.026 13.451 10.503 10.686 8.226 9.583 14.538 12.028 12.043 12.288 10.821 12.608 12.836 14.806 12.776 8.183 8.006 8.018 8.016 7.981 7.983 8.001 7.981 7.996 7.988 8.001 7.988 8.001 7.993 7.978 7.966 7.938 8.496 7.928 8.588 7.941 7.921 7.933 7.931 7.951 7.921 8.908 9.461 11.976 8.756 8.868 12.146 12.151 10.586 14.716 11.321 7.821 8.316 8.093 8.071 7.778 7.746 7.733 7.803 10.258 9.691 11.368 14.866 14.713 14.373 11.938 10.411 8.121 8.063 7.728 7.726 8.703 10.308 8.796 10.838 9.873 8.646 9.178 8.221 10.258 13.916 12.446 8.873 10.438 10.513 9.346 9.271 7.803 7.503 7.521 7.501 7.483 7.496 7.496 7.453 7.468 7.491 7.561 7.501 8.886 8.551 7.736 8.188 7.466 7.398 7.386 7.986 7.366 9.431 10.588 7.708 12.206 12.166 12.773 11.058 9.148 9.298 9.611 12.826 9.751 9.166 8.863 8.121 7.756 14.768 11.903 7.276 7.386 7.566 13.741 15.263 16.666 16.016 14.193 12.171 8.111 7.263 7.338 7.191 10.458 9.826 12.723 12.666 15.958 12.586 14.003 10.211 7.301 10.998 12.998 15.691 16.363 10.761 13.088 15.168 12.288 14.956 11.446 10.711 10.598 16.236 15.378 12.811 15.826 14.626 15.321 14.483 12.061 10.611 10.853 11.858 13.028 13.786 14.453 11.803 11.071 12.833 12.683 7.073
7.522 7.69 7.074 6.894 6.898 6.89 6.876 6.88 6.939 6.999 7.003 6.995 6.994 6.965 6.958 6.962 9.023 7.518 6.969 6.976 6.931 6.971 7.406 6.931 6.929 6.909 6.866 6.826 6.844 6.851 6.836 6.879 6.859 6.864 6.884 6.864 6.864 6.894 6.914 6.891 6.881 6.859 6.876 6.836 6.849 6.859 6.881 6.886 6.894 6.876 6.889 6.901 6.889 6.886 6.904 6.894 6.876 6.891 6.906 6.899 6.919 6.929 6.936 6.931 6.909 6.914 6.896 6.884 6.894 6.901 6.891 6.874 6.909 6.934 6.916 6.901 6.916 7.086 6.936 6.946 7.029 7.021 7.024 7.006 7.276 7.936 9.626 9.676 8.006 7.184 7.029 7.019 6.994 6.964 6.966 6.954 6.951 6.964 6.941 6.936 6.954 6.951 6.959 6.966 6.991 7.036 7.044 7.024 6.996 7.009 7.026 7.036 7.069 7.076 7.119 7.121 7.086 7.099 7.096 7.119 7.141 7.146 8.326 13.329 17.161 17.141 12.351 7.171 11.611 18.144 17.986 14.029 12.196 15.766 18.359 14.561 9.014 7.274 10.264 18.319 18.801 17.414 12.029 17.969 19.089 17.761 15.114 14.984 16.634 19.196 13.949 15.901 16.296 16.493 17.666 10.499 7.336 7.364 7.364 7.399 7.416 7.486 11.779 19.444 16.723 16.791 20.014 15.634 7.686 12.066 20.396 16.788 20.476 19.741 17.059 10.101 9.144 17.018 20.256 19.666 13.534 14.921 11.059 9.414 8.101 7.509 8.251 19.729 20.444 19.594 19.686 18.903 14.316 7.591 7.546 11.999 13.056 18.931 17.101 11.946 14.958 20.763 19.413 16.783 12.986 13.443 10.243 7.718 7.676 9.398 17.043 18.606 11.718 7.818 8.306 7.833 7.843 7.876 7.918 7.971 8.076 8.201 8.226 8.251 8.273 8.276 8.226 8.168 8.138 8.121 8.088 8.078 8.066 8.066 8.031 8.043 8.081 8.061 8.083 8.136 8.143 8.256 8.276 8.156 8.073 8.161 8.283 7.961 8.576 9.848 10.046 12.243 13.098 12.543 10.993 10.313 10.938 12.516 13.488 11.973 10.786 10.688 10.563 10.533 10.206 10.356 11.633 11.683 11.358 12.213 13.613 13.711 12.741 12.533 11.028 10.896 13.346 13.231 11.466 11.396 12.281 13.418 13.468 13.893 11.586 10.666 13.336 15.766 15.773 16.408 16.223 15.666 14.758 14.513 14.646 16.646 15.448 16.688 14.156 12.083 13.146 13.971 14.523 14.331 14.363 14.573 14.868 13.501 12.508 12.586 12.563 15.931 14.588 15.036 13.281 11.441 13.236 13.553 14.646 15.938 13.783 9.453 8.281 8.378 8.393 8.291 8.248 8.398 8.323 8.296 8.528 8.473 9.576 8.153 7.983 8.266 8.196 10.206 12.506 12.268 12.083 9.246 9.738 9.786 9.941 9.283 11.091 13.606 13.601 12.618 10.628 15.478 15.583 10.173 12.651 13.696 10.771 8.641 8.853 9.208 8.216 8.368 8.471 11.271 8.908 11.431 15.693 13.708 14.136 12.101 16.246 12.068 13.118 9.223 9.828 7.856 7.658 8.233 11.718 11.333 10.756 8.461 10.903 10.736 11.796 14.688 13.133 12.536 13.933 13.103 11.511 9.366 8.263 7.551 7.551 7.496 7.508 7.476 7.488 7.473 7.758 8.708 8.391 10.638 9.058 9.268 7.873 7.373 7.398 7.413 7.398 7.516 7.333 8.661 7.606 10.108 9.541 9.101 13.903 10.196 14.568 9.371 7.873 7.863 8.556 7.456 7.256 8.096 7.263 7.201 9.146 8.431 8.671 10.461 7.128 9.238 10.013 9.663 13.083 12.656 10.188 8.023 7.173 7.138 7.118 7.088 7.046 7.066 9.546 11.226 9.353 11.026 10.391 7.043 9.011 11.608 12.823 13.546 13.996 10.693 12.936 7.633 11.251 14.393 12.298 10.358 8.483 13.573 11.983 11.923 12.086 9.881 10.408 7.643 7.331 7.283 7.551 7.053 7.101 9.113 8.748 8.068 12.251 13.371 11.268
8.239 7.367 6.983 6.918 6.927 6.913 6.951 6.927 6.977 7.038 7.074 7.553 7.104 7.316 7.129 7.53 9.954 10.341 8.576 7.069 7.081 8.336 10.156 8.254 9.131 9.329 8.519 6.791 6.839 6.854 6.874 6.889 6.901 6.926 6.949 6.994 7.059 7.069 7.051 7.039 7.721 7.226 7.136 7.024 7.054 7.024 7.009 7.009 7.009 7.024 7.046 7.044 7.019 7.009 6.959 6.909 6.941 6.941 6.959 6.959 6.954 6.946 6.956 6.979 6.974 6.959 6.916 6.941 6.954 6.946 6.926 6.911 6.946 6.986 6.959 6.954 6.941 7.319 6.906 6.921 6.941 6.976 6.991 7.006 7.359 7.179 7.299 7.236 7.159 8.101 7.081 6.989 6.984 6.991 7.019 7.011 7.009 6.984 6.986 6.999 7.016 7.026 7.026 7.009 6.999 7.061 7.041 7.036 7.001 6.996 6.989 7.031 7.041 7.054 7.056 7.039 7.051 7.051 7.041 7.059 7.039 7.026 7.039 7.649 14.114 9.991 7.764 7.081 12.771 14.524 15.974 9.474 8.271 15.526 16.034 15.444 10.726 7.186 7.139 12.651 11.671 9.371 7.284 14.944 15.281 14.616 12.689 8.456 14.116 18.368 17.046 13.081 12.144 19.179 18.938 14.089 9.806 7.349 7.321 7.324 7.356 10.216 15.886 17.706 16.734 16.278 19.186 19.236 16.413 18.389 19.854 19.651 20.139 19.903 14.689 7.919 7.919 11.971 18.861 19.319 14.214 19.761 16.989 11.279 8.544 7.561 11.959 21.714 20.429 18.006 18.151 20.609 16.546 11.939 8.801 11.371 18.806 19.686 18.864 13.081 16.813 19.283 19.371 21.088 20.803 16.163 8.478 8.168 11.711 16.303 18.208 18.918 9.863 7.811 8.958 7.821 7.911 7.933 7.986 8.046 8.143 8.203 8.196 8.216 8.233 8.181 8.148 8.106 8.066 8.051 8.051 8.023 8.061 8.108 8.128 8.103 8.033 7.998 8.028 8.068 8.121 8.158 8.261 8.238 8.146 8.021 7.963 7.911 7.918 8.481 8.463 8.633 9.521 8.056 8.193 8.398 8.296 9.456 10.198 8.801 8.641 8.773 8.683 8.788 8.906 8.851 8.976 9.008 8.953 8.993 9.796 10.136 10.426 11.368 9.758 9.668 10.553 11.058 10.356 10.868 12.841 12.603 12.146 13.718 13.508 14.453 14.681 14.856 14.471 14.878 15.698 14.436 13.813 14.016 14.566 15.903 15.946 15.606 13.608 11.926 12.623 13.588 13.266 14.386 13.151 12.526 12.996 13.156 12.873 12.603 14.453 15.818 14.531 14.428 13.643 13.783 13.853 12.498 13.383 14.541 13.646 11.476 10.301 9.931 9.873 9.766 9.446 10.248 10.286 10.181 11.423 11.828 12.193 9.328 9.178 9.126 9.221 11.261 13.968 14.726 15.086 14.506 11.716 13.763 13.678 13.416 13.193 13.773 15.828 16.218 11.026 16.783 16.973 11.333 13.943 15.711 16.701 12.176 10.213 11.983 11.268 15.381 15.603 16.078 11.241 13.871 14.873 11.601 12.511 14.556 17.611 15.206 13.218 11.716 10.596 9.811 8.391 10.871 13.548 8.126 10.808 11.381 11.081 8.831 9.228 14.003 15.528 15.116 14.338 14.656 10.503 11.311 9.011 8.011 7.913 7.966 8.001 8.298 8.828 10.161 10.926 10.926 12.126 11.988 11.421 10.961 8.033 8.526 10.411 7.423 8.016 9.318 9.913 13.621 15.951 16.378 13.268 14.913 9.826 12.261 14.626 13.576 10.268 8.653 9.001 10.761 7.886 8.311 10.706 10.333 7.466 8.848 12.043 14.211 9.906 11.726 7.683 7.136 9.078 12.588 11.806 7.156 7.181 7.186 7.196 7.186 7.611 9.336 7.693 7.206 7.171 10.513 7.233 8.241 9.256 12.306 10.076 11.243 13.763 12.323 9.853 8.051 7.911 11.871 11.718 9.888 11.648 15.313 8.603 11.558 10.583 8.983 9.383 9.678 7.051 6.996 7.026 7.013 6.948 7.096 8.746 10.911 13.511 11.401 13.918
7.133 6.988 6.986 7.038 7.027 7.025 7.102 7.012 7.004 7.139 7.409 9.699 10.493 8.231 7.665 7.325 8.624 9.576 10.304 11.989 9.889 9.811 9.419 7.789 12.129 11.099 9.401 8.801 6.809 6.856 6.876 6.874 6.919 6.989 7.084 7.116 7.174 7.229 7.174 7.479 9.539 9.294 10.084 9.681 9.829 9.419 7.151 8.729 8.336 7.124 8.254 7.426 7.139 7.136 7.084 7.004 7.011 7.069 7.126 7.141 7.111 7.046 7.011 7.009 7.026 7.021 7.089 7.311 7.159 7.244 7.046 7.046 7.134 7.281 7.254 7.239 7.331 7.134 6.961 6.956 6.951 6.999 7.029 7.056 7.086 7.464 7.096 7.046 7.051 7.029 7.031 7.004 7.004 7.004 7.046 7.046 7.061 7.071 7.046 7.036 7.079 7.071 7.069 7.046 7.049 7.054 7.091 7.054 7.089 7.101 7.071 7.081 7.086 7.224 7.109 7.126 7.116 7.114 7.116 7.109 7.106 7.109 7.106 7.079 8.046 7.126 7.136 7.151 7.121 9.039 8.791 7.144 7.361 10.791 9.356 9.444 7.381 7.174 7.154 7.164 7.174 7.181 7.194 9.149 7.161 7.726 7.241 7.176 7.934 12.591 9.966 7.729 7.911 10.349 12.156 9.776 7.231 7.209 7.204 7.241 7.239 9.279 8.961 15.916 14.839 12.651 16.556 17.821 17.554 13.901 17.098 18.194 18.636 17.753 10.649 7.411 7.446 9.324 12.084 12.469 12.126 13.966 12.984 9.614 7.771 7.491 13.899 19.739 19.934 18.086 18.868 21.349 19.866 10.169 7.656 13.011 15.231 18.061 17.573 8.793 10.261 14.276 17.183 20.868 22.193 20.841 14.073 8.281 15.436 19.301 20.178 20.138 11.576 9.231 9.221 7.988 8.013 8.046 8.108 8.161 8.168 8.191 8.203 8.136 8.093 8.073 8.073 8.051 8.046 8.003 8.041 8.133 8.208 8.238 8.268 8.261 8.161 8.018 7.976 7.988 8.028 8.073 8.193 8.221 8.188 8.071 7.968 7.936 7.911 7.941 7.908 7.931 7.913 7.948 7.988 7.996 8.003 8.001 8.001 8.028 8.033 8.041 8.098 8.126 8.146 8.151 8.173 8.166 8.183 8.191 8.196 8.216 8.206 8.258 8.258 8.276 8.266 8.291 8.291 8.313 9.268 9.743 10.146 8.563 9.268 8.323 8.521 8.628 9.353 11.123 11.881 10.746 9.578 10.456 12.251 11.948 13.493 12.098 10.536 10.321 9.336 9.391 9.643 10.168 9.653 9.668 11.001 10.946 11.138 10.686 11.603 12.923 12.476 12.488 12.348 12.446 12.943 14.093 15.248 14.173 13.088 10.848 10.721 11.223 10.573 9.946 9.873 10.443 11.146 11.068 13.703 14.053 12.823 10.131 9.848 9.776 9.881 11.798 14.148 13.093 14.398 13.696 13.401 14.056 13.526 13.453 13.548 14.368 14.641 15.741 15.641 15.811 17.188 12.668 16.238 16.596 14.768 15.491 11.538 15.456 16.371 16.023 16.618 15.241 15.083 16.036 16.311 14.933 14.426 17.406 16.871 15.943 14.936 16.058 17.213 16.166 12.853 14.856 14.571 12.546 12.796 11.196 12.778 8.921 11.213 15.173 15.858 16.006 15.456 14.436 12.893 10.038 9.428 8.981 8.958 8.928 9.196 9.701 10.193 11.163 12.388 12.841 12.511 11.906 11.058 12.178 10.586 10.551 13.071 13.088 13.671 13.443 13.443 17.068 16.286 15.761 15.976 14.863 9.941 13.711 17.986 15.831 10.968 8.601 8.173 9.431 8.901 7.783 12.578 13.376 9.548 13.943 11.868 17.446 11.741 13.513 9.011 8.681 11.303 12.431 12.763 9.281 8.653 8.781 9.421 7.428 7.411 11.423 13.173 7.526 8.881 7.843 8.133 10.568 11.071 11.176 10.848 10.296 13.766 12.121 8.421 7.761 7.298 11.348 12.793 13.198 14.986 16.256 11.243 15.278 13.026 12.068 11.138 9.998 7.126 7.111 7.186 7.173 7.111 7.168 9.601 11.913 12.658 15.578 15.143
8.086 7.373 6.961 7.189 7.369 8.02 8.723 7.015 7.028 7.189 7.377 8.512 8.558 8.524 8.486 8.581 12.811 13.661 12.164 14.526 14.461 13.611 13.796 10.939 11.749 12.991 13.406 9.689 7.199 6.826 6.849 6.879 6.934 7.094 7.151 7.144 7.241 7.286 7.224 7.139 7.994 8.794 7.274 9.546 10.479 8.871 9.286 8.009 7.686 9.776 9.519 7.139 7.151 7.169 7.146 7.084 7.094 7.124 7.184 7.201 7.194 7.201 7.101 7.046 7.059 7.051 7.074 7.041 7.034 7.036 7.034 7.009 7.009 6.981 7.009 7.014 7.036 7.051 7.031 7.011 7.029 7.051 7.079 8.041 9.209 8.081 7.206 7.201 7.141 7.701 7.049 7.014 7.006 7.056 7.149 7.349 7.261 7.199 7.191 7.186 7.194 7.211 7.166 7.171 7.179 7.194 7.169 7.166 7.191 7.166 7.171 7.144 7.151 7.189 7.196 7.184 7.179 7.169 7.156 7.181 7.181 7.156 7.134 7.156 7.159 7.176 7.174 7.199 7.189 7.181 7.196 7.206 7.214 7.216 7.229 7.236 7.206 7.216 7.204 7.224 7.206 7.239 7.211 7.224 7.226 7.209 7.201 7.189 7.191 7.216 7.229 7.226 7.211 7.201 7.224 7.234 7.256 7.204 7.204 7.229 7.239 7.239 7.211 8.166 8.466 8.471 8.794 10.829 11.969 10.754 13.494 12.779 15.106 12.786 7.299 7.311 7.349 7.349 7.349 7.429 7.374 7.364 7.396 7.414 7.414 7.424 8.341 9.354 10.864 13.196 16.421 17.723 16.299 10.229 7.589 8.556 8.351 11.126 10.819 8.071 7.741 9.873 12.658 17.266 19.706 17.333 10.691 7.763 12.853 13.896 16.696 17.683 10.996 8.126 8.326 8.008 8.013 8.001 8.043 8.076 8.051 8.051 8.046 8.056 8.073 8.083 8.051 8.036 7.998 8.018 8.141 8.223 8.263 8.311 8.338 8.323 8.286 8.158 7.938 7.918 7.991 8.006 8.076 8.161 8.146 8.106 7.981 7.963 7.928 7.938 7.953 7.978 7.976 7.958 8.013 8.013 8.038 8.013 8.001 8.013 8.036 8.036 8.071 8.106 8.146 8.148 8.143 8.166 8.183 8.176 8.193 8.206 8.211 8.208 8.226 8.258 8.238 8.288 8.303 8.323 8.333 8.301 8.303 8.408 8.561 9.263 8.516 8.361 8.378 8.406 8.418 8.451 8.503 8.481 8.513 8.568 8.973 8.653 8.531 8.556 8.556 8.573 8.573 8.566 8.581 8.601 8.636 8.636 8.701 8.643 8.756 8.653 9.071 8.893 8.938 9.138 10.451 14.163 15.156 13.403 12.798 10.896 11.123 11.596 10.498 9.496 9.316 10.601 12.116 10.806 11.833 12.803 11.423 10.156 10.078 10.121 9.878 9.593 11.788 10.098 9.673 9.941 11.321 12.401 11.781 11.923 11.758 12.571 12.683 12.143 14.648 14.818 15.603 12.586 15.718 15.006 13.846 14.421 12.673 14.326 14.518 14.658 15.343 14.431 14.188 14.843 16.008 16.701 16.693 17.618 16.781 16.983 17.676 16.868 16.661 16.168 14.096 14.318 14.243 13.271 13.743 13.401 13.098 13.286 13.008 13.301 14.811 15.721 14.751 14.911 13.343 10.068 9.401 9.216 9.488 9.528 10.113 10.468 11.076 12.286 12.626 12.906 13.181 11.556 12.971 12.743 15.286 11.296 12.308 11.198 13.226 12.816 14.223 17.368 15.433 16.561 18.078 18.368 10.371 12.918 16.203 16.566 13.206 8.853 13.631 12.476 9.478 8.936 12.936 16.286 9.581 11.721 16.251 14.501 15.641 13.521 15.886 11.393 13.278 12.173 14.698 14.456 11.916 12.856 12.333 9.608 11.226 12.003 10.258 11.403 10.371 9.266 10.413 11.173 12.841 14.096 12.448 11.106 11.858 13.093 10.876 11.828 11.173 10.306 12.706 13.633 13.493 14.206 14.581 14.896 13.106 12.616 11.906 9.363 8.113 8.001 8.343 8.708 8.826 9.011 9.878 9.806 13.463 14.153 14.553
