ncols 428
nrows 32
xllcorner    250040
yllcorner    135066
cellsize     2
NODATA_value -9999
10.243 10.218 10.226 10.316 10.358 10.393 10.413 10.426 10.411 10.448 10.466 10.443 10.508 11.503 12.941 12.838 11.716 10.883 10.773 10.758 10.778 10.743 10.696 10.641 10.716 10.703 10.638 10.698 11.386 12.561 12.888 13.423 12.703 11.791 11.768 13.278 12.686 11.066 10.998 11.051 11.088 11.113 11.133 11.216 11.241 11.213 11.253 11.298 11.358 11.356 11.363 11.381 11.438 11.456 11.468 11.491 11.548 11.588 11.608 11.636 11.698 11.736 11.741 11.758 11.793 11.823 11.868 11.926 11.976 12.018 12.028 12.053 12.081 12.078 12.081 12.096 12.146 12.201 12.241 12.318 12.341 12.358 12.376 12.416 12.423 12.436 12.471 12.513 12.551 12.558 12.551 12.583 12.576 12.591 12.583 12.578 12.581 12.588 12.548 12.541 12.511 12.541 12.636 12.738 13.766 13.088 12.806 12.806 12.893 14.326 16.853 15.163 15.088 14.989 13.355 13.57 13.29 13.275 13.357 13.41 13.464 13.463 13.505 13.496 13.548 13.605 13.648 13.665 13.715 13.72 13.783 13.84 13.855 13.918 13.991 14.058 14.118 14.183 14.251 14.336 14.383 14.418 14.471 14.526 14.558 14.598 14.623 14.663 14.706 14.718 14.823 14.911 15.653 14.561 14.373 16.631 16.541 15.323 15.378 15.563 15.688 15.756 15.786 15.843 15.931 16.001 16.116 16.171 16.268 16.338 16.406 16.496 16.581 16.663 16.763 16.853 16.918 17.018 17.138 17.196 17.281 17.343 17.468 17.563 17.663 17.768 17.868 17.976 18.063 18.176 18.308 18.441 18.533 18.661 18.786 18.908 18.996 19.138 19.271 19.403 19.516 19.616 19.763 19.896 20.046 20.188 20.338 20.443 20.608 20.748 20.876 21.033 21.158 21.286 21.398 21.491 21.613 21.751 21.868 22.006 22.101 22.213 22.321 22.441 22.558 22.613 22.766 22.863 23.006 23.113 23.236 23.348 23.466 23.566 23.648 23.773 23.868 23.973 24.101 24.201 24.321 24.438 24.508 24.661 24.726 24.801 24.923 25.018 25.098 25.201 25.306 25.393 25.483 25.581 25.658 25.776 25.848 25.956 26.016 26.096 26.206 26.308 26.383 26.471 26.581 26.688 26.811 26.941 27.093 27.223 27.356 27.466 27.573 27.676 27.781 27.863 27.951 28.048 28.168 28.241 28.368 28.468 28.556 28.688 28.776 28.908 29.038 29.181 29.236 29.321 29.396 29.498 29.621 29.696 29.793 29.906 30.028 30.081 30.193 30.286 30.381 30.436 30.513 30.581 30.631 30.673 30.748 30.843 30.886 30.953 31.016 31.078 31.096 31.188 31.246 31.326 31.386 31.458 31.498 31.566 31.626 31.641 31.723 31.771 31.823 31.878 31.911 31.938 31.981 32.056 32.078 32.126 32.168 32.188 32.221 32.278 32.311 32.351 32.438 32.491 32.548 32.613 32.706 32.746 32.821 32.888 32.953 33.033 33.076 33.138 33.216 33.278 33.316 33.396 33.411 33.458 33.486 33.493 33.463 33.376 33.421 35.408 35.686 34.143 34.163 34.126 34.153 34.221 34.268 34.343 34.408 34.476 34.556 34.623 34.693 34.726 34.771 34.843 34.908 35.003 35.078 35.141 35.213 35.296 35.378 35.471 35.526 35.578 35.616 35.683 35.718 35.696 35.761 35.823 35.841 35.923 35.993 36.028 36.046 36.118 36.171 36.251 36.263 36.361 36.396 36.423 36.433 36.493 36.528 36.528 36.551 36.583 36.613 36.616 36.661 36.736 36.781 36.811 36.861 36.841 36.866 36.916 36.936 36.978 37.013 37.036 37.016 37.056
10.153 10.156 10.198 10.211 10.251 10.311 10.343 10.346 10.373 10.441 10.466 10.476 10.503 10.458 10.568 11.893 13.311 12.638 11.113 10.846 10.796 10.766 10.761 10.713 10.691 10.623 10.688 10.708 10.663 10.821 11.943 13.211 12.308 11.223 11.361 12.666 12.236 11.126 10.966 10.961 11.026 11.041 11.083 11.121 11.148 11.148 11.196 11.236 11.293 11.336 11.308 11.338 11.388 11.416 11.431 11.451 11.473 11.531 11.576 11.596 11.623 11.648 11.673 11.698 11.711 11.741 11.808 11.848 11.876 11.933 11.948 11.973 11.998 12.028 12.048 12.053 12.081 12.123 12.196 12.243 12.258 12.283 12.336 12.333 12.313 12.346 12.391 12.418 12.428 12.468 12.496 12.496 12.488 12.503 12.488 12.478 12.493 12.468 12.463 12.448 12.461 12.443 12.443 12.528 12.653 13.636 16.713 13.241 12.778 12.778 14.223 14.643 16.348 15.677 13.995 13.786 13.609 13.718 13.169 13.263 13.339 13.369 13.405 13.427 13.438 13.453 13.485 13.54 13.579 13.655 13.694 13.742 13.793 13.848 13.916 13.946 14.021 14.076 14.131 14.191 14.248 14.291 14.366 14.416 14.451 14.446 14.471 14.553 14.553 14.576 14.711 14.796 15.303 14.401 15.276 16.576 15.511 14.878 15.171 15.386 15.536 15.593 15.593 15.648 15.733 15.771 15.856 15.946 16.011 16.103 16.153 16.258 16.353 16.421 16.498 16.566 16.651 16.736 16.833 16.906 17.001 17.081 17.161 17.268 17.366 17.476 17.571 17.646 17.783 17.886 18.031 18.118 18.261 18.353 18.486 18.591 18.706 18.846 18.956 19.081 19.213 19.301 19.413 19.568 19.718 19.846 19.996 20.108 20.268 20.388 20.558 20.703 20.828 20.938 21.043 21.156 21.286 21.421 21.531 21.673 21.753 21.881 22.018 22.126 22.206 22.328 22.458 22.621 22.693 22.783 22.916 23.031 23.136 23.223 23.341 23.436 23.521 23.636 23.791 23.876 23.988 24.088 24.196 24.293 24.363 24.493 24.586 24.666 24.756 24.876 24.966 25.038 25.123 25.216 25.308 25.408 25.486 25.596 25.678 25.731 25.858 25.918 26.036 26.111 26.188 26.308 26.411 26.538 26.663 26.828 26.986 27.111 27.193 27.273 27.378 27.496 27.581 27.688 27.768 27.868 27.968 28.033 28.156 28.261 28.383 28.511 28.608 28.748 28.808 28.906 29.021 29.088 29.216 29.278 29.403 29.483 29.588 29.643 29.813 29.921 29.983 30.036 30.111 30.143 30.233 30.291 30.378 30.433 30.498 30.576 30.608 30.693 30.693 30.786 30.828 30.938 31.013 31.063 31.123 31.193 31.226 31.263 31.341 31.396 31.436 31.486 31.531 31.571 31.623 31.693 31.726 31.768 31.811 31.838 31.886 31.906 31.931 31.993 32.038 32.141 32.193 32.271 32.341 32.398 32.463 32.518 32.601 32.663 32.723 32.796 32.863 32.913 32.971 33.063 33.056 33.066 33.106 33.133 33.078 33.023 33.018 35.108 35.581 33.978 33.831 33.811 33.798 33.861 33.938 34.003 34.096 34.106 34.208 34.268 34.326 34.401 34.446 34.498 34.596 34.646 34.716 34.798 34.891 34.958 35.046 35.141 35.211 35.246 35.301 35.321 35.346 35.371 35.421 35.498 35.553 35.586 35.653 35.688 35.771 35.808 35.848 35.926 35.948 36.028 36.063 36.113 36.141 36.148 36.186 36.198 36.268 36.291 36.338 36.371 36.376 36.411 36.471 36.483 36.518 36.526 36.561 36.613 36.668 36.701 36.711 36.736 36.776 36.776
10.098 10.113 10.153 10.183 10.196 10.208 10.241 10.301 10.351 10.383 10.413 10.476 10.503 10.478 10.466 10.453 10.698 12.011 12.633 12.566 11.076 10.823 10.791 10.738 10.726 10.703 10.661 10.663 10.663 10.688 10.671 11.516 12.973 11.846 11.811 11.948 11.281 10.841 10.891 10.918 10.966 10.998 11.038 11.043 11.048 11.071 11.148 11.191 11.223 11.253 11.266 11.321 11.333 11.358 11.393 11.413 11.441 11.466 11.503 11.561 11.598 11.608 11.586 11.628 11.651 11.691 11.721 11.783 11.838 11.831 11.871 11.916 11.931 11.963 11.973 12.016 12.041 12.066 12.128 12.158 12.171 12.211 12.248 12.268 12.251 12.268 12.331 12.333 12.336 12.366 12.406 12.418 12.421 12.381 12.378 12.388 12.388 12.378 12.343 12.381 12.376 12.358 12.316 12.326 12.421 12.788 14.883 16.778 13.013 12.758 12.796 12.847 14.78 16.19 16.471 16.388 15.491 13.838 13.504 13.64 13.411 13.235 13.262 13.298 13.353 13.363 13.41 13.441 13.446 13.489 13.551 13.561 13.623 13.691 13.783 13.826 13.903 13.966 14.036 14.091 14.171 14.203 14.268 14.308 14.341 14.383 14.413 14.476 14.466 14.518 14.596 15.001 15.126 14.086 14.521 15.128 14.458 14.666 15.061 15.266 15.383 15.398 15.438 15.431 15.533 15.576 15.658 15.718 15.821 15.856 15.946 16.031 16.111 16.208 16.256 16.306 16.386 16.486 16.578 16.638 16.711 16.788 16.866 16.971 17.071 17.153 17.273 17.368 17.488 17.623 17.718 17.821 17.918 18.021 18.163 18.271 18.363 18.508 18.618 18.758 18.886 18.991 19.126 19.241 19.393 19.533 19.646 19.786 19.911 20.071 20.221 20.366 20.466 20.596 20.706 20.836 20.948 21.051 21.191 21.331 21.406 21.553 21.688 21.808 21.893 22.011 22.118 22.246 22.336 22.481 22.571 22.708 22.803 22.911 23.008 23.113 23.221 23.316 23.441 23.531 23.678 23.751 23.856 23.938 24.073 24.163 24.251 24.316 24.411 24.528 24.588 24.693 24.768 24.866 24.951 25.058 25.133 25.248 25.313 25.391 25.473 25.568 25.653 25.721 25.831 25.926 26.041 26.158 26.298 26.441 26.561 26.703 26.786 26.863 26.971 27.086 27.181 27.268 27.398 27.476 27.576 27.663 27.751 27.861 27.996 28.086 28.186 28.308 28.363 28.466 28.608 28.713 28.801 28.911 29.013 29.101 29.156 29.266 29.373 29.468 29.573 29.633 29.726 29.741 29.833 29.891 29.973 30.056 30.111 30.186 30.228 30.253 30.346 30.423 30.471 30.561 30.631 30.708 30.721 30.768 30.828 30.901 30.936 30.996 31.048 31.123 31.151 31.216 31.263 31.313 31.343 31.378 31.413 31.448 31.488 31.528 31.563 31.648 31.668 31.748 31.851 31.893 32.003 32.041 32.106 32.163 32.238 32.321 32.371 32.456 32.496 32.548 32.606 32.641 32.686 32.701 32.741 32.786 32.738 32.676 32.673 34.488 35.111 33.723 33.451 33.446 33.473 33.546 33.593 33.668 33.721 33.776 33.873 33.931 33.991 34.046 34.126 34.171 34.258 34.333 34.371 34.478 34.571 34.656 34.741 34.806 34.846 34.881 34.933 34.998 35.006 35.063 35.083 35.143 35.216 35.236 35.291 35.361 35.451 35.466 35.528 35.606 35.636 35.688 35.731 35.793 35.828 35.858 35.866 35.911 35.948 35.968 36.003 36.033 36.063 36.093 36.136 36.188 36.238 36.261 36.271 36.303 36.356 36.373 36.393 36.396 36.453 36.448
10.048 10.066 10.083 10.128 10.141 10.136 10.173 10.236 10.273 10.346 10.368 10.391 10.421 10.483 10.478 10.458 10.413 10.448 10.956 12.246 12.713 12.211 10.986 10.798 10.746 10.738 10.716 10.671 10.651 10.623 10.621 10.653 12.328 11.968 12.403 14.003 12.823 12.936 11.436 10.991 10.868 10.908 10.928 10.973 10.981 10.981 11.083 11.111 11.168 11.186 11.206 11.273 11.301 11.313 11.346 11.378 11.418 11.411 11.451 11.458 11.538 11.548 11.531 11.543 11.576 11.611 11.633 11.696 11.721 11.763 11.816 11.826 11.876 11.878 11.896 11.938 12.006 12.053 12.053 12.083 12.111 12.141 12.173 12.176 12.176 12.191 12.228 12.238 12.261 12.291 12.288 12.331 12.333 12.318 12.278 12.276 12.283 12.278 12.248 12.263 12.296 12.266 12.261 12.286 12.348 12.373 12.473 16.353 16.616 13.216 12.763 12.813 13.022 13.822 15.357 15.343 16.379 15.736 15.092 14.701 14.803 14.435 13.787 13.161 13.189 13.261 13.297 13.331 13.346 13.4 13.426 13.473 13.501 13.531 13.636 13.723 13.766 13.793 13.881 13.958 14.013 14.041 14.111 14.166 14.228 14.266 14.308 14.353 14.373 14.391 14.456 14.911 15.211 13.931 13.963 14.096 14.198 14.901 14.956 15.151 15.213 15.261 15.251 15.268 15.338 15.376 15.456 15.541 15.598 15.648 15.733 15.806 15.858 15.906 16.006 16.071 16.138 16.233 16.313 16.401 16.481 16.558 16.623 16.703 16.783 16.903 16.993 17.126 17.201 17.301 17.416 17.508 17.611 17.736 17.863 17.976 18.076 18.186 18.316 18.401 18.528 18.663 18.781 18.908 19.063 19.183 19.303 19.441 19.591 19.748 19.886 20.003 20.156 20.248 20.391 20.498 20.623 20.763 20.876 20.996 21.083 21.253 21.361 21.483 21.573 21.686 21.803 21.898 21.991 22.146 22.261 22.386 22.471 22.596 22.683 22.781 22.888 22.993 23.123 23.228 23.333 23.418 23.501 23.608 23.746 23.828 23.921 24.006 24.103 24.173 24.261 24.341 24.446 24.531 24.628 24.701 24.796 24.896 24.948 25.048 25.128 25.216 25.313 25.408 25.491 25.561 25.643 25.781 25.913 26.076 26.201 26.288 26.403 26.493 26.573 26.683 26.786 26.878 26.966 27.098 27.193 27.288 27.356 27.481 27.593 27.713 27.811 27.908 28.018 28.086 28.231 28.286 28.403 28.486 28.568 28.656 28.743 28.863 28.981 29.071 29.146 29.206 29.308 29.346 29.393 29.463 29.563 29.626 29.666 29.758 29.821 29.853 29.938 29.968 30.071 30.138 30.203 30.278 30.321 30.371 30.438 30.498 30.546 30.621 30.678 30.718 30.756 30.823 30.853 30.906 30.971 30.996 31.023 31.091 31.121 31.176 31.218 31.273 31.323 31.391 31.473 31.536 31.578 31.663 31.718 31.776 31.851 31.933 31.986 32.093 32.153 32.196 32.256 32.326 32.343 32.381 32.431 32.463 32.411 32.346 32.296 33.761 34.726 33.538 33.101 33.103 33.143 33.188 33.218 33.318 33.378 33.441 33.546 33.601 33.678 33.693 33.781 33.843 33.906 33.973 34.078 34.168 34.208 34.278 34.376 34.458 34.486 34.533 34.603 34.678 34.713 34.728 34.771 34.833 34.846 34.903 34.956 35.033 35.086 35.141 35.206 35.246 35.303 35.383 35.418 35.498 35.503 35.573 35.571 35.561 35.631 35.653 35.671 35.706 35.776 35.816 35.843 35.836 35.916 35.911 35.938 35.973 36.023 36.071 36.076 36.083 36.113 36.143
9.976 10.003 10.026 10.056 10.051 10.053 10.121 10.143 10.191 10.241 10.276 10.341 10.373 10.401 10.436 10.451 10.438 10.396 10.361 10.408 11.098 12.436 12.623 11.598 10.906 10.766 10.721 10.678 10.646 10.661 10.616 10.653 10.673 10.636 11.626 12.448 11.603 12.891 13.043 12.761 11.358 10.893 10.888 10.898 10.908 10.931 11.003 11.081 11.081 11.096 11.146 11.183 11.203 11.241 11.283 11.331 11.348 11.386 11.398 11.438 11.498 11.516 11.498 11.483 11.526 11.531 11.593 11.643 11.651 11.688 11.721 11.761 11.793 11.813 11.836 11.871 11.933 12.021 12.026 12.056 12.038 12.056 12.093 12.098 12.091 12.121 12.118 12.156 12.166 12.191 12.233 12.228 12.238 12.228 12.223 12.193 12.196 12.178 12.151 12.173 12.166 12.168 12.183 12.243 12.298 12.353 12.356 12.958 13.076 14.835 14.424 12.72 12.764 13.079 13.774 15.205 16.595 16.957 17.248 16.467 16.577 14.816 15.879 15.361 13.875 13.106 13.143 13.182 13.167 13.223 13.276 13.338 13.421 13.456 13.516 13.608 13.701 13.771 13.826 13.891 13.986 14.038 14.033 14.091 14.088 14.143 14.183 14.173 14.221 14.243 14.288 14.681 15.061 13.788 13.788 13.893 15.013 16.176 14.893 15.001 15.078 15.091 15.078 15.076 15.126 15.156 15.241 15.311 15.386 15.453 15.533 15.568 15.651 15.711 15.758 15.836 15.921 15.993 16.071 16.168 16.243 16.306 16.378 16.473 16.561 16.653 16.708 16.846 16.928 17.026 17.098 17.211 17.298 17.433 17.548 17.663 17.748 17.888 17.991 18.091 18.216 18.331 18.491 18.603 18.743 18.848 18.961 19.133 19.268 19.448 19.568 19.663 19.806 19.943 20.048 20.166 20.298 20.401 20.528 20.643 20.763 20.926 21.031 21.131 21.233 21.318 21.423 21.548 21.666 21.813 21.921 22.046 22.171 22.268 22.376 22.451 22.556 22.661 22.783 22.886 22.983 23.108 23.168 23.318 23.401 23.493 23.586 23.671 23.726 23.831 23.918 24.018 24.093 24.176 24.253 24.343 24.431 24.471 24.601 24.693 24.766 24.851 24.958 25.038 25.133 25.193 25.291 25.418 25.543 25.686 25.833 25.961 26.013 26.098 26.188 26.316 26.416 26.488 26.591 26.686 26.766 26.858 26.971 27.088 27.181 27.293 27.396 27.493 27.586 27.698 27.821 27.883 27.986 28.078 28.151 28.261 28.328 28.468 28.571 28.658 28.726 28.841 28.886 28.951 28.986 29.071 29.146 29.223 29.276 29.343 29.438 29.468 29.508 29.583 29.666 29.723 29.781 29.841 29.916 29.988 30.071 30.103 30.191 30.231 30.296 30.358 30.408 30.436 30.473 30.531 30.616 30.613 30.691 30.718 30.803 30.791 30.883 30.903 30.973 31.006 31.098 31.191 31.261 31.318 31.381 31.413 31.518 31.548 31.646 31.698 31.768 31.853 31.916 31.963 32.001 32.046 32.078 32.121 32.106 32.006 31.966 33.121 34.291 33.408 32.776 32.741 32.788 32.853 32.896 33.003 33.046 33.138 33.211 33.256 33.326 33.356 33.436 33.491 33.583 33.663 33.726 33.798 33.838 33.938 34.028 34.093 34.186 34.236 34.276 34.321 34.333 34.383 34.433 34.466 34.558 34.583 34.628 34.686 34.746 34.783 34.868 34.911 34.978 35.046 35.108 35.131 35.178 35.206 35.253 35.233 35.331 35.331 35.353 35.416 35.438 35.468 35.483 35.543 35.536 35.598 35.603 35.643 35.703 35.728 35.741 35.748 35.791 35.838
9.976 9.968 9.978 9.991 10.001 10.043 10.066 10.098 10.136 10.161 10.186 10.266 10.306 10.333 10.346 10.358 10.361 10.381 10.341 10.306 10.306 10.406 10.918 12.293 12.546 11.693 10.881 10.746 10.691 10.673 10.676 10.631 10.646 10.598 10.643 10.601 10.588 11.341 12.526 13.278 12.888 12.358 11.131 10.851 10.881 10.918 10.971 10.981 11.023 11.051 11.078 11.113 11.171 11.198 11.241 11.276 11.308 11.353 11.398 11.408 11.443 11.431 11.446 11.448 11.468 11.488 11.528 11.573 11.586 11.623 11.641 11.683 11.726 11.776 11.788 11.796 11.866 11.908 11.911 11.968 11.993 12.008 12.021 12.046 12.043 12.031 12.043 12.046 12.106 12.098 12.126 12.153 12.118 12.121 12.108 12.091 12.083 12.068 12.058 12.078 12.081 12.058 12.096 12.141 12.236 12.286 12.326 12.348 12.484 14.106 14.494 12.617 12.707 12.722 12.797 13.143 14.804 16.32 16.559 17.468 17.513 16.448 17.266 17.238 16.956 16.695 14.579 14.614 14.761 13.083 13.148 13.276 13.246 13.298 13.406 13.428 13.541 13.621 13.733 13.796 13.878 13.953 13.976 13.968 14.013 14.006 14.023 14.061 14.081 14.143 14.183 14.558 15.108 13.673 13.671 14.181 15.893 15.938 14.756 14.863 14.911 14.926 14.921 14.928 14.928 14.968 15.023 15.081 15.153 15.233 15.316 15.358 15.446 15.491 15.553 15.643 15.711 15.786 15.861 15.916 15.983 16.061 16.108 16.211 16.323 16.411 16.486 16.588 16.681 16.763 16.866 16.958 17.071 17.171 17.273 17.376 17.463 17.566 17.671 17.771 17.896 18.018 18.138 18.266 18.396 18.518 18.678 18.813 18.948 19.071 19.221 19.353 19.486 19.593 19.726 19.833 19.991 20.091 20.231 20.321 20.448 20.553 20.668 20.798 20.901 20.973 21.101 21.211 21.348 21.478 21.623 21.738 21.828 21.938 22.038 22.138 22.248 22.361 22.476 22.583 22.658 22.748 22.858 22.976 23.093 23.176 23.256 23.338 23.403 23.468 23.573 23.676 23.748 23.853 23.928 24.016 24.076 24.161 24.243 24.336 24.426 24.491 24.616 24.696 24.738 24.858 24.928 25.041 25.206 25.311 25.433 25.536 25.626 25.708 25.803 25.898 25.988 26.091 26.186 26.266 26.368 26.443 26.553 26.673 26.778 26.878 26.986 27.096 27.188 27.318 27.391 27.506 27.571 27.706 27.728 27.863 28.006 28.073 28.163 28.243 28.353 28.436 28.436 28.556 28.603 28.651 28.701 28.828 28.891 28.968 29.031 29.088 29.088 29.228 29.256 29.363 29.393 29.478 29.558 29.598 29.658 29.708 29.753 29.833 29.903 29.953 29.996 30.056 30.123 30.168 30.188 30.263 30.316 30.371 30.406 30.453 30.506 30.543 30.581 30.643 30.736 30.798 30.873 30.948 31.008 31.058 31.116 31.188 31.273 31.323 31.421 31.506 31.531 31.596 31.626 31.686 31.753 31.783 31.758 31.673 31.626 32.156 33.996 33.243 32.411 32.413 32.436 32.528 32.571 32.661 32.711 32.773 32.831 32.911 32.951 33.038 33.123 33.143 33.268 33.296 33.388 33.456 33.466 33.581 33.703 33.766 33.843 33.881 33.941 33.976 34.026 34.041 34.088 34.136 34.193 34.236 34.271 34.328 34.388 34.456 34.523 34.578 34.663 34.723 34.746 34.803 34.833 34.861 34.911 34.916 34.971 35.006 35.038 35.078 35.123 35.188 35.188 35.201 35.236 35.276 35.311 35.338 35.398 35.413 35.413 35.433 35.443 35.473
9.911 9.941 9.966 9.936 9.933 9.956 10.006 10.043 10.081 10.098 10.138 10.178 10.211 10.243 10.228 10.248 10.298 10.286 10.291 10.268 10.273 10.253 10.253 10.303 10.963 12.046 12.601 11.446 10.866 10.723 10.631 10.656 10.631 10.618 10.596 10.586 10.616 10.651 10.588 11.213 12.028 13.098 12.768 11.821 11.063 10.906 10.943 10.946 10.963 10.983 11.033 11.083 11.088 11.136 11.218 11.253 11.258 11.301 11.326 11.386 11.401 11.408 11.398 11.451 11.428 11.443 11.476 11.496 11.501 11.538 11.566 11.598 11.631 11.663 11.673 11.708 11.776 11.813 11.836 11.863 11.908 11.948 11.961 11.983 11.968 11.968 11.981 11.953 12.003 12.021 12.043 12.076 12.036 12.013 12.013 11.993 11.986 11.933 11.943 11.978 11.963 11.963 12.008 12.081 12.158 12.208 12.243 12.315 12.362 12.304 12.347 12.566 12.653 12.692 12.759 12.742 13.056 13.525 15.585 16.543 17.669 18.499 17.937 17.394 18.215 18.534 17.499 18.103 17.933 16.566 15.246 13.938 14.861 13.846 13.983 13.363 13.533 13.496 13.558 13.673 13.733 13.836 13.866 14.118 14.051 13.901 13.958 13.966 13.991 14.011 14.118 14.416 14.701 13.621 13.613 15.233 15.948 16.111 15.276 14.923 14.743 14.793 14.806 14.811 14.811 14.813 14.866 14.906 14.933 14.991 15.071 15.146 15.241 15.326 15.358 15.451 15.483 15.566 15.633 15.708 15.763 15.841 15.901 15.963 16.058 16.153 16.241 16.353 16.426 16.503 16.598 16.703 16.816 16.891 16.993 17.076 17.183 17.296 17.396 17.496 17.611 17.698 17.821 17.931 18.066 18.201 18.328 18.503 18.613 18.768 18.883 19.003 19.143 19.258 19.371 19.523 19.651 19.733 19.888 19.973 20.111 20.246 20.346 20.463 20.548 20.631 20.763 20.883 21.018 21.173 21.281 21.406 21.493 21.608 21.721 21.833 21.921 22.031 22.163 22.238 22.336 22.403 22.536 22.646 22.781 22.863 22.936 22.986 23.086 23.163 23.258 23.348 23.421 23.476 23.576 23.648 23.773 23.831 23.901 23.991 24.078 24.171 24.243 24.323 24.388 24.486 24.561 24.708 24.841 24.973 25.073 25.161 25.251 25.338 25.446 25.523 25.591 25.706 25.841 25.898 25.981 26.106 26.171 26.288 26.438 26.516 26.613 26.686 26.808 26.878 26.966 27.076 27.153 27.283 27.333 27.461 27.578 27.648 27.743 27.843 27.963 28.033 28.063 28.183 28.203 28.191 28.318 28.398 28.471 28.573 28.638 28.666 28.711 28.786 28.933 28.941 28.981 29.083 29.141 29.168 29.241 29.323 29.388 29.463 29.513 29.578 29.658 29.698 29.771 29.808 29.833 29.886 29.953 30.006 30.061 30.083 30.143 30.206 30.238 30.286 30.338 30.433 30.486 30.583 30.633 30.703 30.733 30.853 30.936 30.983 31.068 31.143 31.216 31.251 31.276 31.346 31.371 31.388 31.426 31.348 31.286 31.806 33.606 33.218 32.088 32.096 32.113 32.148 32.246 32.301 32.356 32.448 32.503 32.568 32.628 32.683 32.746 32.833 32.896 32.966 33.048 33.113 33.151 33.286 33.351 33.398 33.473 33.541 33.601 33.636 33.673 33.703 33.753 33.788 33.826 33.893 33.911 34.003 34.091 34.126 34.191 34.221 34.298 34.348 34.411 34.433 34.481 34.541 34.586 34.543 34.626 34.663 34.678 34.731 34.813 34.846 34.876 34.886 34.948 34.956 34.961 35.003 35.001 35.078 35.056 35.093 35.116 35.131
9.876 9.861 9.903 9.891 9.901 9.933 9.966 10.008 10.008 10.028 10.056 10.091 10.121 10.133 10.151 10.176 10.193 10.211 10.223 10.186 10.208 10.193 10.203 10.173 10.171 10.243 11.461 12.626 12.488 11.321 10.786 10.703 10.663 10.641 10.653 10.628 10.576 10.571 10.663 10.641 10.553 10.801 12.006 12.916 12.161 11.808 11.171 10.926 10.906 10.918 10.983 11.041 11.036 11.103 11.151 11.173 11.256 11.258 11.291 11.336 11.373 11.338 11.351 11.373 11.393 11.411 11.421 11.423 11.431 11.476 11.488 11.523 11.526 11.561 11.586 11.656 11.698 11.718 11.756 11.778 11.828 11.823 11.848 11.868 11.916 11.888 11.888 11.923 11.953 11.946 11.968 11.986 11.963 11.913 11.911 11.893 11.881 11.856 11.851 11.863 11.861 11.861 11.953 12.018 12.098 12.148 12.176 12.223 12.269 12.229 12.315 12.451 12.492 12.544 12.619 12.779 12.767 12.768 12.816 14.959 16.103 16.703 17.264 18.013 18.303 18.613 18.611 18.713 18.861 18.158 18.131 17.768 17.496 16.778 17.366 17.493 15.741 13.756 14.978 14.476 14.778 14.523 14.926 15.991 15.323 14.696 14.236 14.043 14.186 14.011 14.006 14.603 14.378 13.488 13.581 16.573 17.631 17.103 16.148 15.993 15.211 14.953 14.798 14.641 14.673 14.698 14.743 14.791 14.803 14.841 14.868 14.958 14.993 15.081 15.166 15.236 15.311 15.371 15.438 15.478 15.528 15.611 15.696 15.788 15.858 15.918 16.013 16.113 16.186 16.288 16.376 16.468 16.553 16.643 16.726 16.818 16.921 17.033 17.153 17.236 17.318 17.426 17.518 17.646 17.766 17.918 18.038 18.186 18.303 18.426 18.581 18.686 18.821 18.941 19.053 19.186 19.308 19.426 19.551 19.651 19.811 19.923 20.023 20.128 20.193 20.323 20.453 20.568 20.693 20.813 20.988 21.081 21.183 21.303 21.388 21.498 21.606 21.726 21.833 21.931 22.028 22.136 22.196 22.293 22.436 22.508 22.606 22.698 22.763 22.861 22.928 23.021 23.096 23.163 23.261 23.303 23.426 23.503 23.586 23.671 23.718 23.821 23.903 23.961 24.006 24.141 24.238 24.351 24.483 24.596 24.696 24.823 24.906 24.986 25.068 25.136 25.258 25.323 25.436 25.508 25.641 25.683 25.783 25.916 25.988 26.098 26.221 26.293 26.391 26.511 26.596 26.638 26.766 26.871 26.938 27.026 27.168 27.273 27.361 27.451 27.556 27.613 27.646 27.723 27.753 27.843 27.923 28.016 28.043 28.131 28.203 28.248 28.306 28.378 28.446 28.506 28.563 28.648 28.716 28.768 28.851 28.911 28.996 29.076 29.098 29.208 29.253 29.316 29.401 29.418 29.461 29.523 29.606 29.641 29.701 29.738 29.766 29.808 29.878 29.908 30.003 30.048 30.121 30.228 30.263 30.363 30.403 30.483 30.588 30.636 30.711 30.798 30.838 30.898 30.941 30.983 31.013 31.043 31.043 30.998 30.963 31.208 33.273 32.916 31.731 31.743 31.771 31.813 31.871 31.971 32.003 32.088 32.161 32.226 32.271 32.328 32.401 32.438 32.556 32.651 32.723 32.796 32.841 32.896 32.981 33.021 33.131 33.181 33.241 33.283 33.303 33.353 33.381 33.413 33.466 33.533 33.606 33.648 33.738 33.783 33.848 33.901 33.936 33.966 34.063 34.111 34.166 34.186 34.208 34.251 34.318 34.328 34.353 34.411 34.446 34.476 34.506 34.538 34.573 34.616 34.606 34.673 34.713 34.731 34.733 34.758 34.763 34.796
9.846 9.836 9.851 9.833 9.873 9.913 9.928 9.926 9.928 9.958 10.046 10.043 10.048 10.036 10.051 10.078 10.121 10.146 10.131 10.141 10.148 10.158 10.188 10.186 10.173 10.126 10.166 10.231 11.171 12.476 12.521 11.423 10.783 10.691 10.661 10.633 10.653 10.646 10.606 10.583 10.618 10.631 10.558 10.756 11.426 12.061 12.028 11.548 10.938 10.918 10.946 10.958 11.006 11.046 11.073 11.103 11.136 11.203 11.211 11.233 11.273 11.293 11.296 11.286 11.318 11.378 11.398 11.401 11.376 11.413 11.428 11.446 11.443 11.488 11.533 11.583 11.606 11.638 11.658 11.696 11.721 11.758 11.768 11.758 11.803 11.833 11.838 11.828 11.886 11.926 11.891 11.896 11.863 11.881 11.861 11.823 11.781 11.773 11.778 11.766 11.766 11.781 11.856 11.943 12.023 12.076 12.144 12.185 12.184 12.135 12.262 12.414 12.412 12.419 12.498 12.652 12.768 12.763 12.788 12.743 13.653 14.639 14.823 15.74 17.145 17.761 17.618 18.046 18.041 17.631 17.591 17.521 17.376 18.156 18.238 18.296 17.658 17.441 17.413 16.671 16.863 15.676 17.466 17.456 16.993 16.303 15.896 15.146 14.743 14.171 13.873 14.616 14.128 13.431 13.526 15.748 15.106 15.518 15.601 15.546 17.523 17.408 15.458 15.288 15.056 14.523 14.568 14.598 14.693 14.711 14.748 14.761 14.826 14.848 14.911 15.006 15.061 15.151 15.231 15.298 15.346 15.423 15.486 15.566 15.643 15.708 15.796 15.891 15.963 16.043 16.143 16.223 16.336 16.413 16.493 16.568 16.668 16.768 16.858 16.961 17.043 17.143 17.251 17.378 17.496 17.603 17.763 17.861 17.998 18.118 18.248 18.391 18.508 18.643 18.743 18.848 18.971 19.086 19.236 19.348 19.531 19.568 19.693 19.801 19.876 20.006 20.123 20.238 20.363 20.506 20.586 20.711 20.843 20.946 21.048 21.176 21.291 21.383 21.458 21.588 21.671 21.786 21.876 21.998 22.081 22.171 22.223 22.343 22.428 22.503 22.613 22.698 22.783 22.843 22.906 22.976 23.098 23.126 23.238 23.306 23.371 23.453 23.566 23.621 23.686 23.776 23.888 24.008 24.123 24.226 24.366 24.453 24.513 24.601 24.663 24.776 24.858 24.928 25.031 25.098 25.173 25.303 25.391 25.506 25.616 25.711 25.796 25.858 26.013 26.096 26.218 26.278 26.368 26.451 26.548 26.641 26.738 26.853 26.948 27.083 27.158 27.216 27.266 27.338 27.333 27.458 27.548 27.636 27.671 27.756 27.833 27.871 27.933 28.008 28.048 28.133 28.211 28.263 28.353 28.426 28.483 28.546 28.653 28.721 28.811 28.861 28.923 28.971 29.033 29.038 29.123 29.161 29.231 29.266 29.326 29.348 29.418 29.443 29.523 29.523 29.621 29.693 29.776 29.881 29.951 30.023 30.073 30.118 30.183 30.268 30.363 30.423 30.471 30.516 30.601 30.666 30.698 30.703 30.696 30.626 30.586 30.596 32.738 32.376 31.418 31.413 31.436 31.486 31.553 31.631 31.673 31.741 31.781 31.868 31.936 32.003 32.053 32.103 32.211 32.311 32.366 32.421 32.458 32.566 32.621 32.713 32.783 32.838 32.883 32.921 32.973 32.998 33.041 33.101 33.141 33.216 33.223 33.298 33.353 33.418 33.468 33.551 33.566 33.641 33.713 33.746 33.811 33.846 33.876 33.896 33.943 34.006 34.056 34.061 34.108 34.141 34.156 34.178 34.263 34.261 34.331 34.343 34.368 34.398 34.421 34.408 34.451 34.441
9.771 9.801 9.786 9.778 9.808 9.836 9.881 9.876 9.881 9.913 9.963 9.986 9.981 9.968 9.981 9.991 10.031 10.026 10.043 10.081 10.108 10.118 10.106 10.131 10.131 10.161 10.158 10.113 10.123 10.343 11.091 12.116 12.436 11.301 10.783 10.586 10.666 10.631 10.561 10.606 10.563 10.531 10.603 10.638 10.583 10.788 11.426 11.911 11.868 11.431 11.028 10.883 10.946 10.976 11.003 11.023 11.061 11.126 11.136 11.158 11.183 11.191 11.218 11.253 11.286 11.308 11.336 11.333 11.366 11.371 11.368 11.391 11.383 11.421 11.451 11.513 11.541 11.541 11.563 11.616 11.626 11.656 11.676 11.678 11.688 11.711 11.706 11.776 11.823 11.806 11.833 11.836 11.796 11.793 11.798 11.773 11.733 11.693 11.708 11.711 11.696 11.743 11.828 11.898 11.931 11.989 12.045 12.115 12.099 12.084 12.232 12.32 12.34 12.36 12.401 12.469 12.567 12.67 12.792 12.876 12.835 12.683 12.68 12.747 12.951 14.493 16.881 16.858 15.298 15.151 15.986 16.026 16.636 17.508 17.796 17.513 17.833 17.556 17.698 17.651 17.118 16.638 17.778 17.883 17.606 16.776 15.858 15.406 15.013 14.238 13.788 14.508 13.988 13.371 13.486 14.301 13.886 13.838 13.853 14.151 15.753 15.386 15.041 15.811 16.143 16.313 16.128 14.741 14.581 14.538 14.581 14.623 14.678 14.721 14.776 14.811 14.883 14.948 15.011 15.076 15.153 15.226 15.291 15.346 15.441 15.536 15.603 15.668 15.783 15.851 15.913 16.003 16.063 16.191 16.266 16.346 16.398 16.506 16.586 16.703 16.768 16.866 16.998 17.078 17.208 17.296 17.418 17.546 17.658 17.808 17.941 18.061 18.171 18.273 18.411 18.503 18.668 18.806 18.938 19.056 19.156 19.248 19.351 19.446 19.591 19.708 19.793 19.928 20.063 20.171 20.266 20.403 20.506 20.633 20.733 20.851 20.971 21.071 21.166 21.266 21.388 21.466 21.581 21.668 21.781 21.848 21.921 22.031 22.103 22.193 22.266 22.341 22.433 22.493 22.581 22.656 22.783 22.836 22.901 22.986 23.058 23.151 23.223 23.288 23.366 23.431 23.536 23.661 23.763 23.861 23.976 24.071 24.118 24.231 24.318 24.371 24.468 24.533 24.658 24.723 24.818 24.926 25.036 25.113 25.246 25.311 25.383 25.501 25.626 25.698 25.798 25.876 25.998 26.078 26.148 26.236 26.318 26.433 26.541 26.643 26.743 26.821 26.861 26.883 26.968 27.078 27.153 27.238 27.326 27.366 27.436 27.503 27.548 27.621 27.693 27.753 27.831 27.876 27.958 28.073 28.118 28.211 28.261 28.331 28.431 28.473 28.521 28.608 28.646 28.673 28.768 28.781 28.866 28.876 28.956 28.978 29.048 29.106 29.151 29.198 29.268 29.356 29.441 29.553 29.586 29.631 29.688 29.746 29.866 29.911 30.023 30.076 30.161 30.213 30.271 30.291 30.336 30.338 30.356 30.286 30.238 30.271 32.053 32.231 31.061 31.091 31.096 31.121 31.221 31.293 31.316 31.396 31.438 31.518 31.563 31.658 31.713 31.816 31.861 31.941 32.013 32.063 32.118 32.208 32.303 32.348 32.436 32.456 32.548 32.573 32.636 32.656 32.716 32.743 32.773 32.831 32.871 32.951 32.988 33.076 33.116 33.181 33.221 33.271 33.348 33.391 33.466 33.486 33.546 33.571 33.591 33.646 33.653 33.696 33.756 33.811 33.793 33.896 33.858 33.906 33.938 33.961 34.023 34.031 34.073 34.076 34.088 34.091
9.746 9.766 9.756 9.731 9.743 9.766 9.811 9.798 9.823 9.868 9.888 9.913 9.896 9.921 9.933 9.916 9.953 9.953 9.983 10.011 10.028 10.041 10.068 10.108 10.073 10.113 10.136 10.146 10.143 10.146 10.146 10.258 11.183 12.576 12.556 11.453 10.703 10.651 10.633 10.623 10.621 10.563 10.586 10.533 10.618 10.661 10.586 10.696 11.306 11.706 11.763 11.418 11.021 10.911 10.966 10.956 10.983 11.026 11.048 11.103 11.088 11.121 11.153 11.178 11.203 11.238 11.281 11.256 11.313 11.326 11.323 11.333 11.341 11.366 11.383 11.431 11.478 11.491 11.508 11.528 11.558 11.568 11.581 11.586 11.583 11.606 11.638 11.663 11.718 11.716 11.743 11.731 11.728 11.746 11.723 11.686 11.656 11.658 11.628 11.618 11.638 11.658 11.756 11.806 11.876 11.924 11.984 12.025 12.004 12.068 12.203 12.259 12.291 12.315 12.36 12.405 12.42 12.495 12.614 12.794 12.816 12.882 12.793 12.717 12.646 12.661 13.063 13.886 13.871 13.238 13.951 14.006 15.321 16.008 18.083 17.768 17.503 18.771 17.976 17.471 15.563 14.123 14.671 16.468 16.666 15.593 14.346 14.213 14.756 14.086 13.668 14.321 13.803 13.266 13.501 14.303 13.701 13.858 14.111 13.711 13.896 13.733 14.096 14.596 15.356 17.661 15.641 15.551 15.478 14.801 14.396 14.426 14.493 14.583 14.601 14.638 14.678 14.746 14.781 14.858 14.951 15.013 15.093 15.176 15.258 15.341 15.426 15.448 15.548 15.616 15.683 15.786 15.868 15.936 16.033 16.098 16.216 16.281 16.331 16.401 16.501 16.638 16.716 16.828 16.911 17.006 17.153 17.256 17.393 17.516 17.641 17.746 17.876 17.983 18.073 18.188 18.343 18.461 18.598 18.718 18.813 18.908 19.051 19.161 19.266 19.371 19.486 19.616 19.716 19.873 19.988 20.076 20.188 20.321 20.431 20.521 20.638 20.736 20.848 20.936 21.053 21.133 21.218 21.336 21.418 21.508 21.601 21.686 21.786 21.868 21.958 22.018 22.096 22.161 22.241 22.338 22.431 22.508 22.566 22.666 22.741 22.808 22.873 22.951 23.021 23.103 23.203 23.276 23.413 23.516 23.621 23.718 23.818 23.878 23.946 24.011 24.116 24.201 24.283 24.353 24.436 24.528 24.636 24.736 24.848 24.903 24.998 25.088 25.188 25.281 25.413 25.513 25.586 25.666 25.733 25.821 25.948 26.061 26.158 26.241 26.346 26.396 26.438 26.526 26.618 26.721 26.766 26.858 26.896 26.961 27.033 27.091 27.166 27.233 27.326 27.386 27.451 27.486 27.596 27.676 27.718 27.798 27.901 27.966 28.036 28.073 28.176 28.206 28.271 28.328 28.396 28.441 28.466 28.528 28.586 28.631 28.711 28.748 28.828 28.868 28.926 29.006 29.058 29.183 29.226 29.271 29.351 29.386 29.541 29.576 29.641 29.713 29.791 29.858 29.908 29.948 29.981 29.998 30.026 30.008 29.911 29.853 31.443 32.011 30.718 30.766 30.753 30.803 30.858 30.928 30.958 31.028 31.103 31.196 31.228 31.308 31.383 31.461 31.553 31.598 31.668 31.741 31.793 31.878 31.913 31.991 32.073 32.121 32.193 32.261 32.311 32.318 32.341 32.383 32.441 32.473 32.516 32.588 32.631 32.731 32.743 32.781 32.841 32.923 32.971 33.051 33.103 33.128 33.196 33.198 33.226 33.276 33.306 33.346 33.393 33.416 33.436 33.488 33.526 33.566 33.563 33.593 33.653 33.636 33.678 33.711 33.756 33.771
9.706 9.713 9.701 9.691 9.696 9.736 9.728 9.741 9.763 9.788 9.806 9.831 9.838 9.863 9.873 9.903 9.888 9.896 9.931 9.943 9.933 9.953 9.983 10.018 10.063 10.091 10.101 10.126 10.168 10.183 10.156 10.158 10.138 10.316 11.143 12.386 11.961 11.241 10.701 10.593 10.591 10.591 10.618 10.566 10.543 10.581 10.606 10.648 10.588 10.726 11.391 11.756 11.693 11.488 11.148 10.946 10.943 10.976 11.003 11.021 11.018 11.046 11.056 11.106 11.156 11.173 11.188 11.216 11.263 11.253 11.273 11.281 11.286 11.321 11.366 11.366 11.388 11.406 11.443 11.478 11.461 11.476 11.498 11.508 11.501 11.516 11.553 11.578 11.626 11.646 11.646 11.631 11.663 11.671 11.658 11.623 11.623 11.598 11.573 11.571 11.598 11.638 11.694 11.784 11.834 11.897 11.947 11.956 11.898 12.035 12.158 12.196 12.248 12.318 12.351 12.35 12.366 12.412 12.452 12.557 12.671 12.765 12.797 12.993 13.151 12.698 12.638 12.661 12.838 13.043 13.088 13.268 14.906 14.888 16.461 17.231 16.551 15.166 15.541 15.583 14.403 13.393 13.331 13.646 13.286 14.211 13.421 13.711 14.338 13.853 13.523 13.968 13.731 13.171 13.741 15.258 13.698 13.878 13.958 15.171 13.583 13.568 13.551 13.651 13.861 14.141 14.736 15.071 15.896 16.051 15.766 15.143 15.323 14.821 14.428 14.476 14.511 14.578 14.591 14.663 14.718 14.803 14.893 14.976 15.053 15.118 15.166 15.258 15.358 15.426 15.511 15.573 15.648 15.738 15.823 15.913 16.003 16.036 16.106 16.213 16.278 16.373 16.483 16.538 16.631 16.746 16.851 16.981 17.103 17.226 17.346 17.441 17.556 17.641 17.788 17.918 18.011 18.153 18.286 18.401 18.481 18.611 18.713 18.836 18.938 19.058 19.183 19.296 19.428 19.523 19.631 19.728 19.883 19.971 20.068 20.186 20.283 20.381 20.516 20.626 20.746 20.813 20.923 21.021 21.111 21.203 21.296 21.371 21.441 21.516 21.616 21.711 21.768 21.836 21.888 22.001 22.088 22.173 22.248 22.291 22.371 22.431 22.518 22.611 22.683 22.768 22.843 22.936 23.046 23.141 23.253 23.363 23.423 23.473 23.581 23.633 23.751 23.866 23.878 23.963 24.046 24.133 24.238 24.308 24.433 24.503 24.586 24.701 24.801 24.911 25.031 25.093 25.176 25.318 25.346 25.451 25.563 25.656 25.748 25.841 25.938 26.011 26.098 26.173 26.218 26.306 26.358 26.428 26.493 26.578 26.643 26.698 26.773 26.838 26.921 26.988 27.046 27.111 27.203 27.291 27.351 27.443 27.526 27.631 27.691 27.751 27.843 27.928 27.896 27.956 28.011 28.046 28.131 28.158 28.208 28.318 28.358 28.396 28.446 28.518 28.556 28.646 28.716 28.801 28.873 28.933 28.988 29.026 29.128 29.216 29.296 29.383 29.418 29.496 29.561 29.636 29.653 29.678 29.696 29.638 29.548 29.513 30.928 31.711 30.401 30.461 30.358 30.453 30.518 30.548 30.633 30.698 30.753 30.826 30.888 30.971 31.048 31.128 31.193 31.236 31.326 31.368 31.433 31.528 31.551 31.626 31.696 31.783 31.836 31.901 31.958 31.928 31.981 32.021 32.093 32.173 32.198 32.201 32.296 32.313 32.408 32.418 32.491 32.558 32.626 32.673 32.723 32.776 32.826 32.863 32.893 32.906 32.936 32.961 33.003 33.043 33.096 33.166 33.163 33.191 33.221 33.256 33.338 33.358 33.376 33.361 33.373 33.393
9.681 9.668 9.643 9.638 9.668 9.696 9.683 9.678 9.711 9.743 9.766 9.756 9.783 9.803 9.848 9.848 9.846 9.843 9.888 9.881 9.878 9.893 9.896 9.951 10.008 10.056 10.086 10.148 10.148 10.163 10.196 10.221 10.211 10.213 10.246 10.313 10.941 12.136 11.906 11.193 10.653 10.531 10.553 10.616 10.603 10.598 10.526 10.523 10.586 10.598 10.558 10.736 11.876 13.651 13.028 11.578 11.478 10.956 10.941 10.936 10.976 10.991 10.998 11.018 11.098 11.123 11.098 11.146 11.156 11.176 11.196 11.208 11.241 11.253 11.281 11.338 11.338 11.331 11.388 11.411 11.401 11.398 11.416 11.431 11.431 11.448 11.458 11.501 11.548 11.556 11.541 11.548 11.573 11.583 11.546 11.533 11.548 11.523 11.528 11.496 11.511 11.591 11.65 11.685 11.765 11.867 11.896 11.867 11.852 12.019 12.117 12.149 12.173 12.237 12.282 12.32 12.34 12.351 12.394 12.455 12.467 12.54 12.633 12.868 13.553 12.961 12.786 12.666 12.608 12.748 12.933 13.028 13.243 13.666 13.831 16.933 14.881 13.588 14.198 14.936 15.043 14.851 14.566 13.493 13.313 13.386 14.353 13.328 13.413 13.446 13.391 13.238 13.008 13.153 15.258 16.101 13.676 13.788 14.168 14.786 13.611 14.463 14.581 14.396 13.748 13.781 14.303 14.133 14.323 14.878 15.551 16.968 18.861 16.978 15.036 14.356 14.358 14.406 14.476 14.531 14.571 14.608 14.696 14.763 14.861 14.908 14.956 15.088 15.163 15.223 15.311 15.376 15.453 15.543 15.606 15.676 15.766 15.836 15.896 15.991 16.041 16.151 16.216 16.321 16.376 16.491 16.593 16.723 16.836 16.908 17.063 17.171 17.253 17.366 17.483 17.621 17.733 17.886 17.991 18.071 18.166 18.271 18.411 18.491 18.606 18.693 18.833 18.986 19.098 19.198 19.343 19.431 19.556 19.663 19.756 19.851 19.981 20.121 20.216 20.298 20.403 20.496 20.583 20.698 20.766 20.866 20.961 21.028 21.106 21.191 21.278 21.343 21.431 21.503 21.573 21.676 21.756 21.836 21.916 21.991 22.043 22.106 22.191 22.256 22.338 22.431 22.521 22.593 22.703 22.781 22.883 23.006 23.061 23.136 23.213 23.286 23.373 23.453 23.513 23.588 23.656 23.758 23.853 23.916 24.076 24.151 24.268 24.343 24.441 24.551 24.636 24.726 24.838 24.921 25.026 25.111 25.188 25.318 25.376 25.461 25.586 25.621 25.696 25.796 25.868 25.913 25.978 26.073 26.153 26.236 26.276 26.361 26.416 26.458 26.536 26.633 26.666 26.758 26.838 26.901 26.978 27.098 27.178 27.258 27.353 27.403 27.458 27.523 27.566 27.593 27.673 27.726 27.758 27.801 27.901 27.933 27.986 28.041 28.091 28.148 28.193 28.268 28.348 28.413 28.501 28.573 28.671 28.653 28.728 28.861 28.971 29.066 29.068 29.161 29.218 29.278 29.296 29.346 29.336 29.336 29.228 29.158 30.206 31.423 30.276 30.098 30.058 30.103 30.148 30.226 30.271 30.328 30.396 30.488 30.538 30.608 30.706 30.813 30.843 30.888 30.958 31.001 31.086 31.126 31.213 31.306 31.323 31.378 31.456 31.528 31.581 31.603 31.631 31.678 31.733 31.721 31.823 31.853 31.888 31.958 32.046 32.063 32.153 32.201 32.246 32.318 32.398 32.428 32.488 32.501 32.541 32.536 32.593 32.603 32.668 32.673 32.761 32.811 32.816 32.861 32.886 32.873 32.898 32.938 32.956 32.978 33.013 33.026
9.633 9.616 9.596 9.581 9.631 9.651 9.641 9.671 9.666 9.683 9.686 9.693 9.766 9.766 9.783 9.793 9.793 9.826 9.813 9.821 9.843 9.818 9.833 9.896 9.948 10.013 10.043 10.113 10.153 10.183 10.198 10.228 10.251 10.261 10.243 10.181 10.208 10.253 10.581 11.843 12.113 11.391 10.683 10.578 10.543 10.571 10.576 10.523 10.526 10.513 10.538 10.588 10.556 11.428 11.703 11.711 12.036 12.116 11.443 11.011 10.898 10.926 10.956 10.973 11.016 11.031 11.046 11.068 11.088 11.098 11.126 11.128 11.148 11.188 11.218 11.266 11.258 11.296 11.308 11.308 11.333 11.313 11.346 11.351 11.358 11.378 11.398 11.418 11.463 11.466 11.456 11.506 11.461 11.481 11.458 11.443 11.448 11.433 11.453 11.473 11.513 11.56 11.61 11.64 11.709 11.79 11.833 11.766 11.847 11.983 12.055 12.082 12.111 12.166 12.193 12.238 12.28 12.321 12.371 12.38 12.388 12.441 12.456 12.516 12.591 12.731 12.763 12.801 12.781 12.781 12.666 12.866 13.093 13.511 13.253 13.408 13.851 13.513 14.026 14.823 14.586 15.596 15.708 13.461 13.486 17.818 16.576 13.348 13.343 13.376 13.306 13.056 12.876 12.933 15.701 15.368 13.496 13.586 13.838 13.386 13.596 15.838 15.926 15.798 14.586 14.383 13.998 14.008 14.173 13.931 13.853 15.551 19.258 17.181 16.011 15.888 14.781 14.253 14.311 14.393 14.433 14.471 14.523 14.556 14.646 14.711 14.793 14.856 14.948 15.033 15.106 15.173 15.241 15.306 15.383 15.491 15.548 15.608 15.673 15.738 15.823 15.911 15.981 16.058 16.138 16.241 16.361 16.463 16.561 16.673 16.776 16.883 17.001 17.108 17.198 17.321 17.416 17.571 17.666 17.771 17.853 17.993 18.108 18.181 18.283 18.386 18.511 18.648 18.766 18.896 19.013 19.136 19.226 19.373 19.453 19.573 19.661 19.796 19.848 19.958 20.078 20.173 20.266 20.346 20.461 20.541 20.658 20.733 20.796 20.878 20.926 21.038 21.108 21.173 21.271 21.341 21.428 21.493 21.588 21.651 21.758 21.771 21.868 21.943 22.038 22.081 22.178 22.271 22.363 22.456 22.588 22.663 22.726 22.791 22.858 22.961 22.988 23.086 23.166 23.236 23.331 23.393 23.483 23.573 23.696 23.771 23.821 23.948 24.063 24.116 24.263 24.311 24.393 24.496 24.576 24.683 24.808 24.883 25.008 25.076 25.181 25.271 25.323 25.388 25.441 25.486 25.608 25.698 25.791 25.843 25.911 25.983 26.031 26.106 26.183 26.226 26.328 26.376 26.491 26.538 26.593 26.703 26.798 26.898 26.943 27.028 27.101 27.141 27.208 27.268 27.301 27.381 27.436 27.478 27.526 27.578 27.636 27.676 27.738 27.798 27.861 27.918 28.008 28.081 28.151 28.243 28.291 28.306 28.406 28.538 28.608 28.696 28.758 28.813 28.856 28.928 28.946 29.013 28.996 28.973 28.888 28.816 29.506 31.573 30.391 29.771 29.748 29.738 29.808 29.881 29.918 29.971 30.046 30.138 30.206 30.293 30.343 30.433 30.436 30.498 30.578 30.621 30.708 30.791 30.871 30.973 30.996 31.056 31.118 31.156 31.256 31.286 31.286 31.301 31.328 31.351 31.418 31.488 31.546 31.636 31.686 31.721 31.758 31.816 31.871 31.951 32.033 32.071 32.068 32.128 32.163 32.206 32.233 32.268 32.318 32.346 32.403 32.433 32.463 32.486 32.453 32.511 32.546 32.621 32.608 32.666 32.671 32.701
9.563 9.568 9.576 9.568 9.603 9.598 9.596 9.616 9.633 9.618 9.608 9.648 9.693 9.718 9.746 9.726 9.728 9.766 9.758 9.743 9.788 9.793 9.838 9.848 9.921 9.968 10.013 10.068 10.123 10.176 10.193 10.221 10.243 10.258 10.218 10.231 10.188 10.118 10.098 10.093 10.563 11.791 12.026 11.443 10.703 10.561 10.521 10.513 10.581 10.543 10.513 10.516 10.526 10.588 10.523 10.553 11.456 12.998 13.128 11.856 11.391 10.921 10.896 10.956 10.978 10.978 11.001 11.008 11.023 11.041 11.048 11.038 11.081 11.113 11.158 11.163 11.201 11.223 11.238 11.268 11.276 11.263 11.251 11.271 11.276 11.273 11.308 11.328 11.388 11.373 11.398 11.398 11.398 11.386 11.343 11.336 11.368 11.371 11.371 11.388 11.466 11.54 11.59 11.595 11.664 11.728 11.744 11.704 11.817 11.948 12.001 12.031 12.072 12.102 12.138 12.171 12.197 12.273 12.294 12.345 12.386 12.408 12.393 12.396 12.406 12.506 12.636 12.698 13.123 13.583 12.721 12.623 12.713 12.973 13.131 13.281 13.351 13.493 14.048 14.648 14.518 14.191 14.243 13.668 14.188 17.756 17.483 14.216 14.196 13.251 13.143 12.868 12.741 12.766 15.693 15.126 13.423 13.628 14.056 13.901 13.863 16.658 16.898 16.708 16.641 16.586 16.376 15.993 14.031 13.471 13.496 13.563 14.403 15.366 15.198 15.923 16.453 17.208 14.368 14.296 14.243 14.301 14.353 14.446 14.516 14.603 14.638 14.701 14.771 14.833 14.866 14.948 15.038 15.138 15.191 15.266 15.316 15.398 15.471 15.531 15.583 15.668 15.756 15.821 15.928 16.003 16.116 16.226 16.313 16.403 16.516 16.613 16.706 16.813 16.913 17.036 17.148 17.266 17.348 17.458 17.581 17.683 17.791 17.878 17.961 18.088 18.218 18.351 18.481 18.611 18.701 18.803 18.898 19.026 19.096 19.241 19.353 19.468 19.546 19.668 19.756 19.836 19.973 20.051 20.138 20.233 20.303 20.406 20.498 20.573 20.596 20.703 20.813 20.863 20.991 21.023 21.103 21.173 21.268 21.326 21.391 21.453 21.526 21.603 21.683 21.756 21.848 21.958 22.051 22.141 22.233 22.303 22.373 22.443 22.513 22.576 22.633 22.736 22.786 22.901 22.923 23.066 23.188 23.228 23.311 23.406 23.461 23.596 23.651 23.773 23.838 23.996 24.033 24.128 24.191 24.311 24.393 24.526 24.618 24.726 24.823 24.901 24.948 25.003 25.036 25.126 25.201 25.316 25.408 25.453 25.523 25.593 25.638 25.713 25.786 25.876 25.961 25.998 26.101 26.163 26.243 26.328 26.401 26.513 26.593 26.653 26.741 26.793 26.856 26.866 26.928 27.018 27.076 27.121 27.191 27.218 27.268 27.338 27.378 27.441 27.528 27.556 27.646 27.751 27.813 27.873 27.956 27.996 28.063 28.168 28.246 28.298 28.401 28.451 28.511 28.563 28.613 28.663 28.668 28.628 28.546 28.488 29.341 30.996 30.181 29.438 29.413 29.436 29.498 29.516 29.598 29.618 29.713 29.801 29.846 29.908 29.988 30.048 30.086 30.188 30.231 30.293 30.358 30.386 30.473 30.566 30.636 30.696 30.761 30.818 30.876 30.896 30.906 30.913 30.963 31.001 31.063 31.121 31.173 31.231 31.301 31.361 31.411 31.486 31.511 31.583 31.616 31.666 31.711 31.766 31.796 31.861 31.881 31.901 31.938 31.991 32.018 32.051 32.091 32.141 32.158 32.228 32.216 32.253 32.276 32.343 32.306 32.341
9.566 9.516 9.541 9.551 9.556 9.564 9.539 9.566 9.561 9.551 9.599 9.599 9.656 9.666 9.679 9.671 9.674 9.721 9.724 9.714 9.734 9.721 9.781 9.824 9.861 9.926 9.956 10.021 10.051 10.106 10.134 10.161 10.196 10.201 10.186 10.166 10.149 10.099 10.083 10.059 10.083 10.059 10.614 11.583 11.939 11.519 10.791 10.538 10.526 10.534 10.519 10.531 10.491 10.461 10.554 10.561 10.501 10.706 11.106 12.281 11.951 11.561 11.061 10.903 10.911 10.924 10.953 10.956 10.971 10.969 10.976 10.986 11.021 11.074 11.094 11.101 11.134 11.198 11.184 11.196 11.196 11.191 11.213 11.203 11.201 11.211 11.251 11.281 11.303 11.308 11.311 11.323 11.333 11.291 11.286 11.276 11.278 11.298 11.311 11.341 11.409 11.483 11.526 11.58 11.637 11.701 11.671 11.644 11.767 11.842 11.905 11.95 11.995 12.043 12.073 12.084 12.13 12.203 12.223 12.278 12.336 12.343 12.333 12.346 12.353 12.368 12.398 12.408 12.573 12.828 12.766 12.748 12.653 12.636 12.808 13.026 13.263 13.273 13.756 14.043 14.153 14.421 14.403 14.621 14.713 16.738 15.413 13.511 13.406 13.136 12.996 12.711 12.633 13.256 17.063 14.861 13.103 13.261 13.426 13.858 14.353 16.503 17.601 17.673 17.623 17.493 17.378 17.283 15.386 14.666 14.238 14.073 14.518 15.056 14.901 13.908 15.013 15.621 14.523 14.473 14.288 14.186 14.181 14.256 14.343 14.416 14.473 14.523 14.573 14.616 14.681 14.713 14.818 14.896 14.983 15.066 15.123 15.193 15.236 15.316 15.383 15.438 15.536 15.598 15.686 15.746 15.886 15.986 16.073 16.166 16.263 16.338 16.446 16.536 16.613 16.751 16.861 17.073 17.068 17.143 17.256 17.396 17.491 17.588 17.658 17.756 17.916 18.043 18.136 18.278 18.388 18.496 18.616 18.698 18.801 18.931 19.056 19.163 19.238 19.348 19.446 19.553 19.671 19.738 19.828 19.926 20.001 20.093 20.163 20.253 20.293 20.363 20.448 20.536 20.623 20.698 20.781 20.876 20.913 20.996 21.056 21.118 21.221 21.281 21.381 21.431 21.528 21.613 21.691 21.806 21.873 21.968 22.006 22.081 22.138 22.246 22.293 22.376 22.433 22.501 22.601 22.718 22.763 22.878 22.923 23.033 23.101 23.198 23.261 23.398 23.466 23.616 23.683 23.781 23.823 23.941 24.023 24.148 24.273 24.343 24.453 24.558 24.556 24.628 24.703 24.806 24.846 24.958 25.016 25.088 25.166 25.198 25.243 25.331 25.416 25.493 25.601 25.633 25.738 25.808 25.893 25.993 26.068 26.168 26.236 26.301 26.383 26.486 26.518 26.506 26.596 26.658 26.711 26.766 26.828 26.896 26.951 26.978 27.048 27.051 27.126 27.223 27.283 27.403 27.463 27.538 27.623 27.653 27.716 27.821 27.896 27.973 28.061 28.093 28.161 28.221 28.288 28.286 28.318 28.281 28.198 28.151 29.241 30.701 29.853 29.106 29.091 29.051 29.148 29.161 29.281 29.301 29.388 29.406 29.503 29.561 29.621 29.676 29.703 29.823 29.848 29.908 29.976 30.048 30.103 30.203 30.293 30.353 30.361 30.416 30.481 30.513 30.521 30.548 30.603 30.653 30.698 30.738 30.788 30.873 30.946 31.008 31.048 31.066 31.143 31.203 31.236 31.291 31.351 31.436 31.458 31.466 31.521 31.536 31.538 31.626 31.636 31.693 31.753 31.783 31.831 31.856 31.853 31.888 31.936 31.968 32.001 31.993
9.519 9.471 9.534 9.559 9.544 9.536 9.534 9.536 9.569 9.541 9.546 9.559 9.606 9.601 9.584 9.594 9.624 9.634 9.631 9.661 9.646 9.661 9.734 9.776 9.804 9.874 9.896 9.986 10.046 10.049 10.066 10.099 10.114 10.144 10.159 10.136 10.106 10.076 10.094 10.081 10.079 10.071 10.034 10.111 10.796 11.856 12.913 11.586 10.761 10.526 10.469 10.531 10.531 10.531 10.471 10.491 10.491 10.493 10.491 10.501 11.009 11.649 11.984 11.746 11.323 10.939 10.878 10.894 10.911 10.913 10.899 10.931 10.961 10.993 11.044 11.046 11.104 11.121 11.111 11.134 11.136 11.113 11.153 11.153 11.163 11.166 11.203 11.228 11.246 11.223 11.246 11.231 11.243 11.233 11.216 11.186 11.216 11.218 11.219 11.31 11.378 11.436 11.465 11.526 11.596 11.643 11.607 11.601 11.716 11.776 11.841 11.883 11.923 11.946 11.975 11.995 12.055 12.094 12.111 12.176 12.216 12.288 12.276 12.258 12.281 12.286 12.291 12.301 12.381 12.506 12.616 12.776 13.146 12.723 12.723 12.736 12.916 13.121 13.348 13.598 13.521 13.601 14.836 14.156 13.983 13.781 13.541 13.321 13.106 13.631 13.663 12.698 12.558 14.496 16.218 14.453 13.476 13.588 13.753 14.013 13.411 14.321 17.286 17.316 17.491 17.641 17.671 17.666 16.843 16.738 16.586 16.108 15.926 15.891 14.001 13.688 14.411 13.633 13.631 14.346 14.651 14.453 14.238 14.141 14.156 14.198 14.258 14.346 14.421 14.468 14.538 14.581 14.613 14.691 14.756 14.853 14.931 14.981 15.043 15.093 15.158 15.238 15.313 15.378 15.483 15.553 15.653 15.733 15.861 15.908 16.016 16.103 16.201 16.256 16.351 16.488 16.591 16.668 16.778 16.871 16.978 17.081 17.206 17.301 17.401 17.493 17.598 17.736 17.861 18.003 18.076 18.218 18.278 18.403 18.513 18.643 18.761 18.843 18.936 19.053 19.136 19.236 19.333 19.436 19.503 19.601 19.716 19.783 19.841 19.911 19.983 20.071 20.148 20.213 20.281 20.368 20.451 20.526 20.596 20.698 20.726 20.806 20.891 20.976 21.011 21.106 21.186 21.286 21.331 21.433 21.538 21.586 21.691 21.718 21.798 21.851 21.943 21.996 22.083 22.133 22.253 22.321 22.411 22.513 22.583 22.686 22.723 22.853 22.941 23.023 23.113 23.228 23.318 23.383 23.481 23.556 23.631 23.791 23.873 23.931 24.051 24.108 24.181 24.238 24.306 24.406 24.448 24.528 24.646 24.741 24.818 24.846 24.918 24.993 25.038 25.146 25.223 25.278 25.368 25.446 25.538 25.628 25.706 25.801 25.901 25.943 26.021 26.098 26.141 26.163 26.281 26.326 26.366 26.393 26.518 26.503 26.568 26.636 26.696 26.701 26.801 26.871 26.938 27.003 27.083 27.188 27.248 27.318 27.348 27.453 27.533 27.618 27.696 27.766 27.823 27.876 27.878 27.936 27.943 27.926 27.823 27.808 28.578 30.313 29.538 28.738 28.748 28.718 28.768 28.821 28.921 28.951 29.021 29.083 29.166 29.203 29.298 29.316 29.386 29.431 29.493 29.556 29.623 29.693 29.778 29.868 29.883 29.953 30.018 30.066 30.146 30.148 30.183 30.238 30.223 30.271 30.321 30.358 30.448 30.528 30.591 30.626 30.651 30.716 30.736 30.808 30.868 30.951 30.973 31.023 31.056 31.101 31.131 31.166 31.218 31.273 31.298 31.323 31.356 31.416 31.438 31.461 31.508 31.558 31.623 31.578 31.596 31.653
9.459 9.469 9.519 9.519 9.506 9.526 9.519 9.529 9.529 9.511 9.546 9.539 9.539 9.544 9.531 9.551 9.579 9.559 9.586 9.621 9.626 9.649 9.719 9.744 9.784 9.831 9.874 9.944 9.989 10.004 10.006 10.036 10.059 10.056 10.046 10.049 10.044 10.089 10.083 10.079 10.083 10.104 10.069 10.091 10.056 10.121 10.641 11.536 12.121 11.926 10.826 10.471 10.484 10.524 10.546 10.503 10.464 10.454 10.481 10.486 10.498 10.576 11.006 11.769 12.118 11.946 11.376 10.924 10.876 10.849 10.861 10.878 10.944 10.941 10.944 10.981 11.044 11.041 11.038 11.064 11.088 11.086 11.098 11.103 11.088 11.136 11.171 11.156 11.171 11.168 11.158 11.161 11.156 11.133 11.153 11.153 11.146 11.141 11.15 11.278 11.359 11.386 11.437 11.47 11.521 11.565 11.505 11.575 11.664 11.76 11.789 11.815 11.86 11.858 11.891 11.926 11.988 12.023 12.018 12.076 12.111 12.148 12.161 12.211 12.201 12.233 12.221 12.273 12.263 12.321 12.381 12.508 13.773 13.008 12.886 12.826 12.841 12.758 12.913 13.128 13.318 13.941 15.748 13.533 13.361 13.428 13.288 13.086 13.091 14.766 16.153 13.253 12.448 13.731 15.758 14.366 13.603 15.381 16.361 16.323 14.576 14.608 15.931 16.378 16.348 16.618 16.733 17.541 17.796 17.703 17.616 17.423 17.323 16.821 14.553 14.601 14.378 14.183 13.701 13.643 13.581 14.113 14.578 14.521 14.393 14.258 14.151 14.153 14.236 14.313 14.386 14.456 14.476 14.521 14.568 14.616 14.691 14.748 14.833 14.901 14.981 15.038 15.118 15.188 15.278 15.338 15.436 15.543 15.636 15.698 15.778 15.863 15.931 16.031 16.123 16.206 16.321 16.433 16.501 16.611 16.728 16.813 16.923 17.006 17.113 17.191 17.326 17.451 17.571 17.703 17.813 17.891 17.983 18.098 18.213 18.321 18.433 18.531 18.626 18.708 18.808 18.901 19.038 19.121 19.198 19.303 19.378 19.448 19.536 19.638 19.678 19.753 19.831 19.908 20.008 20.088 20.166 20.233 20.246 20.346 20.413 20.458 20.573 20.633 20.698 20.756 20.848 20.923 21.013 21.128 21.223 21.291 21.368 21.416 21.476 21.511 21.561 21.653 21.738 21.771 21.883 21.961 22.036 22.146 22.206 22.298 22.338 22.458 22.548 22.676 22.768 22.876 22.933 23.013 23.108 23.226 23.293 23.408 23.498 23.558 23.676 23.746 23.803 23.846 23.936 24.023 24.073 24.161 24.266 24.346 24.431 24.466 24.533 24.611 24.683 24.773 24.853 24.946 25.018 25.073 25.191 25.253 25.326 25.438 25.536 25.591 25.651 25.746 25.788 25.846 25.921 25.953 26.013 26.078 26.153 26.171 26.243 26.303 26.341 26.386 26.491 26.563 26.628 26.708 26.763 26.828 26.891 26.978 26.981 27.101 27.183 27.266 27.336 27.406 27.471 27.506 27.546 27.591 27.621 27.618 27.533 27.456 27.963 29.646 29.286 28.378 28.431 28.368 28.423 28.468 28.546 28.586 28.663 28.721 28.798 28.821 28.916 28.951 28.988 29.038 29.133 29.168 29.246 29.313 29.401 29.451 29.518 29.588 29.638 29.716 29.791 29.821 29.818 29.866 29.853 29.931 30.001 30.021 30.093 30.133 30.181 30.216 30.296 30.361 30.391 30.438 30.496 30.536 30.561 30.638 30.673 30.736 30.793 30.801 30.833 30.833 30.908 30.946 30.996 31.043 31.121 31.123 31.143 31.206 31.241 31.273 31.281 31.286
9.436 9.449 9.474 9.474 9.494 9.484 9.471 9.474 9.501 9.499 9.489 9.519 9.516 9.516 9.461 9.499 9.534 9.534 9.549 9.559 9.579 9.656 9.666 9.699 9.771 9.784 9.846 9.886 9.921 9.914 9.926 9.964 9.969 9.981 9.966 9.946 9.958 10.038 10.066 10.066 10.086 10.096 10.114 10.111 10.099 10.094 10.079 10.046 10.306 11.123 12.299 12.034 11.024 10.524 10.484 10.506 10.476 10.451 10.416 10.446 10.466 10.484 10.456 10.519 11.006 11.893 12.374 12.066 11.236 10.789 10.806 10.846 10.846 10.866 10.876 10.924 10.983 10.951 10.976 10.974 11.008 11.058 11.056 11.063 11.036 11.083 11.106 11.103 11.098 11.083 11.093 11.106 11.073 11.031 11.038 11.071 11.098 11.106 11.135 11.215 11.29 11.336 11.378 11.414 11.466 11.46 11.43 11.536 11.629 11.686 11.744 11.786 11.786 11.8 11.789 11.866 11.893 11.943 11.973 11.978 12.023 12.053 12.051 12.063 12.066 12.116 12.103 12.133 12.148 12.218 12.276 12.343 12.648 12.696 12.666 13.981 14.971 12.856 12.708 12.753 12.843 13.098 13.238 13.291 13.283 13.161 12.973 12.968 13.008 14.993 15.836 12.793 12.348 14.838 15.688 13.571 13.483 16.143 17.156 17.086 15.641 13.463 13.216 13.576 13.668 13.906 14.598 17.503 17.948 18.068 18.131 18.101 18.096 17.486 16.761 16.656 16.496 16.448 16.261 16.068 15.441 15.148 14.391 14.368 14.383 14.218 14.338 14.181 14.186 14.121 14.196 14.271 14.338 14.363 14.358 14.461 14.498 14.561 14.596 14.708 14.801 14.848 14.936 15.011 15.056 15.161 15.211 15.321 15.396 15.483 15.566 15.638 15.708 15.801 15.863 15.971 16.093 16.156 16.246 16.358 16.493 16.558 16.653 16.741 16.848 16.968 17.073 17.158 17.273 17.393 17.473 17.581 17.701 17.806 17.898 18.008 18.141 18.208 18.308 18.386 18.488 18.601 18.716 18.818 18.908 19.013 19.093 19.131 19.236 19.318 19.366 19.423 19.506 19.591 19.688 19.751 19.843 19.886 19.958 20.018 20.083 20.168 20.238 20.313 20.373 20.471 20.536 20.611 20.716 20.788 20.868 20.946 20.988 21.028 21.106 21.176 21.248 21.296 21.366 21.471 21.491 21.608 21.656 21.748 21.838 21.941 21.996 22.128 22.228 22.323 22.441 22.493 22.576 22.671 22.731 22.881 22.968 23.073 23.158 23.243 23.358 23.451 23.478 23.528 23.591 23.678 23.708 23.838 23.888 23.968 24.061 24.108 24.156 24.258 24.308 24.398 24.491 24.556 24.628 24.706 24.803 24.888 24.978 25.066 25.168 25.266 25.293 25.383 25.413 25.488 25.533 25.591 25.638 25.706 25.771 25.833 25.926 25.968 26.023 26.038 26.123 26.183 26.256 26.356 26.423 26.491 26.543 26.646 26.698 26.793 26.886 26.911 26.978 27.033 27.071 27.136 27.196 27.261 27.281 27.298 27.203 27.091 27.293 29.353 29.301 28.038 28.076 27.998 28.043 28.128 28.166 28.241 28.296 28.378 28.426 28.478 28.523 28.593 28.626 28.658 28.753 28.778 28.881 28.941 29.016 29.083 29.151 29.216 29.293 29.343 29.393 29.406 29.436 29.458 29.548 29.586 29.588 29.646 29.691 29.746 29.826 29.873 29.961 29.976 30.016 30.043 30.131 30.161 30.198 30.281 30.271 30.326 30.351 30.363 30.436 30.493 30.523 30.593 30.656 30.681 30.748 30.776 30.798 30.826 30.846 30.873 30.898 30.903
9.374 9.404 9.426 9.446 9.446 9.436 9.441 9.456 9.471 9.464 9.471 9.474 9.461 9.456 9.431 9.446 9.471 9.501 9.534 9.551 9.569 9.609 9.634 9.664 9.691 9.729 9.781 9.851 9.841 9.846 9.884 9.906 9.913 9.884 9.864 9.849 9.884 9.939 9.996 10.034 10.049 10.074 10.116 10.106 10.094 10.104 10.101 10.089 10.059 10.024 10.144 11.668 12.536 12.208 10.908 10.454 10.439 10.464 10.479 10.434 10.429 10.456 10.451 10.486 10.464 10.479 11.071 12.956 13.651 12.196 11.016 10.781 10.794 10.794 10.829 10.846 10.896 10.909 10.903 10.896 10.921 10.976 10.971 10.978 11.016 11.046 11.046 11.056 11.033 11.046 11.028 11.001 10.976 10.956 10.976 10.999 11.029 11.045 11.122 11.193 11.223 11.269 11.304 11.351 11.394 11.345 11.352 11.519 11.578 11.624 11.695 11.732 11.771 11.776 11.765 11.818 11.853 11.868 11.888 11.911 11.933 11.936 11.986 12.006 12.008 12.046 12.048 12.038 12.051 12.126 12.181 12.288 12.356 12.416 12.488 12.963 14.321 12.931 13.506 13.846 13.083 12.728 12.808 12.871 12.876 12.883 12.966 12.923 13.421 15.616 15.261 12.418 12.481 15.251 15.828 13.066 14.433 16.283 17.253 16.981 15.986 14.208 13.213 13.113 13.243 13.471 13.341 15.918 16.963 17.068 17.208 17.341 17.451 17.668 17.671 17.516 17.511 17.431 17.266 17.171 17.023 16.736 13.801 14.538 14.303 13.721 13.953 14.301 14.293 14.258 14.116 14.123 14.166 14.201 14.248 14.291 14.356 14.423 14.456 14.508 14.561 14.608 14.731 14.816 14.891 14.981 15.058 15.131 15.193 15.253 15.323 15.423 15.503 15.576 15.636 15.761 15.836 15.908 16.013 16.103 16.196 16.301 16.398 16.451 16.566 16.676 16.751 16.881 16.988 17.086 17.176 17.291 17.401 17.491 17.611 17.716 17.813 17.901 17.998 18.088 18.191 18.316 18.393 18.488 18.601 18.656 18.748 18.836 18.903 18.996 19.051 19.133 19.213 19.278 19.356 19.443 19.498 19.566 19.643 19.698 19.771 19.868 19.923 19.998 20.073 20.188 20.191 20.283 20.356 20.438 20.538 20.596 20.651 20.746 20.773 20.826 20.893 20.953 21.016 21.126 21.183 21.271 21.336 21.458 21.521 21.608 21.656 21.776 21.858 21.986 22.056 22.161 22.208 22.306 22.351 22.486 22.591 22.708 22.828 22.938 22.946 23.046 23.106 23.218 23.253 23.298 23.361 23.451 23.543 23.643 23.686 23.781 23.826 23.873 23.936 24.046 24.108 24.191 24.276 24.366 24.473 24.536 24.656 24.723 24.793 24.883 24.973 25.001 25.081 25.153 25.173 25.263 25.276 25.353 25.418 25.496 25.551 25.608 25.651 25.693 25.771 25.848 25.911 26.008 26.091 26.151 26.231 26.288 26.333 26.401 26.486 26.536 26.621 26.681 26.748 26.826 26.853 26.913 26.908 26.921 26.796 26.736 26.826 28.461 29.106 27.666 27.668 27.658 27.691 27.803 27.843 27.923 27.961 28.013 28.078 28.076 28.176 28.241 28.266 28.318 28.383 28.416 28.493 28.543 28.648 28.728 28.756 28.863 28.903 28.928 28.983 29.018 29.066 29.131 29.176 29.191 29.211 29.236 29.293 29.348 29.438 29.498 29.566 29.606 29.633 29.666 29.726 29.763 29.851 29.871 29.886 29.928 29.988 29.991 30.036 30.161 30.153 30.226 30.281 30.301 30.346 30.413 30.428 30.456 30.491 30.536 30.586 30.583
9.316 9.354 9.379 9.369 9.371 9.364 9.384 9.404 9.421 9.411 9.434 9.424 9.426 9.394 9.379 9.419 9.479 9.446 9.461 9.501 9.559 9.564 9.584 9.636 9.644 9.674 9.751 9.764 9.746 9.766 9.796 9.821 9.833 9.794 9.781 9.799 9.846 9.881 9.921 9.941 9.984 10.036 10.083 10.076 10.071 10.079 10.099 10.104 10.073 10.049 10.014 10.066 10.291 11.438 12.579 11.921 10.866 10.444 10.389 10.448 10.466 10.479 10.416 10.386 10.403 10.521 10.453 11.186 12.801 13.156 12.161 11.493 10.961 10.733 10.793 10.811 10.844 10.844 10.866 10.881 10.868 10.903 10.911 10.921 10.953 10.991 10.986 10.978 10.946 10.958 10.953 10.921 10.873 10.871 10.894 10.954 10.967 10.992 11.087 11.144 11.175 11.215 11.242 11.277 11.299 11.236 11.3 11.423 11.507 11.545 11.631 11.692 11.742 11.753 11.776 11.811 11.808 11.818 11.841 11.823 11.863 11.873 11.873 11.898 11.936 11.913 11.933 11.953 11.991 12.036 12.113 12.158 12.256 12.323 12.411 12.461 12.543 12.843 14.468 14.508 13.658 13.373 12.816 12.788 12.791 12.863 12.896 12.921 13.476 15.598 15.331 12.318 12.523 16.351 16.586 13.488 15.068 16.363 17.266 16.868 15.816 13.456 13.183 13.186 13.198 13.166 13.198 14.183 15.326 15.511 16.123 16.218 16.201 17.381 17.473 17.488 17.646 17.681 17.813 17.861 17.886 17.823 13.318 13.791 13.493 13.511 13.346 13.386 13.843 14.266 14.303 14.301 14.063 14.018 14.041 14.116 14.193 14.253 14.311 14.351 14.393 14.441 14.488 14.601 14.686 14.796 14.886 14.971 14.993 15.078 15.126 15.236 15.316 15.373 15.431 15.523 15.588 15.678 15.781 15.883 15.981 16.081 16.168 16.228 16.318 16.393 16.536 16.608 16.716 16.788 16.928 17.016 17.141 17.238 17.346 17.458 17.553 17.596 17.681 17.798 17.898 18.013 18.068 18.208 18.288 18.363 18.436 18.526 18.581 18.673 18.748 18.823 18.881 18.946 19.051 19.126 19.183 19.278 19.343 19.373 19.476 19.543 19.591 19.703 19.753 19.826 19.898 19.981 20.038 20.126 20.218 20.261 20.333 20.391 20.441 20.498 20.588 20.656 20.736 20.796 20.853 20.946 21.021 21.093 21.193 21.263 21.341 21.393 21.513 21.611 21.693 21.808 21.878 21.953 22.006 22.141 22.236 22.331 22.436 22.508 22.601 22.668 22.733 22.788 22.811 22.946 22.973 23.091 23.168 23.251 23.371 23.453 23.518 23.581 23.628 23.728 23.783 23.871 23.938 24.003 24.113 24.176 24.303 24.338 24.436 24.548 24.573 24.673 24.718 24.763 24.813 24.881 24.971 25.016 25.088 25.138 25.188 25.241 25.326 25.366 25.428 25.516 25.591 25.656 25.758 25.806 25.883 25.933 25.991 26.033 26.148 26.223 26.278 26.341 26.406 26.458 26.518 26.558 26.598 26.581 26.486 26.446 26.413 28.228 28.721 27.321 27.318 27.303 27.328 27.426 27.461 27.521 27.608 27.626 27.701 27.743 27.806 27.851 27.886 27.926 27.988 28.051 28.108 28.213 28.293 28.311 28.388 28.473 28.526 28.561 28.623 28.653 28.686 28.708 28.763 28.801 28.896 28.873 28.966 28.968 29.076 29.123 29.181 29.203 29.283 29.328 29.391 29.411 29.453 29.463 29.508 29.556 29.603 29.638 29.691 29.768 29.773 29.831 29.853 29.938 30.008 30.036 30.036 30.101 30.138 30.146 30.153 30.228
9.269 9.319 9.326 9.324 9.334 9.324 9.346 9.339 9.356 9.354 9.369 9.369 9.344 9.346 9.354 9.396 9.454 9.429 9.396 9.474 9.511 9.514 9.579 9.559 9.579 9.644 9.671 9.711 9.694 9.731 9.753 9.779 9.786 9.741 9.714 9.756 9.819 9.826 9.849 9.886 9.931 9.969 9.988 10.006 10.041 10.031 10.061 10.091 10.096 10.104 10.081 10.036 10.081 10.134 10.349 11.616 12.111 11.516 10.873 10.464 10.461 10.493 10.458 10.391 10.384 10.431 10.424 10.536 10.469 10.436 11.248 11.929 11.858 11.386 10.736 10.781 10.796 10.799 10.788 10.839 10.853 10.851 10.826 10.876 10.898 10.911 10.906 10.906 10.911 10.896 10.873 10.831 10.773 10.808 10.828 10.901 10.912 10.975 11.044 11.1 11.13 11.149 11.178 11.214 11.198 11.148 11.284 11.357 11.428 11.492 11.546 11.625 11.655 11.681 11.716 11.761 11.783 11.806 11.771 11.796 11.783 11.743 11.808 11.808 11.808 11.811 11.838 11.856 11.876 11.948 12.008 12.068 12.153 12.203 12.313 12.383 12.441 12.451 12.733 13.126 13.886 13.736 13.136 12.781 13.716 12.818 12.831 12.841 13.276 15.263 14.913 12.401 12.686 16.258 16.008 13.558 14.883 16.408 17.336 16.771 15.788 13.408 13.101 13.066 13.061 13.058 13.111 13.171 13.206 13.341 13.841 13.838 14.393 15.836 16.286 16.498 16.608 16.773 16.846 16.998 17.146 16.791 13.258 13.091 13.423 12.996 12.993 14.368 14.191 13.381 15.693 16.361 14.416 14.976 14.426 14.091 13.993 14.106 14.143 14.208 14.278 14.321 14.338 14.433 14.466 14.571 14.658 14.758 14.843 14.893 14.968 15.053 15.093 15.201 15.238 15.278 15.388 15.498 15.593 15.656 15.853 15.836 15.946 15.991 16.076 16.146 16.238 16.351 16.443 16.521 16.626 16.736 16.843 16.958 17.096 17.158 17.221 17.321 17.426 17.508 17.618 17.696 17.811 17.911 17.973 18.063 18.148 18.213 18.338 18.386 18.441 18.513 18.603 18.661 18.753 18.803 18.858 18.941 19.001 19.098 19.156 19.221 19.281 19.383 19.436 19.516 19.571 19.648 19.711 19.793 19.888 19.966 20.011 20.076 20.116 20.173 20.226 20.283 20.366 20.428 20.486 20.586 20.656 20.731 20.861 20.896 21.023 21.036 21.183 21.253 21.341 21.426 21.541 21.616 21.696 21.781 21.891 21.986 22.093 22.163 22.263 22.346 22.406 22.448 22.513 22.551 22.633 22.706 22.801 22.908 22.993 23.063 23.141 23.186 23.271 23.353 23.426 23.483 23.576 23.661 23.751 23.811 23.928 23.976 24.081 24.163 24.216 24.301 24.381 24.423 24.468 24.556 24.641 24.663 24.738 24.788 24.858 24.921 24.968 25.051 25.101 25.173 25.276 25.316 25.376 25.433 25.513 25.571 25.633 25.703 25.828 25.868 25.926 25.976 26.051 26.096 26.138 26.196 26.233 26.253 26.201 26.091 26.061 27.843 28.701 27.116 26.966 26.966 26.981 27.043 27.071 27.146 27.216 27.256 27.321 27.368 27.431 27.473 27.498 27.561 27.638 27.701 27.728 27.798 27.883 27.918 28.003 28.108 28.111 28.138 28.266 28.251 28.318 28.366 28.378 28.433 28.491 28.548 28.553 28.596 28.666 28.761 28.768 28.858 28.946 28.941 28.986 29.053 29.046 29.108 29.143 29.208 29.261 29.273 29.308 29.358 29.406 29.491 29.548 29.556 29.616 29.676 29.668 29.731 29.778 29.761 29.743 29.793
9.216 9.259 9.281 9.286 9.269 9.291 9.309 9.319 9.314 9.299 9.319 9.351 9.319 9.309 9.339 9.376 9.416 9.404 9.399 9.449 9.501 9.506 9.534 9.504 9.546 9.574 9.614 9.626 9.654 9.699 9.719 9.748 9.739 9.706 9.689 9.743 9.781 9.804 9.796 9.804 9.866 9.918 9.916 9.921 9.946 9.971 10.019 10.036 10.051 10.046 10.059 10.071 10.059 10.071 10.083 10.079 10.411 10.864 11.759 11.821 11.329 10.446 10.426 10.456 10.449 10.419 10.413 10.421 10.469 10.509 10.456 10.451 12.823 12.761 11.458 11.071 10.784 10.779 10.774 10.788 10.798 10.813 10.786 10.801 10.821 10.841 10.833 10.836 10.831 10.811 10.808 10.778 10.751 10.747 10.778 10.819 10.851 10.91 10.984 11.049 11.068 11.065 11.106 11.159 11.111 11.111 11.206 11.295 11.345 11.407 11.485 11.54 11.558 11.611 11.653 11.686 11.698 11.726 11.713 11.738 11.698 11.688 11.733 11.711 11.748 11.753 11.776 11.808 11.806 11.838 11.953 12.026 12.101 12.158 12.238 12.291 12.316 12.376 12.398 12.451 12.461 12.696 12.853 14.921 15.571 12.748 12.773 12.748 13.298 15.363 13.823 12.236 12.928 16.008 14.283 12.913 14.601 16.566 17.351 16.678 14.711 12.903 12.968 12.973 12.973 12.983 13.033 13.066 13.078 13.181 13.303 13.361 13.321 13.573 13.596 13.473 14.418 15.688 15.388 15.536 15.436 14.786 13.073 13.111 15.526 15.766 15.986 15.473 14.191 13.753 17.321 16.971 14.526 16.041 15.458 15.176 14.451 14.136 13.988 14.061 14.096 14.138 14.201 14.258 14.326 14.383 14.436 14.521 14.626 14.708 14.793 14.908 14.946 15.026 15.106 15.121 15.211 15.273 15.351 15.456 15.563 15.633 15.718 15.766 15.851 15.916 16.021 16.096 16.171 16.253 16.368 16.498 16.576 16.686 16.766 16.876 16.943 17.061 17.108 17.223 17.333 17.421 17.506 17.628 17.693 17.748 17.831 17.901 18.018 18.073 18.143 18.201 18.293 18.348 18.433 18.506 18.571 18.636 18.706 18.768 18.861 18.931 19.003 19.038 19.123 19.183 19.238 19.336 19.423 19.496 19.556 19.631 19.688 19.751 19.791 19.853 19.873 19.968 20.038 20.111 20.173 20.258 20.326 20.393 20.491 20.553 20.663 20.716 20.831 20.913 21.011 21.071 21.211 21.296 21.366 21.421 21.558 21.618 21.748 21.793 21.931 21.973 22.058 22.098 22.173 22.196 22.326 22.398 22.448 22.536 22.653 22.736 22.771 22.868 22.913 22.996 23.061 23.163 23.201 23.293 23.403 23.466 23.566 23.621 23.726 23.821 23.888 23.971 24.046 24.113 24.138 24.198 24.286 24.326 24.353 24.428 24.513 24.561 24.638 24.701 24.758 24.813 24.866 24.946 25.026 25.106 25.141 25.238 25.338 25.378 25.396 25.508 25.578 25.626 25.723 25.726 25.803 25.881 25.943 25.913 25.863 25.758 25.723 27.216 28.391 26.623 26.643 26.633 26.596 26.666 26.718 26.791 26.856 26.901 26.931 26.966 27.061 27.078 27.141 27.186 27.278 27.301 27.351 27.423 27.523 27.548 27.601 27.706 27.733 27.793 27.848 27.891 27.928 27.948 28.013 28.103 28.103 28.153 28.193 28.278 28.291 28.388 28.401 28.456 28.496 28.538 28.593 28.623 28.713 28.738 28.778 28.796 28.826 28.873 28.931 29.003 29.048 29.146 29.156 29.183 29.186 29.266 29.281 29.311 29.373 29.383 29.403 29.433
9.236 9.221 9.241 9.221 9.209 9.239 9.239 9.244 9.244 9.289 9.299 9.261 9.284 9.289 9.314 9.354 9.381 9.366 9.384 9.429 9.461 9.501 9.499 9.471 9.494 9.534 9.546 9.576 9.589 9.639 9.689 9.714 9.661 9.649 9.666 9.711 9.731 9.756 9.746 9.753 9.801 9.814 9.861 9.869 9.841 9.901 9.958 9.991 10.024 9.998 10.021 10.024 10.029 10.028 10.071 10.079 10.071 10.029 10.219 10.939 12.226 11.591 11.396 10.424 10.386 10.394 10.441 10.424 10.429 10.366 10.464 10.531 10.611 10.679 11.283 12.051 11.676 11.311 10.801 10.776 10.766 10.751 10.763 10.783 10.778 10.786 10.753 10.758 10.753 10.746 10.716 10.693 10.683 10.711 10.758 10.748 10.825 10.893 10.953 10.977 10.99 11.038 11.063 11.072 11.023 11.048 11.156 11.219 11.255 11.318 11.394 11.423 11.428 11.511 11.573 11.586 11.626 11.638 11.666 11.693 11.663 11.683 11.626 11.673 11.666 11.671 11.691 11.721 11.751 11.806 11.853 11.938 11.991 12.066 12.131 12.158 12.221 12.251 12.271 12.336 12.376 12.391 12.513 13.298 13.563 12.718 12.676 12.648 14.288 15.073 12.823 11.981 12.916 14.063 14.548 13.693 15.313 16.563 17.306 16.651 15.333 13.303 13.066 13.713 15.671 13.086 12.996 12.973 12.991 13.083 13.111 13.133 13.668 13.106 13.141 13.333 13.313 13.353 13.283 13.373 13.198 13.041 12.948 14.081 16.003 17.031 17.128 16.271 15.296 14.723 13.966 14.366 13.568 15.388 15.378 15.791 15.513 14.791 14.456 13.961 13.963 14.016 14.051 14.103 14.123 14.216 14.288 14.353 14.421 14.511 14.613 14.681 14.761 14.866 14.886 14.928 15.003 15.101 15.176 15.228 15.336 15.406 15.496 15.546 15.601 15.696 15.763 15.858 15.948 16.033 16.146 16.223 16.328 16.433 16.536 16.576 16.663 16.761 16.856 16.961 17.041 17.128 17.246 17.313 17.386 17.468 17.546 17.641 17.698 17.766 17.838 17.901 17.993 18.081 18.138 18.256 18.298 18.343 18.418 18.468 18.533 18.618 18.663 18.716 18.811 18.858 18.938 19.023 19.093 19.178 19.216 19.313 19.391 19.418 19.471 19.536 19.613 19.671 19.703 19.803 19.868 19.941 19.998 20.051 20.163 20.211 20.321 20.368 20.501 20.553 20.683 20.751 20.838 20.926 20.978 21.091 21.216 21.301 21.396 21.473 21.548 21.656 21.703 21.733 21.808 21.888 21.963 22.043 22.113 22.216 22.331 22.383 22.461 22.536 22.591 22.661 22.723 22.811 22.838 22.966 23.086 23.158 23.231 23.316 23.393 23.466 23.563 23.603 23.698 23.756 23.763 23.901 23.966 23.991 24.068 24.123 24.183 24.216 24.273 24.346 24.393 24.481 24.518 24.628 24.688 24.763 24.836 24.881 24.978 25.018 25.023 25.138 25.198 25.266 25.348 25.408 25.471 25.553 25.561 25.578 25.548 25.451 25.393 26.423 28.016 26.423 26.273 26.281 26.258 26.313 26.366 26.413 26.471 26.508 26.561 26.588 26.638 26.713 26.783 26.808 26.893 26.941 26.973 27.041 27.116 27.231 27.266 27.293 27.388 27.426 27.508 27.536 27.586 27.623 27.631 27.716 27.751 27.766 27.891 27.918 27.913 28.018 28.041 28.076 28.141 28.211 28.258 28.303 28.321 28.373 28.361 28.408 28.443 28.516 28.526 28.588 28.636 28.688 28.758 28.793 28.846 28.866 28.961 29.006 28.976 29.056 29.056 29.031
9.199 9.229 9.191 9.179 9.169 9.176 9.214 9.221 9.199 9.254 9.246 9.256 9.231 9.259 9.314 9.356 9.336 9.296 9.369 9.419 9.446 9.456 9.444 9.441 9.471 9.484 9.499 9.511 9.541 9.599 9.634 9.646 9.639 9.621 9.663 9.679 9.696 9.684 9.699 9.716 9.751 9.769 9.804 9.774 9.786 9.829 9.876 9.929 9.936 9.924 9.951 9.999 10.006 10.009 10.026 10.034 10.059 10.064 10.029 9.998 10.346 10.871 12.909 11.464 10.679 10.439 10.406 10.409 10.458 10.411 10.391 10.413 10.446 10.546 10.446 10.546 11.376 12.158 11.493 10.891 10.683 10.713 10.733 10.711 10.726 10.728 10.703 10.703 10.683 10.668 10.631 10.599 10.617 10.668 10.716 10.763 10.788 10.844 10.882 10.9 10.931 10.971 11.008 11.017 10.955 11.019 11.119 11.174 11.242 11.297 11.331 11.356 11.378 11.428 11.478 11.526 11.533 11.571 11.601 11.628 11.606 11.586 11.611 11.601 11.656 11.648 11.668 11.668 11.663 11.733 11.786 11.861 11.941 11.991 12.033 12.048 12.118 12.136 12.176 12.233 12.256 12.276 12.388 12.406 12.543 12.583 12.608 12.633 14.741 15.143 12.726 11.906 12.988 13.813 12.856 13.756 15.233 16.291 17.261 16.673 15.661 14.178 12.756 14.026 15.373 12.863 12.876 12.903 12.878 12.963 13.251 13.038 13.338 12.946 13.108 13.073 13.043 13.081 13.028 12.971 13.143 12.911 12.898 13.986 16.101 17.148 17.133 16.151 14.173 13.033 13.083 12.983 13.148 13.138 13.961 14.578 16.461 16.541 15.961 15.461 14.336 13.981 13.908 13.961 13.998 14.048 14.131 14.211 14.283 14.378 14.438 14.496 14.571 14.643 14.693 14.746 14.853 14.931 14.976 15.083 15.168 15.246 15.296 15.341 15.403 15.473 15.556 15.628 15.703 15.793 15.873 15.971 16.083 16.156 16.246 16.338 16.401 16.511 16.583 16.701 16.766 16.853 16.928 17.043 17.121 17.173 17.263 17.346 17.423 17.486 17.543 17.626 17.731 17.778 17.831 17.918 18.001 18.041 18.113 18.181 18.221 18.293 18.353 18.418 18.471 18.553 18.633 18.698 18.763 18.873 18.961 19.003 19.053 19.091 19.168 19.186 19.251 19.336 19.381 19.448 19.528 19.568 19.686 19.723 19.816 19.861 19.971 20.033 20.173 20.246 20.356 20.421 20.543 20.611 20.671 20.746 20.871 20.963 21.073 21.093 21.211 21.316 21.381 21.426 21.491 21.538 21.591 21.656 21.758 21.848 21.986 22.043 22.123 22.176 22.241 22.306 22.386 22.463 22.546 22.641 22.733 22.821 22.893 22.986 23.036 23.118 23.181 23.256 23.338 23.441 23.481 23.528 23.578 23.641 23.691 23.766 23.816 23.886 23.938 23.968 24.056 24.136 24.238 24.276 24.346 24.413 24.463 24.521 24.596 24.651 24.701 24.808 24.903 24.946 24.993 25.051 25.121 25.166 25.213 25.223 25.171 25.103 25.063 25.601 27.146 26.283 25.918 25.918 25.921 25.976 25.951 26.058 26.048 26.146 26.178 26.258 26.278 26.356 26.423 26.451 26.506 26.566 26.636 26.718 26.711 26.833 26.868 26.928 26.993 27.046 27.128 27.168 27.226 27.206 27.261 27.341 27.381 27.411 27.498 27.546 27.538 27.631 27.663 27.688 27.766 27.826 27.843 27.851 27.938 27.958 28.016 28.063 28.071 28.118 28.148 28.181 28.223 28.306 28.366 28.416 28.501 28.508 28.558 28.578 28.611 28.658 28.648 28.641
9.124 9.161 9.134 9.114 9.124 9.126 9.174 9.169 9.206 9.186 9.204 9.221 9.249 9.254 9.314 9.314 9.291 9.289 9.339 9.401 9.421 9.411 9.386 9.399 9.444 9.426 9.436 9.456 9.474 9.546 9.571 9.601 9.566 9.573 9.609 9.663 9.653 9.639 9.646 9.691 9.726 9.729 9.714 9.719 9.766 9.801 9.801 9.856 9.846 9.869 9.909 9.958 9.979 9.981 10.003 9.983 10.014 10.056 10.049 10.028 9.969 9.946 10.546 10.993 11.106 11.564 10.656 10.429 10.429 10.401 10.411 10.389 10.366 10.401 10.481 10.479 10.394 10.729 11.944 12.436 11.646 11.143 10.738 10.676 10.678 10.651 10.653 10.621 10.626 10.601 10.556 10.538 10.577 10.603 10.63 10.69 10.761 10.797 10.834 10.865 10.889 10.928 10.945 10.91 10.922 11.014 11.068 11.131 11.19 11.253 11.268 11.331 11.348 11.413 11.406 11.448 11.488 11.518 11.528 11.546 11.531 11.543 11.563 11.593 11.613 11.636 11.666 11.668 11.633 11.681 11.723 11.788 11.843 11.916 11.973 12.001 11.988 12.021 12.071 12.143 12.173 12.198 12.253 12.296 12.326 12.378 12.566 12.578 15.138 14.323 12.121 11.811 12.643 13.576 12.786 13.248 15.373 16.403 17.268 16.561 15.571 13.941 12.631 12.773 13.493 12.898 13.058 12.866 12.803 12.961 12.956 12.926 12.973 13.103 13.573 13.186 12.916 12.918 12.901 12.941 13.103 12.951 12.893 14.626 16.178 17.213 17.148 16.113 14.898 13.741 13.336 13.948 13.681 13.531 13.183 13.123 15.378 16.633 16.016 15.931 15.418 15.106 15.023 14.186 13.936 13.941 13.968 14.048 14.126 14.201 14.258 14.328 14.371 14.433 14.511 14.596 14.686 14.758 14.828 14.921 14.991 15.041 15.053 15.146 15.176 15.283 15.346 15.426 15.498 15.593 15.646 15.738 15.836 15.926 15.993 16.093 16.156 16.261 16.336 16.436 16.518 16.588 16.688 16.748 16.841 16.906 16.996 17.048 17.143 17.198 17.261 17.341 17.418 17.471 17.566 17.618 17.696 17.731 17.816 17.883 17.933 17.988 18.061 18.138 18.166 18.233 18.313 18.393 18.448 18.558 18.611 18.681 18.718 18.788 18.841 18.873 18.958 18.996 19.048 19.131 19.216 19.261 19.346 19.408 19.496 19.546 19.686 19.758 19.866 19.933 20.013 20.128 20.218 20.291 20.361 20.461 20.543 20.626 20.746 20.763 20.878 20.968 21.033 21.068 21.168 21.203 21.306 21.363 21.446 21.506 21.598 21.703 21.771 21.811 21.898 21.943 22.016 22.111 22.208 22.296 22.383 22.471 22.546 22.618 22.691 22.783 22.821 22.921 22.983 23.068 23.158 23.211 23.248 23.283 23.336 23.416 23.466 23.521 23.593 23.636 23.751 23.783 23.893 23.916 24.001 24.081 24.138 24.198 24.248 24.343 24.398 24.428 24.493 24.561 24.616 24.661 24.763 24.811 24.858 24.891 24.876 24.791 24.703 24.878 26.426 26.138 25.563 25.571 25.548 25.588 25.591 25.686 25.701 25.741 25.768 25.863 25.918 25.968 26.041 26.071 26.148 26.201 26.258 26.323 26.376 26.471 26.543 26.573 26.656 26.676 26.721 26.801 26.828 26.841 26.906 26.966 27.021 27.021 27.121 27.116 27.206 27.236 27.283 27.343 27.363 27.428 27.478 27.491 27.531 27.581 27.623 27.691 27.713 27.688 27.763 27.763 27.836 27.923 28.001 28.026 28.063 28.098 28.151 28.166 28.216 28.268 28.263 28.273
9.094 9.116 9.091 9.099 9.081 9.096 9.101 9.134 9.134 9.174 9.191 9.169 9.199 9.239 9.299 9.256 9.251 9.244 9.296 9.366 9.359 9.346 9.326 9.359 9.389 9.386 9.386 9.406 9.474 9.514 9.544 9.528 9.544 9.554 9.581 9.614 9.621 9.606 9.606 9.626 9.686 9.691 9.679 9.691 9.749 9.746 9.774 9.776 9.814 9.823 9.846 9.889 9.936 9.939 9.934 9.974 9.981 10.011 10.021 10.001 9.929 9.844 9.829 10.003 10.314 11.086 11.941 11.411 10.644 10.386 10.376 10.376 10.391 10.411 10.346 10.314 10.416 10.441 10.381 10.576 11.723 12.243 12.163 11.356 10.831 10.606 10.613 10.573 10.553 10.544 10.53 10.509 10.53 10.555 10.593 10.653 10.687 10.769 10.796 10.81 10.805 10.854 10.855 10.813 10.823 10.955 11.019 11.063 11.109 11.183 11.198 11.258 11.301 11.341 11.381 11.378 11.408 11.433 11.466 11.481 11.471 11.476 11.531 11.531 11.598 11.603 11.641 11.658 11.681 11.653 11.663 11.731 11.768 11.841 11.883 11.908 11.898 11.941 11.946 11.988 12.046 12.051 12.128 12.201 12.213 12.236 12.271 12.276 15.056 14.006 11.818 11.741 12.616 13.886 13.403 14.463 15.531 16.566 17.303 16.466 15.353 12.916 13.051 13.076 13.026 12.816 12.738 12.776 12.808 12.811 12.781 12.811 12.816 12.788 12.823 12.823 12.831 12.858 12.798 12.881 13.131 12.828 13.243 15.316 16.263 17.191 17.051 16.021 15.181 14.623 13.176 14.426 14.031 15.116 14.851 13.438 13.403 13.951 14.376 14.991 15.536 16.248 15.491 15.273 14.841 14.341 13.886 13.968 13.991 14.048 14.088 14.136 14.243 14.296 14.318 14.443 14.506 14.573 14.651 14.753 14.831 14.873 14.906 14.961 15.018 15.056 15.156 15.231 15.281 15.368 15.451 15.521 15.586 15.683 15.766 15.856 15.918 16.001 16.061 16.163 16.238 16.306 16.346 16.438 16.516 16.618 16.691 16.788 16.851 16.906 16.966 17.033 17.096 17.186 17.266 17.316 17.411 17.481 17.518 17.581 17.671 17.703 17.781 17.831 17.893 17.933 18.001 18.076 18.156 18.236 18.326 18.368 18.408 18.478 18.511 18.556 18.613 18.701 18.728 18.806 18.896 18.961 19.003 19.091 19.171 19.241 19.353 19.406 19.498 19.588 19.708 19.783 19.873 19.981 20.033 20.106 20.221 20.283 20.408 20.468 20.536 20.623 20.728 20.756 20.821 20.901 20.966 21.058 21.146 21.213 21.268 21.383 21.458 21.483 21.548 21.638 21.701 21.768 21.838 21.948 22.043 22.133 22.196 22.283 22.358 22.458 22.533 22.611 22.631 22.738 22.803 22.853 22.858 22.933 22.996 23.076 23.141 23.181 23.293 23.313 23.398 23.436 23.498 23.563 23.613 23.706 23.766 23.843 23.898 23.983 24.043 24.078 24.168 24.206 24.291 24.363 24.406 24.463 24.508 24.556 24.511 24.418 24.366 24.488 26.446 25.708 25.211 25.198 25.191 25.216 25.271 25.291 25.328 25.396 25.441 25.493 25.556 25.626 25.666 25.698 25.798 25.856 25.878 25.951 25.981 26.091 26.168 26.203 26.281 26.331 26.386 26.421 26.473 26.486 26.581 26.586 26.636 26.631 26.711 26.783 26.826 26.901 26.908 26.941 26.968 27.021 27.073 27.093 27.131 27.173 27.203 27.261 27.316 27.336 27.361 27.391 27.463 27.516 27.563 27.626 27.658 27.706 27.771 27.816 27.831 27.866 27.898 27.881
9.086 9.069 9.056 9.056 9.074 9.081 9.076 9.086 9.109 9.121 9.111 9.136 9.139 9.199 9.251 9.206 9.189 9.219 9.279 9.314 9.296 9.306 9.289 9.301 9.349 9.359 9.376 9.384 9.461 9.496 9.519 9.496 9.489 9.493 9.559 9.586 9.554 9.561 9.583 9.611 9.616 9.611 9.616 9.676 9.704 9.714 9.733 9.731 9.741 9.764 9.796 9.833 9.856 9.859 9.886 9.901 9.916 9.924 9.996 9.983 9.874 9.776 9.761 9.851 10.269 11.531 12.386 12.134 11.634 11.036 10.514 10.378 10.396 10.554 10.374 10.356 10.293 10.324 10.451 10.446 10.443 10.821 12.018 12.058 11.801 11.158 10.696 10.521 10.499 10.469 10.478 10.476 10.498 10.514 10.542 10.583 10.644 10.718 10.721 10.746 10.769 10.8 10.793 10.736 10.833 10.93 10.983 11.029 11.096 11.143 11.178 11.186 11.221 11.273 11.328 11.386 11.373 11.368 11.366 11.371 11.391 11.451 11.471 11.523 11.568 11.576 11.616 11.621 11.636 11.633 11.656 11.688 11.751 11.781 11.811 11.823 11.803 11.873 11.881 11.891 11.923 11.961 12.041 12.081 12.096 12.158 12.171 12.343 14.486 13.983 11.701 11.811 13.346 13.588 12.908 14.088 15.603 16.651 17.208 16.366 15.206 12.891 13.113 12.893 12.926 12.806 12.751 12.746 12.791 12.761 12.796 12.733 12.778 12.843 13.391 13.573 13.311 12.876 12.871 13.371 13.038 12.826 12.993 15.251 16.383 17.223 16.953 15.923 15.133 14.771 13.456 13.878 13.378 13.423 13.761 13.338 13.136 13.241 13.558 14.278 15.793 16.128 15.656 15.371 15.441 15.141 14.648 14.476 13.936 13.966 14.026 14.071 14.158 14.196 14.216 14.286 14.373 14.436 14.491 14.573 14.616 14.703 14.763 14.801 14.858 14.903 14.963 15.023 15.098 15.178 15.236 15.291 15.363 15.433 15.546 15.603 15.671 15.738 15.836 15.888 15.973 16.036 16.101 16.173 16.288 16.331 16.408 16.506 16.601 16.643 16.723 16.776 16.831 16.928 16.988 17.068 17.143 17.166 17.251 17.333 17.388 17.403 17.493 17.526 17.591 17.656 17.726 17.796 17.871 17.916 17.978 18.063 18.133 18.163 18.191 18.266 18.296 18.386 18.443 18.536 18.573 18.628 18.721 18.768 18.873 18.896 18.993 19.101 19.188 19.308 19.413 19.468 19.561 19.633 19.711 19.811 19.871 19.956 20.083 20.148 20.221 20.308 20.408 20.453 20.496 20.533 20.638 20.698 20.776 20.841 20.948 21.071 21.133 21.183 21.218 21.321 21.358 21.451 21.531 21.613 21.723 21.783 21.886 21.988 22.021 22.131 22.186 22.273 22.326 22.396 22.443 22.521 22.546 22.638 22.696 22.761 22.803 22.863 22.916 22.976 23.043 23.118 23.158 23.236 23.298 23.376 23.448 23.506 23.553 23.641 23.683 23.746 23.803 23.903 23.966 24.006 24.071 24.108 24.133 24.193 24.191 24.116 24.013 24.958 26.538 25.991 24.828 24.833 24.816 24.858 24.868 24.908 24.953 25.038 25.073 25.168 25.173 25.233 25.333 25.353 25.446 25.456 25.526 25.613 25.638 25.708 25.793 25.828 25.896 25.951 26.001 26.046 26.116 26.113 26.196 26.206 26.241 26.293 26.371 26.391 26.453 26.488 26.556 26.573 26.608 26.641 26.681 26.701 26.726 26.778 26.836 26.866 26.901 26.953 26.976 27.023 27.066 27.113 27.163 27.218 27.243 27.338 27.356 27.388 27.401 27.483 27.518 27.476
9.026 9.021 9.011 9.001 9.039 9.051 9.064 9.066 9.079 9.096 9.116 9.121 9.134 9.176 9.176 9.169 9.151 9.166 9.246 9.266 9.264 9.256 9.251 9.276 9.301 9.284 9.311 9.349 9.429 9.441 9.466 9.441 9.451 9.476 9.536 9.544 9.538 9.503 9.531 9.561 9.556 9.544 9.599 9.626 9.651 9.674 9.689 9.691 9.708 9.716 9.726 9.769 9.778 9.824 9.833 9.851 9.871 9.841 9.891 9.909 9.784 9.743 9.719 9.806 10.186 10.153 11.248 11.668 11.734 11.524 11.566 11.256 10.536 10.561 10.776 10.351 10.376 10.309 10.296 10.366 10.463 10.393 10.423 10.951 11.481 11.536 11.648 11.306 10.595 10.431 10.449 10.442 10.467 10.501 10.514 10.56 10.603 10.647 10.663 10.689 10.727 10.752 10.717 10.702 10.803 10.868 10.914 10.973 11.003 11.056 11.108 11.101 11.176 11.183 11.248 11.283 11.341 11.336 11.298 11.288 11.311 11.381 11.396 11.458 11.493 11.531 11.546 11.578 11.598 11.636 11.648 11.681 11.733 11.778 11.796 11.778 11.788 11.806 11.776 11.861 11.848 11.848 11.928 11.961 11.973 12.028 12.106 12.471 14.183 13.666 11.753 11.786 13.796 13.341 13.313 14.126 15.713 16.746 17.171 16.296 15.151 12.868 12.703 12.648 12.693 12.756 12.828 13.211 13.398 12.756 12.778 12.761 12.751 12.886 13.921 14.801 14.736 13.008 13.243 12.943 12.993 12.786 12.771 15.456 16.476 17.293 16.878 15.848 15.138 14.411 13.148 13.588 13.841 13.626 12.991 13.026 13.056 13.073 13.638 14.863 14.388 14.018 14.131 14.021 15.723 15.508 15.081 15.526 15.133 15.251 14.343 14.013 14.063 14.103 14.133 14.181 14.208 14.306 14.363 14.418 14.468 14.543 14.593 14.636 14.676 14.726 14.796 14.838 14.891 14.943 14.993 15.033 15.181 15.251 15.318 15.376 15.433 15.511 15.588 15.663 15.708 15.778 15.841 15.941 15.998 16.083 16.153 16.238 16.318 16.383 16.416 16.506 16.576 16.651 16.721 16.816 16.846 16.936 16.988 17.048 17.083 17.146 17.181 17.216 17.301 17.363 17.453 17.521 17.581 17.638 17.681 17.793 17.816 17.853 17.888 17.938 17.998 18.068 18.148 18.201 18.286 18.318 18.433 18.478 18.551 18.606 18.686 18.778 18.856 18.963 19.083 19.148 19.248 19.361 19.393 19.466 19.556 19.626 19.736 19.823 19.923 20.011 20.088 20.116 20.193 20.238 20.301 20.368 20.471 20.511 20.601 20.698 20.798 20.858 20.883 20.971 21.011 21.108 21.193 21.278 21.383 21.463 21.563 21.613 21.686 21.771 21.833 21.896 21.951 22.033 22.106 22.188 22.231 22.313 22.348 22.408 22.463 22.528 22.573 22.616 22.701 22.793 22.843 22.896 22.978 23.008 23.096 23.153 23.218 23.291 23.381 23.456 23.466 23.551 23.608 23.686 23.708 23.791 23.818 23.883 23.873 23.786 23.701 24.333 26.058 26.148 24.468 24.473 24.458 24.471 24.521 24.548 24.626 24.678 24.696 24.776 24.811 24.891 24.951 25.033 25.088 25.121 25.173 25.226 25.253 25.336 25.418 25.461 25.513 25.571 25.638 25.688 25.758 25.783 25.788 25.826 25.898 25.933 25.958 25.998 26.081 26.141 26.196 26.218 26.256 26.261 26.303 26.351 26.358 26.421 26.458 26.526 26.528 26.571 26.591 26.623 26.668 26.723 26.793 26.803 26.853 26.903 26.953 27.006 27.028 27.073 27.096 27.153
8.979 8.969 8.961 8.989 8.991 9.004 9.041 9.064 9.076 9.039 9.044 9.084 9.114 9.116 9.121 9.146 9.144 9.134 9.191 9.249 9.216 9.206 9.209 9.269 9.299 9.264 9.281 9.329 9.386 9.431 9.421 9.389 9.394 9.439 9.493 9.481 9.464 9.469 9.493 9.511 9.516 9.514 9.516 9.564 9.609 9.644 9.634 9.631 9.639 9.669 9.706 9.706 9.739 9.771 9.759 9.794 9.781 9.796 9.821 9.786 9.696 9.776 10.041 11.261 10.224 10.236 11.168 11.546 11.364 11.293 11.321 12.051 11.753 11.206 10.371 10.351 10.339 10.384 10.284 10.324 10.298 10.358 10.468 10.383 10.351 10.656 11.258 11.746 11.819 10.825 10.426 10.413 10.456 10.469 10.469 10.505 10.541 10.574 10.604 10.611 10.657 10.674 10.671 10.64 10.729 10.783 10.833 10.891 10.963 10.998 11.038 11.081 11.116 11.131 11.168 11.183 11.268 11.246 11.238 11.226 11.276 11.318 11.321 11.391 11.446 11.478 11.513 11.541 11.571 11.596 11.628 11.656 11.683 11.758 11.736 11.733 11.748 11.741 11.763 11.793 11.803 11.841 11.871 11.891 11.928 11.946 11.996 12.366 13.883 12.563 11.561 11.523 13.188 12.646 12.491 14.013 15.606 16.616 16.971 15.981 14.876 13.231 13.058 12.626 12.811 13.096 13.111 14.948 16.151 14.586 12.766 12.753 12.771 13.353 14.431 14.613 15.591 15.061 13.438 13.181 12.673 12.783 13.398 15.508 16.486 17.378 16.758 15.756 15.113 13.668 12.963 13.408 14.018 15.171 14.613 13.053 12.913 12.933 14.413 15.226 14.803 13.816 14.111 13.383 14.816 14.858 15.261 15.156 15.761 16.498 15.971 15.371 14.556 13.951 14.056 14.086 14.138 14.183 14.201 14.261 14.311 14.376 14.428 14.453 14.503 14.536 14.616 14.673 14.693 14.741 14.813 14.866 14.943 15.018 15.073 15.173 15.231 15.311 15.358 15.401 15.483 15.518 15.586 15.698 15.748 15.846 15.893 16.013 16.061 16.121 16.178 16.236 16.301 16.393 16.458 16.521 16.591 16.623 16.703 16.753 16.843 16.878 16.913 16.966 17.056 17.101 17.158 17.191 17.316 17.316 17.408 17.461 17.521 17.556 17.573 17.651 17.698 17.776 17.828 17.913 17.981 18.028 18.121 18.163 18.251 18.323 18.413 18.473 18.566 18.671 18.758 18.836 18.928 19.016 19.066 19.153 19.193 19.288 19.401 19.496 19.581 19.681 19.751 19.813 19.856 19.933 20.008 20.071 20.158 20.211 20.296 20.326 20.451 20.518 20.546 20.623 20.701 20.761 20.853 20.943 21.031 21.106 21.201 21.266 21.351 21.428 21.508 21.573 21.631 21.713 21.803 21.896 21.918 21.991 22.006 22.071 22.111 22.183 22.261 22.303 22.388 22.446 22.521 22.571 22.648 22.718 22.766 22.848 22.906 22.963 23.043 23.106 23.151 23.186 23.248 23.311 23.373 23.438 23.488 23.591 23.553 23.463 23.363 23.611 25.501 25.713 24.151 24.136 24.121 24.118 24.151 24.221 24.278 24.336 24.373 24.441 24.486 24.548 24.588 24.686 24.716 24.768 24.788 24.873 24.921 24.983 25.038 25.116 25.161 25.238 25.263 25.363 25.373 25.411 25.446 25.463 25.521 25.558 25.593 25.643 25.718 25.771 25.783 25.848 25.871 25.916 25.956 25.983 25.996 26.018 26.076 26.113 26.193 26.198 26.201 26.248 26.288 26.306 26.373 26.416 26.451 26.491 26.581 26.621 26.638 26.718 26.711 26.728
8.919 8.914 8.914 8.951 8.989 8.996 8.974 9.024 9.021 9.026 9.016 9.026 9.064 9.106 9.091 9.104 9.119 9.131 9.159 9.181 9.159 9.176 9.184 9.211 9.234 9.214 9.229 9.294 9.366 9.361 9.384 9.359 9.371 9.429 9.469 9.458 9.444 9.424 9.451 9.466 9.466 9.461 9.509 9.538 9.586 9.579 9.579 9.579 9.591 9.626 9.663 9.668 9.688 9.691 9.694 9.733 9.706 9.701 9.714 9.684 9.669 10.038 10.979 11.413 10.286 12.304 11.201 11.091 11.128 11.036 11.333 11.189 11.264 11.788 12.026 10.583 10.294 10.314 10.288 10.301 10.313 10.281 10.238 10.401 10.491 10.366 10.347 10.855 11.714 12.22 12.437 10.533 10.391 10.407 10.442 10.467 10.505 10.485 10.513 10.512 10.539 10.561 10.543 10.592 10.681 10.753 10.776 10.861 10.908 10.946 10.986 11.016 11.086 11.083 11.111 11.143 11.186 11.168 11.163 11.171 11.208 11.206 11.243 11.301 11.381 11.433 11.458 11.473 11.508 11.536 11.588 11.608 11.658 11.716 11.713 11.716 11.708 11.711 11.698 11.763 11.751 11.798 11.828 11.803 11.863 11.888 11.906 12.178 13.051 11.738 11.463 11.581 13.226 12.823 12.538 13.506 15.451 16.486 16.628 15.596 14.336 12.973 12.518 12.613 12.863 12.888 14.481 15.681 16.186 15.616 12.786 12.718 12.703 12.716 13.483 13.703 14.208 13.646 12.876 13.021 12.706 12.836 12.833 15.526 16.543 17.388 16.716 15.688 15.066 13.533 14.011 13.476 14.493 15.146 14.161 12.883 12.861 12.858 14.103 15.128 14.733 15.178 16.513 15.601 13.356 13.091 13.621 13.611 14.893 15.871 16.296 16.688 15.981 15.346 14.641 14.111 14.083 14.098 14.111 14.136 14.186 14.228 14.276 14.311 14.366 14.366 14.373 14.453 14.481 14.586 14.646 14.706 14.763 14.796 14.843 14.913 14.998 15.076 15.106 15.163 15.238 15.323 15.383 15.438 15.513 15.571 15.666 15.746 15.796 15.878 15.913 15.971 16.058 16.146 16.193 16.263 16.311 16.358 16.433 16.498 16.578 16.578 16.658 16.696 16.761 16.806 16.873 16.926 16.976 17.018 17.131 17.166 17.231 17.263 17.308 17.381 17.431 17.506 17.568 17.608 17.701 17.753 17.826 17.866 17.936 17.981 18.076 18.173 18.253 18.381 18.421 18.503 18.598 18.681 18.738 18.826 18.886 18.981 19.053 19.161 19.246 19.311 19.408 19.478 19.521 19.601 19.671 19.753 19.818 19.866 19.988 20.086 20.126 20.198 20.238 20.306 20.353 20.451 20.516 20.616 20.666 20.788 20.881 20.946 21.023 21.083 21.198 21.251 21.336 21.406 21.471 21.526 21.583 21.638 21.713 21.763 21.828 21.911 21.918 21.978 22.058 22.121 22.198 22.238 22.348 22.386 22.466 22.518 22.583 22.643 22.721 22.758 22.818 22.858 22.926 23.001 23.008 23.073 23.126 23.253 23.203 23.136 23.046 23.033 24.521 25.398 24.103 23.741 23.768 23.791 23.813 23.863 23.931 23.986 24.058 24.108 24.173 24.193 24.253 24.341 24.378 24.416 24.473 24.528 24.556 24.621 24.678 24.753 24.786 24.868 24.918 24.971 25.021 25.061 25.083 25.131 25.126 25.178 25.216 25.263 25.333 25.386 25.428 25.476 25.496 25.541 25.596 25.631 25.623 25.691 25.723 25.756 25.803 25.803 25.821 25.861 25.873 25.913 25.973 26.046 26.073 26.111 26.211 26.213 26.231 26.263 26.303 26.356
8.884 8.834 8.836 8.906 8.954 8.959 8.951 8.959 8.976 8.996 9.004 8.996 9.019 9.079 9.091 9.051 9.071 9.104 9.129 9.111 9.086 9.109 9.129 9.151 9.194 9.184 9.219 9.266 9.304 9.319 9.309 9.354 9.354 9.416 9.404 9.391 9.406 9.411 9.448 9.441 9.406 9.444 9.471 9.496 9.524 9.529 9.524 9.556 9.576 9.594 9.609 9.621 9.639 9.644 9.634 9.644 9.661 9.654 9.626 9.703 10.833 11.191 11.181 11.918 10.221 10.971 10.811 11.583 12.329 11.421 10.214 10.038 10.001 10.104 11.046 10.761 10.716 10.359 10.224 10.281 10.288 10.258 10.271 10.266 10.289 10.338 10.41 10.288 10.331 11.451 12.342 12.178 11.047 10.479 10.4 10.441 10.44 10.444 10.479 10.453 10.516 10.58 10.482 10.551 10.616 10.678 10.723 10.731 10.801 10.851 10.883 10.923 10.973 10.993 11.008 11.061 11.086 11.086 11.131 11.108 11.143 11.123 11.193 11.253 11.296 11.341 11.371 11.396 11.433 11.451 11.533 11.571 11.618 11.668 11.686 11.653 11.686 11.663 11.658 11.696 11.718 11.753 11.778 11.801 11.811 11.823 11.878 12.126 11.986 11.508 11.421 11.853 13.168 13.176 12.258 13.511 15.546 16.556 16.491 15.486 14.451 12.363 12.343 12.463 12.601 12.943 13.951 14.418 15.026 13.706 12.781 12.696 12.673 12.678 12.718 12.778 12.708 12.643 12.748 12.641 12.951 12.661 13.316 15.021 16.216 17.126 16.488 15.521 13.171 13.696 13.808 13.403 14.791 14.931 14.638 12.781 12.731 12.738 13.926 15.013 14.011 13.996 15.941 16.378 14.598 13.001 12.871 12.918 13.178 13.673 14.696 15.521 16.046 16.228 15.711 15.428 14.508 14.148 14.038 14.038 14.053 14.063 14.126 14.148 14.173 14.196 14.216 14.268 14.293 14.358 14.436 14.506 14.573 14.606 14.651 14.703 14.778 14.828 14.891 14.928 15.021 15.093 15.146 15.198 15.276 15.358 15.431 15.496 15.536 15.603 15.671 15.746 15.843 15.888 15.933 16.003 16.048 16.128 16.181 16.241 16.286 16.326 16.396 16.428 16.478 16.566 16.598 16.688 16.698 16.783 16.843 16.903 16.956 16.973 17.053 17.088 17.138 17.203 17.266 17.323 17.391 17.476 17.533 17.566 17.638 17.693 17.791 17.873 17.958 18.096 18.131 18.228 18.311 18.398 18.461 18.533 18.618 18.686 18.741 18.836 18.913 19.021 19.168 19.148 19.201 19.276 19.326 19.406 19.468 19.563 19.651 19.731 19.791 19.876 19.921 19.986 20.061 20.128 20.211 20.298 20.376 20.471 20.571 20.618 20.718 20.788 20.838 20.906 20.973 21.053 21.128 21.178 21.283 21.336 21.371 21.443 21.461 21.538 21.591 21.661 21.708 21.768 21.861 21.921 21.961 22.038 22.113 22.158 22.211 22.296 22.371 22.426 22.473 22.538 22.583 22.666 22.713 22.771 22.848 22.923 22.898 22.836 22.718 22.713 23.646 25.016 23.883 23.428 23.426 23.423 23.506 23.531 23.578 23.668 23.711 23.763 23.803 23.881 23.903 23.981 24.033 24.078 24.113 24.186 24.223 24.278 24.323 24.401 24.451 24.513 24.551 24.591 24.648 24.696 24.738 24.778 24.838 24.821 24.868 24.883 24.938 24.991 25.061 25.103 25.136 25.193 25.223 25.268 25.278 25.291 25.326 25.368 25.393 25.408 25.426 25.491 25.498 25.538 25.593 25.643 25.711 25.768 25.776 25.793 25.856 25.871 25.911 25.973
