ncols 381
nrows 31
xllcorner    250118
yllcorner    140338
cellsize     2
NODATA_value -9999
113.294 113.674 114.057 114.422 114.802 115.159 115.509 115.844 116.152 116.469 116.809 117.114 117.384 117.619 117.849 118.107 118.359 118.662 118.932 119.229 119.489 119.769 120.039 120.314 120.574 120.829 121.117 121.377 121.669 121.927 122.214 122.444 122.689 122.879 123.094 123.317 123.522 123.674 123.832 124.024 124.187 124.337 124.452 124.547 124.729 124.967 125.924 127.099 128.389 128.002 126.757 127.724 126.909 127.452 127.562 127.077 126.917 126.959 127.084 127.217 127.367 127.517 127.707 127.859 128.044 128.249 128.449 128.697 128.884 129.099 129.327 129.537 129.757 130.009 130.262 130.504 130.774 130.979 131.214 131.432 131.674 131.914 132.104 132.304 132.547 132.799 133.032 133.279 133.544 133.789 134.087 134.352 134.634 134.922 135.214 135.462 135.744 135.997 136.249 136.477 136.697 136.902 137.114 137.309 137.492 137.669 137.854 138.062 138.252 138.464 138.677 138.857 138.999 139.144 139.332 139.497 139.619 139.759 139.894 140.002 140.134 140.254 140.359 140.424 140.597 140.717 140.844 140.989 141.107 141.234 141.367 141.537 141.689 141.804 141.907 142.042 142.204 142.362 142.487 142.664 142.799 142.927 143.067 143.227 143.372 143.499 143.624 143.767 143.887 144.027 144.162 144.264 144.387 144.527 144.649 144.789 144.899 145.037 145.164 145.307 145.422 145.549 145.634 145.722 145.852 145.954 146.037 146.112 146.224 146.302 146.409 146.497 146.577 146.659 146.712 146.704 146.792 146.907 147.372 148.167 148.432 147.692 147.342 147.452 148.149 149.369 153.682 153.479 151.004 148.007 148.122 148.159 148.139 150.037 151.172 148.549 148.354 148.329 148.382 148.327 148.309 148.367 148.402 148.524 148.534 148.529 148.524 148.539 148.574 148.584 148.622 148.677 148.737 148.829 148.909 148.954 148.992 149.002 149.054 149.039 149.042 149.059 149.082 149.112 149.172 149.172 149.192 149.179 149.199 149.212 149.179 149.152 149.109 149.089 149.124 149.112 149.067 149.052 149.049 149.034 148.982 148.927 148.869 148.827 148.759 148.737 148.624 148.532 148.462 148.404 148.339 148.262 148.172 148.114 148.067 148.029 147.984 147.939 147.844 147.774 147.727 147.647 147.549 147.464 147.347 147.234 147.154 147.082 147.019 146.917 146.792 146.687 146.612 146.534 146.449 146.304 146.154 146.034 145.932 145.812 145.649 145.519 145.374 145.234 145.089 144.977 144.897 144.787 144.712 144.589 144.477 144.382 144.237 144.149 144.027 143.929 143.819 143.727 143.619 143.489 143.359 143.239 143.104 143.027 142.914 142.807 142.692 142.534 142.407 142.259 142.074 141.927 141.879 142.117 142.434 143.102 143.914 143.924 142.897 144.542 143.279 142.269 141.012 140.792 140.669 140.507 140.359 140.179 140.012 139.817 139.617 139.427 139.242 139.114 139.002 138.874 138.767 138.697 138.612 138.562 138.474 138.412 138.354 138.272 138.194 138.114 138.022 137.954 137.847 137.729 137.639 137.522 137.437 137.354 137.287 137.224 137.164 137.107 137.062 137.022 136.959 136.922 136.892 136.799 136.679 136.639 136.594 136.532 136.512 136.514 136.509 136.549 136.549 136.562 136.552 136.547 136.519 136.489 136.477 136.419 136.367
112.914 113.307 113.729 114.114 114.472 114.829 115.169 115.509 115.872 116.224 116.549 116.872 117.157 117.397 117.634 117.892 118.179 118.472 118.762 119.054 119.327 119.619 119.902 120.159 120.429 120.719 120.962 121.277 121.547 121.769 122.034 122.277 122.487 122.702 122.912 123.099 123.299 123.452 123.612 123.784 123.917 124.014 124.117 124.269 124.702 125.904 126.547 126.214 126.162 125.752 127.047 128.389 126.897 126.812 127.342 127.257 127.024 126.854 126.914 127.007 127.142 127.307 127.457 127.617 127.784 128.004 128.214 128.424 128.632 128.867 129.079 129.297 129.554 129.787 130.052 130.347 130.587 130.799 131.059 131.279 131.522 131.747 131.972 132.179 132.412 132.607 132.847 133.084 133.362 133.647 133.937 134.204 134.497 134.782 135.054 135.334 135.587 135.844 136.104 136.334 136.549 136.749 136.954 137.137 137.339 137.527 137.724 137.917 138.119 138.307 138.517 138.697 138.847 139.044 139.244 139.387 139.542 139.699 139.824 139.932 140.047 140.157 140.274 140.357 140.454 140.627 140.762 140.884 141.007 141.147 141.299 141.459 141.569 141.639 141.797 141.932 142.107 142.249 142.399 142.537 142.677 142.822 142.982 143.127 143.274 143.402 143.534 143.662 143.794 143.929 144.062 144.167 144.297 144.447 144.579 144.707 144.849 144.982 145.109 145.232 145.344 145.467 145.567 145.659 145.782 145.849 145.934 145.994 146.119 146.174 146.279 146.394 146.477 146.564 146.582 146.644 146.742 146.817 146.879 147.454 148.529 147.649 148.404 149.312 148.797 149.659 151.612 150.449 148.337 148.059 147.922 148.219 148.414 148.604 149.694 148.617 148.712 148.307 148.219 148.172 148.234 148.277 148.369 148.414 148.409 148.407 148.409 148.409 148.452 148.487 148.497 148.587 148.619 148.712 148.774 148.799 148.874 148.909 148.947 148.944 148.932 148.927 148.939 148.982 149.012 149.047 149.059 149.077 149.052 149.064 149.072 149.039 148.999 148.972 148.994 148.954 148.962 148.922 148.912 148.884 148.824 148.809 148.782 148.729 148.707 148.614 148.504 148.427 148.374 148.274 148.197 148.124 148.029 147.942 147.932 147.909 147.852 147.782 147.704 147.624 147.549 147.489 147.377 147.292 147.164 147.054 146.984 146.917 146.869 146.769 146.669 146.562 146.477 146.384 146.274 146.142 146.002 145.872 145.772 145.634 145.474 145.342 145.192 145.084 144.934 144.842 144.729 144.599 144.502 144.374 144.274 144.162 144.024 143.957 143.862 143.757 143.652 143.532 143.397 143.284 143.129 142.982 142.869 142.769 142.677 142.554 142.447 142.339 142.202 142.062 141.934 141.789 141.617 141.532 142.387 143.247 143.542 143.202 142.259 142.149 143.124 143.369 142.239 140.674 140.419 140.272 140.124 139.939 139.774 139.594 139.409 139.222 139.042 138.882 138.744 138.627 138.559 138.469 138.392 138.329 138.264 138.214 138.137 138.049 137.987 137.894 137.804 137.709 137.627 137.514 137.409 137.304 137.222 137.142 137.067 136.999 136.964 136.912 136.859 136.799 136.749 136.717 136.679 136.587 136.492 136.417 136.377 136.317 136.287 136.284 136.302 136.317 136.329 136.332 136.332 136.307 136.297 136.274 136.254 136.214 136.129
112.547 112.957 113.359 113.732 114.102 114.477 114.814 115.164 115.527 115.892 116.257 116.572 116.877 117.159 117.434 117.677 117.999 118.284 118.584 118.859 119.162 119.457 119.739 120.024 120.294 120.597 120.862 121.134 121.412 121.657 121.892 122.117 122.342 122.537 122.762 122.914 123.087 123.239 123.392 123.534 123.622 123.712 123.864 124.239 125.537 125.749 125.494 126.427 126.417 126.217 125.879 126.314 126.582 126.974 126.934 127.257 127.214 127.137 127.032 126.902 126.929 127.062 127.219 127.384 127.567 127.772 127.959 128.187 128.407 128.617 128.824 129.042 129.312 129.547 129.852 130.097 130.364 130.634 130.882 131.122 131.377 131.602 131.814 132.034 132.264 132.457 132.702 132.952 133.237 133.509 133.772 134.062 134.322 134.619 134.889 135.167 135.434 135.689 135.952 136.164 136.389 136.594 136.807 137.007 137.199 137.382 137.589 137.779 137.964 138.174 138.344 138.524 138.724 138.932 139.109 139.294 139.444 139.604 139.724 139.839 139.979 140.052 140.154 140.264 140.384 140.437 140.639 140.757 140.904 141.042 141.234 141.322 141.437 141.537 141.709 141.847 141.989 142.144 142.297 142.434 142.584 142.732 142.867 143.014 143.172 143.312 143.444 143.562 143.719 143.834 143.949 144.074 144.252 144.374 144.492 144.642 144.789 144.932 145.032 145.149 145.269 145.382 145.484 145.597 145.687 145.767 145.872 145.904 145.979 146.047 146.149 146.297 146.387 146.477 146.554 146.634 146.649 146.717 146.829 146.972 147.404 147.897 148.522 149.029 148.952 148.927 149.429 149.157 148.854 149.204 148.422 148.167 148.354 148.624 148.652 148.552 148.194 148.069 148.062 148.129 148.179 148.242 148.269 148.262 148.254 148.274 148.282 148.292 148.329 148.354 148.417 148.474 148.529 148.584 148.619 148.682 148.769 148.807 148.834 148.844 148.817 148.799 148.849 148.867 148.894 148.899 148.917 148.934 148.937 148.949 148.957 148.917 148.877 148.862 148.837 148.859 148.852 148.807 148.764 148.724 148.679 148.692 148.652 148.644 148.572 148.484 148.404 148.322 148.244 148.162 148.112 147.994 147.882 147.817 147.837 147.774 147.702 147.647 147.529 147.452 147.387 147.309 147.227 147.109 146.989 146.902 146.819 146.774 146.692 146.604 146.529 146.434 146.332 146.244 146.144 146.004 145.842 145.742 145.617 145.474 145.309 145.172 145.047 144.907 144.789 144.672 144.557 144.422 144.314 144.199 144.092 143.979 143.854 143.737 143.667 143.564 143.439 143.304 143.179 143.047 142.897 142.742 142.677 142.587 142.492 142.337 142.229 142.097 141.984 141.872 141.772 141.617 141.469 141.299 141.264 143.079 142.692 142.687 142.802 143.274 143.157 142.104 143.389 143.089 140.887 140.032 140.019 140.472 139.572 139.389 139.197 139.019 138.854 138.689 138.542 138.404 138.314 138.254 138.162 138.092 138.029 137.989 137.907 137.824 137.752 137.662 137.559 137.477 137.382 137.299 137.189 137.077 137.014 136.932 136.859 136.802 136.749 136.699 136.659 136.612 136.549 136.524 136.487 136.399 136.279 136.212 136.152 136.112 136.069 136.059 136.054 136.077 136.094 136.102 136.092 136.079 136.052 136.047 136.029 135.979 135.917
112.097 112.529 112.944 113.334 113.732 114.102 114.449 114.797 115.179 115.549 115.919 116.272 116.564 116.869 117.167 117.447 117.752 118.069 118.359 118.654 118.974 119.274 119.589 119.867 120.169 120.424 120.722 120.994 121.249 121.487 121.739 121.964 122.164 122.352 122.529 122.717 122.882 123.029 123.147 123.264 123.319 123.542 124.009 124.929 125.879 125.437 125.757 125.377 125.252 125.472 125.087 125.487 126.757 127.889 127.054 126.719 127.114 127.362 127.327 127.097 126.874 126.872 126.997 127.117 127.322 127.522 127.729 127.932 128.144 128.349 128.569 128.819 129.072 129.372 129.607 129.854 130.147 130.417 130.699 130.954 131.212 131.424 131.659 131.874 132.087 132.309 132.559 132.807 133.082 133.332 133.634 133.892 134.187 134.484 134.724 135.022 135.272 135.524 135.762 135.982 136.222 136.439 136.657 136.859 137.062 137.242 137.424 137.622 137.814 137.982 138.184 138.394 138.582 138.792 138.984 139.167 139.352 139.507 139.634 139.759 139.849 139.952 140.044 140.157 140.274 140.382 140.454 140.664 140.804 140.997 141.097 141.202 141.309 141.457 141.612 141.749 141.874 142.042 142.179 142.329 142.482 142.649 142.794 142.914 143.057 143.199 143.332 143.464 143.597 143.722 143.852 144.022 144.157 144.269 144.394 144.544 144.684 144.804 144.962 145.089 145.182 145.297 145.412 145.517 145.629 145.702 145.822 145.872 145.944 146.027 146.079 146.197 146.319 146.427 146.512 146.567 146.607 146.707 146.924 147.989 147.824 148.212 148.609 148.597 148.817 148.939 149.074 148.989 148.999 148.709 148.754 148.609 148.484 148.624 148.264 148.164 147.917 147.947 147.957 148.017 148.122 148.122 148.122 148.134 148.149 148.177 148.184 148.207 148.217 148.242 148.304 148.359 148.392 148.447 148.497 148.587 148.644 148.709 148.744 148.757 148.742 148.719 148.734 148.757 148.759 148.782 148.802 148.784 148.819 148.837 148.817 148.807 148.787 148.757 148.752 148.752 148.702 148.649 148.602 148.584 148.549 148.517 148.507 148.479 148.402 148.344 148.264 148.199 148.117 148.062 147.974 147.869 147.812 147.787 147.724 147.659 147.579 147.459 147.362 147.272 147.214 147.122 147.022 146.924 146.842 146.782 146.699 146.609 146.534 146.454 146.397 146.289 146.172 146.067 145.974 145.817 145.704 145.602 145.487 145.329 145.157 145.032 144.892 144.767 144.657 144.539 144.402 144.249 144.129 143.999 143.897 143.769 143.654 143.572 143.467 143.344 143.224 143.094 142.969 142.809 142.679 142.567 142.469 142.367 142.257 142.117 141.984 141.882 141.772 141.674 141.564 141.454 141.332 141.152 140.949 140.747 142.077 142.632 142.082 142.239 141.269 142.329 143.079 140.979 140.912 140.844 140.079 139.454 139.322 139.157 138.982 138.827 138.649 138.502 138.352 138.212 138.097 138.002 137.924 137.854 137.802 137.732 137.654 137.592 137.499 137.419 137.337 137.229 137.142 137.042 136.929 136.859 136.799 136.712 136.632 136.572 136.529 136.487 136.429 136.384 136.334 136.317 136.284 136.184 136.074 136.002 135.947 135.894 135.844 135.812 135.819 135.837 135.839 135.852 135.864 135.852 135.827 135.832 135.792 135.757 135.702
111.669 112.099 112.489 112.899 113.322 113.702 114.082 114.424 114.807 115.189 115.539 115.899 116.224 116.544 116.882 117.169 117.462 117.784 118.102 118.424 118.759 119.092 119.394 119.709 120.012 120.292 120.559 120.869 121.102 121.362 121.572 121.769 121.972 122.164 122.334 122.492 122.662 122.792 122.892 122.984 123.122 123.842 124.839 125.307 125.427 124.432 124.344 124.329 124.474 124.717 124.969 125.319 126.929 126.504 127.044 126.272 126.467 126.802 127.252 127.377 127.159 126.929 126.874 126.957 127.112 127.292 127.474 127.674 127.877 128.112 128.334 128.584 128.859 129.122 129.362 129.642 129.959 130.242 130.509 130.792 131.014 131.269 131.504 131.724 131.952 132.169 132.419 132.692 132.934 133.197 133.487 133.767 134.044 134.342 134.584 134.852 135.107 135.367 135.589 135.822 136.059 136.284 136.484 136.704 136.907 137.112 137.309 137.489 137.652 137.794 138.029 138.239 138.427 138.637 138.832 139.032 139.204 139.384 139.509 139.634 139.757 139.849 139.967 140.064 140.212 140.297 140.389 140.492 140.712 140.874 140.959 141.082 141.214 141.342 141.482 141.614 141.767 141.917 142.067 142.239 142.419 142.539 142.679 142.832 142.979 143.122 143.244 143.369 143.504 143.622 143.782 143.924 144.039 144.149 144.312 144.457 144.594 144.727 144.882 145.027 145.142 145.254 145.339 145.439 145.537 145.637 145.679 145.744 145.799 145.922 145.984 146.099 146.644 147.112 147.499 147.122 147.854 148.092 148.009 148.227 148.349 148.209 148.302 148.594 148.557 148.724 148.874 148.824 149.334 148.522 148.847 148.567 148.187 148.269 148.007 147.809 147.882 147.962 147.962 148.034 148.009 147.989 148.002 148.042 148.084 148.102 148.122 148.169 148.182 148.189 148.214 148.274 148.299 148.367 148.414 148.457 148.542 148.614 148.644 148.662 148.672 148.664 148.672 148.639 148.667 148.699 148.684 148.699 148.697 148.697 148.697 148.684 148.639 148.652 148.642 148.614 148.542 148.499 148.434 148.414 148.369 148.349 148.327 148.294 148.257 148.229 148.177 148.069 148.042 147.972 147.822 147.749 147.697 147.677 147.632 147.582 147.494 147.399 147.264 147.149 147.079 146.959 146.824 146.757 146.724 146.634 146.547 146.449 146.392 146.327 146.229 146.117 146.002 145.907 145.749 145.659 145.582 145.482 145.347 145.147 145.007 144.874 144.777 144.649 144.527 144.427 144.262 144.117 143.947 143.822 143.704 143.559 143.477 143.379 143.277 143.159 143.052 142.909 142.767 142.609 142.484 142.332 142.214 142.109 141.997 141.844 141.744 141.657 141.577 141.407 141.307 141.257 141.152 141.007 140.804 140.579 140.377 141.507 142.189 142.117 142.202 142.274 140.754 140.377 140.964 140.127 140.424 139.802 139.164 138.862 138.682 138.562 138.414 138.289 138.139 138.029 137.894 137.784 137.697 137.622 137.552 137.464 137.424 137.327 137.254 137.189 137.084 136.984 136.889 136.782 136.702 136.642 136.552 136.497 136.419 136.362 136.304 136.254 136.209 136.164 136.117 136.084 136.064 135.969 135.854 135.759 135.707 135.639 135.594 135.592 135.572 135.602 135.624 135.609 135.639 135.604 135.597 135.562 135.549 135.527 135.459
111.237 111.652 112.082 112.514 112.939 113.347 113.707 114.072 114.457 114.819 115.187 115.554 115.877 116.179 116.517 116.824 117.152 117.472 117.804 118.187 118.527 118.854 119.202 119.529 119.849 120.144 120.434 120.719 120.962 121.197 121.407 121.594 121.789 121.969 122.152 122.304 122.439 122.547 122.652 122.799 123.339 124.252 124.647 124.342 123.849 123.834 123.957 124.114 124.257 124.387 124.477 124.602 125.764 125.127 125.304 125.837 126.659 127.607 126.752 127.234 127.329 127.247 126.927 126.814 126.907 127.054 127.234 127.432 127.632 127.862 128.117 128.362 128.649 128.857 129.162 129.462 129.722 130.014 130.297 130.564 130.819 131.067 131.312 131.527 131.769 132.004 132.267 132.527 132.782 133.069 133.359 133.614 133.899 134.182 134.442 134.684 134.954 135.212 135.459 135.662 135.882 136.122 136.357 136.594 136.769 136.969 137.149 137.327 137.469 137.662 137.857 138.062 138.242 138.449 138.672 138.887 139.064 139.217 139.392 139.522 139.627 139.719 139.854 139.974 140.094 140.182 140.312 140.442 140.534 140.714 140.819 140.962 141.099 141.259 141.367 141.509 141.644 141.774 141.957 142.109 142.262 142.397 142.577 142.719 142.917 143.032 143.184 143.279 143.402 143.559 143.664 143.822 143.947 144.077 144.232 144.344 144.479 144.627 144.757 144.894 145.024 145.139 145.194 145.279 145.369 145.457 145.559 145.959 146.059 146.367 146.339 146.712 147.259 147.304 147.599 147.797 147.869 148.032 149.722 148.187 148.184 148.434 148.427 148.619 148.817 148.637 148.617 148.519 149.117 148.259 148.054 148.149 148.167 147.877 147.709 147.677 147.879 147.927 147.939 147.924 147.914 147.889 147.929 147.962 148.009 148.027 148.092 148.124 148.107 148.119 148.172 148.212 148.242 148.284 148.344 148.384 148.454 148.499 148.534 148.569 148.582 148.589 148.559 148.577 148.582 148.592 148.577 148.577 148.589 148.609 148.594 148.554 148.532 148.517 148.497 148.479 148.419 148.359 148.317 148.279 148.254 148.212 148.184 148.147 148.124 148.104 148.052 147.967 147.927 147.834 147.734 147.624 147.589 147.577 147.567 147.502 147.387 147.267 147.167 147.092 146.992 146.859 146.744 146.659 146.569 146.467 146.372 146.324 146.264 146.189 146.059 145.944 145.832 145.707 145.604 145.547 145.442 145.354 145.169 145.017 144.867 144.744 144.627 144.524 144.387 144.264 144.099 143.962 143.817 143.677 143.544 143.409 143.304 143.179 143.079 142.979 142.867 142.722 142.567 142.429 142.277 142.112 141.992 141.874 141.754 141.609 141.519 141.409 141.292 141.164 141.082 141.029 140.899 140.757 140.619 140.404 140.199 140.034 140.432 141.644 141.979 141.867 140.874 139.777 139.914 139.727 139.499 139.902 140.112 138.872 138.647 138.299 138.202 138.054 137.942 137.839 137.717 137.592 137.479 137.399 137.312 137.224 137.152 137.057 136.989 136.889 136.822 136.737 136.652 136.549 136.472 136.392 136.317 136.264 136.192 136.137 136.077 136.029 135.992 135.937 135.884 135.852 135.812 135.729 135.619 135.544 135.499 135.439 135.377 135.329 135.337 135.364 135.364 135.389 135.364 135.369 135.357 135.339 135.302 135.284 135.237
110.852 111.239 111.657 112.132 112.557 112.982 113.332 113.692 114.064 114.414 114.802 115.127 115.464 115.784 116.122 116.437 116.737 117.117 117.482 117.869 118.247 118.619 118.994 119.349 119.672 119.964 120.264 120.532 120.794 121.012 121.224 121.427 121.632 121.792 121.959 122.087 122.209 122.274 122.447 122.909 123.769 124.174 123.827 123.457 123.414 123.584 123.764 123.894 124.029 124.182 124.272 124.432 124.602 124.839 125.252 126.614 127.757 126.839 126.209 126.717 127.122 127.314 127.179 126.829 126.792 126.847 127.012 127.202 127.414 127.647 127.892 128.164 128.389 128.644 128.949 129.229 129.489 129.787 130.037 130.329 130.584 130.984 131.279 131.332 131.587 131.842 132.087 132.342 132.639 132.917 133.197 133.497 133.754 134.034 134.289 134.547 134.819 135.062 135.259 135.519 135.737 136.009 136.219 136.422 136.629 136.819 136.994 137.139 137.329 137.517 137.697 137.889 138.084 138.277 138.484 138.692 138.887 139.064 139.247 139.389 139.534 139.652 139.762 139.874 139.977 140.117 140.272 140.377 140.457 140.519 140.739 140.842 140.979 141.079 141.229 141.359 141.482 141.617 141.769 141.942 142.054 142.219 142.397 142.549 142.667 142.837 142.984 143.112 143.239 143.382 143.522 143.657 143.802 143.924 144.042 144.222 144.337 144.439 144.577 144.714 144.812 144.922 145.004 145.154 145.442 146.227 146.222 147.444 147.649 147.582 147.192 146.919 146.844 146.917 147.227 147.377 149.044 147.754 148.809 148.494 148.329 148.312 148.572 148.637 148.587 148.574 149.732 148.019 148.017 147.952 148.024 148.077 147.797 147.644 147.692 147.732 147.789 147.844 147.822 147.799 147.797 147.817 147.854 147.879 147.937 148.007 148.069 148.052 148.059 148.079 148.124 148.162 148.184 148.214 148.239 148.322 148.364 148.437 148.467 148.489 148.517 148.497 148.484 148.494 148.497 148.504 148.482 148.497 148.492 148.509 148.462 148.444 148.397 148.392 148.384 148.369 148.312 148.257 148.204 148.172 148.122 148.087 148.052 148.007 148.014 147.962 147.922 147.887 147.794 147.712 147.627 147.549 147.512 147.487 147.447 147.357 147.252 147.159 147.077 147.007 146.884 146.737 146.647 146.557 146.452 146.302 146.187 146.149 146.112 146.027 145.894 145.769 145.642 145.534 145.469 145.399 145.307 145.159 144.992 144.849 144.727 144.619 144.494 144.349 144.222 144.064 143.922 143.769 143.674 143.507 143.412 143.279 143.139 143.002 142.914 142.777 142.657 142.529 142.382 142.252 142.072 141.934 141.799 141.679 141.519 141.379 141.257 141.117 141.014 140.874 140.772 140.704 140.597 140.499 140.362 140.199 140.002 139.794 139.589 139.567 140.839 140.327 140.054 140.144 140.062 139.769 139.454 139.692 138.959 140.949 140.187 138.822 137.954 137.839 137.757 137.637 137.512 137.392 137.287 137.164 137.072 136.997 136.899 136.797 136.717 136.647 136.557 136.489 136.402 136.302 136.234 136.144 136.094 136.042 135.967 135.914 135.857 135.799 135.774 135.709 135.657 135.609 135.562 135.502 135.399 135.324 135.264 135.197 135.122 135.102 135.097 135.122 135.137 135.139 135.132 135.122 135.112 135.079 135.072 135.029 134.992
110.424 110.837 111.269 111.707 112.127 112.542 112.902 113.284 113.644 113.984 114.349 114.717 115.017 115.349 115.672 115.959 116.314 116.709 117.099 117.512 117.917 118.324 118.709 119.062 119.412 119.729 120.047 120.317 120.574 120.794 121.037 121.244 121.444 121.594 121.744 121.867 121.944 122.099 122.429 123.327 123.344 123.462 123.047 123.082 123.234 123.402 123.534 123.682 123.817 123.959 124.122 124.254 124.427 124.507 124.697 125.457 126.399 126.227 126.312 126.579 126.667 127.099 127.274 126.964 126.759 126.752 126.827 127.022 127.212 127.442 127.684 127.902 128.147 128.424 128.734 128.997 129.264 129.542 129.807 130.069 130.337 130.627 130.862 131.139 131.399 131.672 131.919 132.197 132.497 132.767 133.029 133.312 133.614 133.864 134.097 134.379 134.617 134.874 135.107 135.352 135.592 135.832 136.067 136.277 136.487 136.669 136.829 137.002 137.187 137.369 137.564 137.744 137.939 138.134 138.327 138.524 138.714 138.927 139.084 139.252 139.397 139.532 139.647 139.767 139.894 140.034 140.187 140.299 140.394 140.462 140.512 140.759 140.832 140.947 141.044 141.174 141.284 141.509 141.934 142.272 143.117 142.824 142.382 143.564 142.884 142.759 142.867 142.929 143.059 143.162 143.299 143.432 143.609 143.759 143.897 144.077 144.297 144.377 144.554 144.764 145.239 145.147 145.487 145.872 146.022 146.407 146.482 146.854 147.417 146.559 146.959 147.237 146.969 147.317 147.539 147.729 148.177 148.267 147.782 148.349 148.449 148.434 148.469 148.654 148.787 148.852 148.977 147.744 147.859 147.717 147.714 147.529 147.552 147.649 147.709 147.702 147.712 147.722 147.694 147.739 147.737 147.754 147.794 147.839 147.912 147.952 147.949 147.957 147.977 148.044 148.067 148.079 148.122 148.134 148.197 148.252 148.304 148.354 148.394 148.432 148.429 148.394 148.399 148.422 148.417 148.407 148.394 148.387 148.402 148.379 148.349 148.327 148.267 148.259 148.269 148.257 148.214 148.192 148.132 148.057 148.009 148.012 147.947 147.889 147.879 147.847 147.789 147.724 147.649 147.582 147.527 147.462 147.404 147.352 147.279 147.192 147.109 147.027 146.957 146.877 146.749 146.617 146.547 146.419 146.292 146.167 146.084 146.032 145.959 145.862 145.729 145.594 145.492 145.389 145.294 145.202 145.087 144.974 144.817 144.689 144.559 144.469 144.319 144.194 144.042 143.894 143.722 143.597 143.479 143.359 143.247 143.099 142.964 142.857 142.724 142.604 142.482 142.312 142.187 142.034 141.869 141.767 141.609 141.469 141.299 141.147 140.982 140.864 140.707 140.617 140.487 140.374 140.247 140.139 140.027 139.897 139.744 139.557 139.382 139.212 139.122 139.397 140.469 139.922 140.359 140.662 139.589 138.837 138.062 139.054 139.607 139.947 138.169 137.817 137.704 137.537 137.322 137.202 137.079 136.974 136.874 136.757 136.657 136.562 136.457 136.372 136.309 136.219 136.134 136.047 135.974 135.907 135.849 135.784 135.739 135.679 135.619 135.577 135.509 135.477 135.404 135.367 135.342 135.267 135.172 135.067 135.022 134.969 134.904 134.874 134.862 134.862 134.884 134.877 134.892 134.887 134.877 134.842 134.814 134.794 134.762
110.024 110.434 110.844 111.257 111.684 112.084 112.472 112.832 113.204 113.592 113.917 114.254 114.577 114.889 115.209 115.529 115.854 116.269 116.672 117.082 117.507 117.944 118.359 118.752 119.087 119.454 119.777 120.064 120.317 120.572 120.824 121.049 121.234 121.392 121.514 121.627 121.749 122.034 123.302 124.339 123.354 122.764 122.764 122.902 123.057 123.184 123.327 123.457 123.612 123.759 123.912 124.072 124.242 124.397 124.514 124.762 125.584 125.169 126.024 126.002 126.179 126.657 127.092 127.147 127.049 126.827 126.747 126.889 127.019 127.254 127.482 127.679 127.964 128.237 128.499 128.777 129.037 129.282 129.564 129.842 130.102 130.372 130.649 130.922 131.197 131.477 131.757 132.079 132.332 132.599 132.857 133.149 133.429 133.689 133.957 134.202 134.454 134.694 134.937 135.224 135.467 135.677 135.899 136.142 136.342 136.512 136.709 136.882 137.047 137.242 137.417 137.584 137.814 137.984 138.182 138.369 138.549 138.752 138.952 139.114 139.262 139.412 139.527 139.672 139.804 139.969 140.079 140.172 140.262 140.374 140.449 140.569 140.692 140.937 141.782 141.512 142.124 142.457 142.867 143.784 144.104 145.077 144.324 143.817 143.689 143.537 143.972 143.477 143.694 143.627 143.724 143.787 146.542 144.412 144.712 146.074 145.769 145.327 145.922 145.292 145.332 147.904 145.654 145.754 145.787 145.969 146.404 146.889 147.204 147.334 147.729 147.729 147.534 147.444 147.734 147.972 148.522 148.647 147.982 148.059 148.212 148.209 148.557 148.994 148.837 148.644 148.037 148.472 147.537 147.397 147.344 147.414 147.554 147.647 147.559 147.587 147.554 147.587 147.634 147.667 147.687 147.722 147.744 147.827 147.842 147.864 147.879 147.897 147.939 147.979 148.017 148.029 148.062 148.094 148.159 148.204 148.272 148.289 148.347 148.349 148.349 148.349 148.314 148.324 148.339 148.339 148.314 148.302 148.282 148.297 148.257 148.209 148.174 148.142 148.149 148.144 148.097 148.082 147.982 147.947 147.924 147.902 147.827 147.784 147.729 147.662 147.609 147.552 147.474 147.412 147.387 147.332 147.279 147.177 147.092 147.022 146.924 146.872 146.804 146.694 146.599 146.472 146.382 146.242 146.122 146.007 145.957 145.884 145.807 145.692 145.572 145.414 145.304 145.197 145.097 144.977 144.869 144.742 144.632 144.534 144.372 144.254 144.144 144.002 143.842 143.692 143.539 143.404 143.289 143.167 143.032 142.914 142.774 142.664 142.527 142.384 142.254 142.112 141.969 141.857 141.702 141.569 141.414 141.269 141.084 140.899 140.759 140.582 140.409 140.312 140.164 140.024 139.884 139.749 139.667 139.527 139.367 139.212 139.069 138.892 138.769 138.724 139.312 139.919 139.579 139.594 139.044 138.179 137.787 137.599 137.547 137.989 138.497 138.274 137.847 137.947 137.767 137.402 137.534 136.789 136.692 136.552 136.432 136.319 136.197 136.119 136.047 135.949 135.864 135.787 135.712 135.652 135.597 135.547 135.484 135.449 135.379 135.322 135.272 135.222 135.172 135.119 135.132 135.049 134.932 134.839 134.794 134.734 134.667 134.622 134.617 134.617 134.627 134.659 134.634 134.634 134.617 134.597 134.577 134.557 134.529
109.659 110.042 110.439 110.817 111.257 111.649 112.019 112.394 112.769 113.117 113.499 113.809 114.127 114.444 114.714 115.029 115.394 115.749 116.119 116.539 116.992 117.467 117.942 118.382 118.782 119.147 119.499 119.754 120.054 120.339 120.609 120.824 121.007 121.159 121.284 121.407 121.614 122.507 123.212 123.514 122.807 122.407 122.504 122.677 122.847 122.982 123.112 123.239 123.399 123.557 123.712 123.904 124.039 124.232 124.389 124.559 124.679 125.484 125.407 127.097 126.934 127.657 126.614 126.927 127.144 127.044 126.862 126.854 126.952 127.092 127.272 127.522 127.779 128.039 128.289 128.564 128.812 129.052 129.334 129.599 129.867 130.137 130.432 130.697 130.979 131.284 131.574 131.869 132.152 132.422 132.702 132.994 133.227 133.492 133.767 134.024 134.272 134.527 134.802 135.034 135.304 135.532 135.779 136.002 136.192 136.419 136.589 136.769 136.944 137.117 137.292 137.477 137.644 137.847 138.032 138.212 138.414 138.607 138.779 138.954 139.109 139.274 139.419 139.592 139.752 139.852 139.962 140.022 140.114 140.277 140.429 141.122 141.819 142.599 142.199 142.667 142.947 142.242 142.527 142.414 143.084 144.042 145.024 144.042 144.239 143.199 143.659 144.164 145.972 144.467 145.454 144.974 144.897 144.182 145.522 148.109 148.942 146.157 145.107 145.437 145.244 145.827 145.814 145.409 146.547 145.937 146.512 146.812 146.784 147.234 147.817 147.937 147.649 147.737 147.942 147.827 148.044 148.447 148.124 148.637 148.374 148.122 148.219 148.702 148.479 148.072 147.784 147.487 147.237 147.267 147.252 147.409 147.502 147.399 147.374 147.387 147.429 147.499 147.549 147.592 147.604 147.649 147.707 147.724 147.752 147.792 147.837 147.874 147.909 147.952 147.937 147.974 148.029 148.094 148.119 148.164 148.199 148.259 148.307 148.304 148.267 148.264 148.249 148.252 148.257 148.239 148.247 148.224 148.232 148.204 148.157 148.124 148.079 148.029 148.029 148.014 147.987 147.934 147.844 147.842 147.817 147.767 147.699 147.669 147.614 147.509 147.439 147.379 147.327 147.277 147.214 147.174 147.099 146.999 146.894 146.817 146.757 146.709 146.654 146.557 146.452 146.304 146.204 146.082 145.952 145.859 145.804 145.749 145.659 145.552 145.374 145.232 145.094 144.999 144.892 144.792 144.677 144.564 144.452 144.294 144.187 144.072 143.959 143.794 143.637 143.474 143.339 143.204 143.077 142.952 142.817 142.712 142.597 142.454 142.319 142.174 142.037 141.894 141.784 141.644 141.487 141.339 141.189 141.029 140.854 140.694 140.519 140.329 140.164 140.017 139.842 139.679 139.529 139.374 139.264 139.107 138.944 138.837 138.714 138.517 138.389 138.334 138.204 138.144 139.559 138.714 137.772 137.592 137.454 137.354 138.367 137.857 137.742 137.704 137.839 138.547 138.722 138.762 137.029 136.542 136.427 136.322 136.222 136.102 135.977 135.882 135.779 135.687 135.604 135.519 135.449 135.389 135.329 135.302 135.244 135.189 135.137 135.082 135.027 134.979 134.927 134.892 134.862 134.812 134.692 134.604 134.549 134.479 134.444 134.404 134.379 134.394 134.404 134.412 134.397 134.384 134.389 134.359 134.322 134.314 134.309
109.289 109.632 110.009 110.417 110.799 111.194 111.579 111.919 112.289 112.664 112.997 113.332 113.654 113.937 114.234 114.542 114.854 115.077 115.234 115.734 116.209 116.754 117.352 117.924 118.357 118.814 119.137 119.474 119.789 120.074 120.357 120.577 120.777 120.892 120.984 121.194 121.879 122.542 122.542 122.309 122.047 122.147 122.309 122.469 122.617 122.744 122.897 123.034 123.199 123.357 123.527 123.692 123.887 124.022 124.229 124.387 124.512 124.737 125.712 126.379 126.614 126.834 126.129 126.587 126.974 127.037 127.034 126.947 126.897 126.939 127.109 127.347 127.597 127.822 128.097 128.327 128.614 128.852 129.127 129.392 129.664 129.934 130.227 130.512 130.777 131.089 131.409 131.692 131.992 132.267 132.532 132.787 133.032 133.322 133.582 133.834 134.112 134.367 134.619 134.909 135.169 135.414 135.662 135.872 136.079 136.287 136.457 136.652 136.847 137.032 137.184 137.377 137.542 137.729 137.899 138.107 138.299 138.474 138.664 138.827 139.009 139.154 139.337 139.494 139.629 139.699 139.772 140.007 140.662 140.952 141.714 141.634 142.314 141.649 141.557 143.414 143.372 142.787 143.142 142.667 142.737 143.777 144.127 143.569 143.664 143.464 143.669 143.792 143.217 143.289 143.622 143.599 145.092 144.489 144.419 144.879 146.047 146.562 145.494 146.152 145.667 146.147 146.169 145.947 145.872 146.147 147.424 146.439 146.372 146.507 147.154 147.349 147.332 147.407 147.774 147.744 147.932 148.167 147.744 148.182 148.387 148.452 148.279 148.292 148.332 147.819 147.429 147.292 147.114 147.109 147.217 147.277 147.289 147.244 147.244 147.274 147.329 147.399 147.434 147.487 147.504 147.582 147.609 147.632 147.707 147.759 147.792 147.819 147.842 147.867 147.897 147.954 148.007 148.059 148.062 148.104 148.164 148.207 148.224 148.257 148.217 148.177 148.162 148.179 148.154 148.164 148.132 148.129 148.139 148.124 148.042 148.007 147.962 147.939 147.919 147.889 147.834 147.754 147.717 147.687 147.652 147.624 147.572 147.509 147.442 147.377 147.284 147.217 147.209 147.149 147.109 147.009 146.919 146.812 146.702 146.637 146.582 146.552 146.504 146.392 146.269 146.144 146.014 145.884 145.807 145.739 145.664 145.589 145.502 145.364 145.207 145.067 144.957 144.829 144.714 144.597 144.504 144.402 144.257 144.119 144.014 143.882 143.739 143.577 143.404 143.242 143.124 142.984 142.849 142.722 142.624 142.527 142.394 142.272 142.137 141.984 141.857 141.704 141.572 141.432 141.267 141.117 140.939 140.774 140.604 140.472 140.264 140.087 139.917 139.744 139.604 139.457 139.237 139.079 138.902 138.732 138.587 138.467 138.307 138.124 137.974 137.859 137.817 137.674 137.584 137.504 137.522 137.522 137.502 137.369 137.272 137.649 137.399 137.102 137.697 140.004 139.767 142.224 139.099 136.809 136.252 136.117 135.994 135.889 135.772 135.669 135.537 135.437 135.357 135.259 135.172 135.127 135.059 135.019 134.969 134.919 134.854 134.829 134.774 134.714 134.687 134.652 134.597 134.549 134.449 134.357 134.302 134.249 134.199 134.174 134.152 134.159 134.184 134.159 134.147 134.139 134.142 134.119 134.099 134.077 134.072
108.879 109.272 109.622 109.979 110.362 110.724 111.122 111.494 111.862 112.177 112.502 112.832 113.144 113.454 113.727 114.037 114.302 114.432 114.657 115.132 115.362 115.919 116.527 117.229 117.902 118.369 118.754 119.099 119.447 119.769 120.042 120.299 120.499 120.632 120.792 121.302 122.092 122.147 122.162 121.812 121.767 121.897 122.097 122.219 122.362 122.547 122.667 122.822 122.994 123.172 123.349 123.522 123.689 123.897 124.062 124.219 124.382 124.537 124.697 125.257 125.774 127.069 126.114 126.164 126.667 127.042 127.119 127.059 126.934 126.937 126.999 127.209 127.442 127.647 127.894 128.152 128.417 128.664 128.929 129.197 129.482 129.754 130.034 130.324 130.612 130.934 131.232 131.512 131.802 132.079 132.347 132.607 132.879 133.127 133.399 133.659 133.934 134.207 134.474 134.749 135.009 135.272 135.502 135.719 135.962 136.152 136.332 136.559 136.757 136.929 137.099 137.277 137.469 137.624 137.799 138.002 138.204 138.357 138.514 138.709 138.907 139.077 139.247 139.349 139.442 139.532 140.357 142.369 141.437 141.217 142.419 141.532 144.237 144.949 145.047 142.309 142.549 142.567 142.979 143.189 143.014 143.234 143.422 143.447 143.604 143.824 143.724 143.389 143.207 143.364 143.984 143.962 144.717 144.834 144.819 144.934 145.147 145.249 145.857 145.717 145.742 146.177 146.019 145.969 145.819 146.107 146.489 146.392 146.487 146.394 146.509 146.827 147.472 147.622 147.454 147.867 147.952 147.697 147.772 148.304 148.344 148.859 148.984 148.342 148.102 147.412 147.154 146.919 146.979 146.974 147.182 147.142 147.117 147.102 147.102 147.164 147.224 147.284 147.329 147.357 147.414 147.477 147.504 147.552 147.632 147.677 147.687 147.739 147.752 147.802 147.857 147.929 147.992 148.024 148.027 148.064 148.102 148.164 148.164 148.189 148.157 148.122 148.104 148.087 148.082 148.057 148.064 148.054 148.027 147.989 147.947 147.892 147.869 147.849 147.822 147.744 147.667 147.622 147.599 147.574 147.512 147.487 147.457 147.379 147.332 147.224 147.142 147.097 147.074 147.029 146.942 146.849 146.754 146.632 146.552 146.484 146.464 146.419 146.314 146.229 146.114 145.979 145.864 145.779 145.674 145.619 145.522 145.429 145.314 145.187 145.039 144.912 144.764 144.672 144.544 144.424 144.322 144.207 144.054 143.942 143.787 143.667 143.509 143.367 143.199 143.059 142.914 142.779 142.657 142.537 142.432 142.317 142.194 142.047 141.934 141.782 141.672 141.514 141.382 141.227 141.072 140.904 140.729 140.569 140.422 140.232 140.042 139.837 139.692 139.532 139.399 139.202 139.032 138.857 138.634 138.474 138.307 138.132 137.974 137.767 137.587 137.462 137.409 137.362 137.454 137.347 137.389 137.232 137.192 137.014 137.387 137.299 136.724 136.287 137.262 137.947 140.797 143.307 141.649 137.054 136.044 135.869 135.734 135.674 135.539 135.449 135.337 135.209 135.124 135.014 134.929 134.874 134.807 134.762 134.709 134.642 134.609 134.567 134.527 134.457 134.399 134.382 134.339 134.302 134.212 134.102 134.057 134.004 133.959 133.912 133.899 133.902 133.937 133.927 133.894 133.884 133.899 133.867 133.862 133.842 133.822
108.492 108.854 109.197 109.542 109.877 110.274 110.692 111.034 111.367 111.699 112.009 112.354 112.659 112.942 113.252 113.517 113.737 113.837 114.214 114.572 115.137 115.327 115.862 116.614 117.354 117.904 118.344 118.717 119.084 119.382 119.687 119.962 120.177 120.339 120.642 121.667 121.834 121.847 121.564 121.379 121.549 121.697 121.832 121.974 122.149 122.289 122.477 122.657 122.829 122.974 123.189 123.359 123.534 123.714 123.909 124.054 124.222 124.429 124.557 124.677 125.474 126.272 126.489 126.942 126.209 127.257 127.029 127.077 127.024 126.974 126.989 127.097 127.272 127.504 127.744 127.987 128.249 128.517 128.772 129.029 129.312 129.579 129.859 130.172 130.469 130.769 131.062 131.357 131.654 131.922 132.197 132.452 132.712 132.984 133.229 133.489 133.757 134.044 134.344 134.594 134.867 135.107 135.344 135.617 135.837 136.042 136.244 136.457 136.649 136.827 136.999 137.197 137.402 137.559 137.749 137.929 138.129 138.269 138.432 138.654 138.804 138.979 139.099 139.187 139.529 141.027 141.097 141.004 140.792 141.207 141.504 141.699 141.719 143.679 145.564 142.054 142.439 142.529 142.444 142.917 143.529 142.867 143.184 143.672 143.662 143.739 144.054 143.619 143.272 147.334 145.959 145.597 144.634 146.004 145.882 145.329 145.149 145.144 144.947 145.217 147.249 149.227 146.012 146.374 146.052 145.752 145.742 146.632 147.182 147.057 146.964 146.992 147.229 147.437 147.347 147.649 147.802 147.879 147.892 148.039 148.374 148.039 147.547 147.669 147.407 147.147 146.837 146.874 146.899 146.947 146.922 146.917 146.914 146.949 147.007 147.042 147.112 147.149 147.204 147.287 147.314 147.372 147.419 147.497 147.584 147.619 147.647 147.659 147.694 147.742 147.804 147.862 147.939 147.967 147.994 148.007 148.054 148.074 148.112 148.067 148.082 148.049 148.027 148.009 147.987 147.994 147.974 147.952 147.962 147.897 147.857 147.842 147.822 147.774 147.692 147.612 147.559 147.539 147.484 147.457 147.409 147.392 147.334 147.264 147.182 147.107 147.004 147.007 146.942 146.862 146.772 146.699 146.589 146.489 146.429 146.382 146.334 146.252 146.189 146.072 145.974 145.827 145.749 145.634 145.557 145.467 145.392 145.229 145.122 144.997 144.864 144.757 144.612 144.497 144.367 144.247 144.127 143.992 143.824 143.699 143.547 143.452 143.299 143.144 143.002 142.852 142.709 142.592 142.489 142.374 142.252 142.112 141.992 141.857 141.739 141.642 141.487 141.314 141.177 141.042 140.862 140.694 140.504 140.349 140.182 139.984 139.784 139.612 139.477 139.329 139.159 138.979 138.812 138.592 138.417 138.232 138.042 137.844 137.674 137.497 137.319 137.189 137.104 137.117 137.379 137.284 137.052 136.987 137.049 137.137 137.354 138.452 136.037 135.874 135.819 135.752 139.074 142.427 140.012 139.077 136.954 135.654 135.469 135.402 135.314 135.227 135.127 135.007 134.904 134.799 134.697 134.617 134.562 134.489 134.447 134.407 134.344 134.292 134.244 134.192 134.149 134.107 134.102 134.054 133.967 133.864 133.822 133.759 133.694 133.654 133.649 133.667 133.672 133.679 133.669 133.647 133.647 133.642 133.617 133.617 133.582
108.082 108.452 108.772 109.104 109.459 109.839 110.234 110.599 110.914 111.242 111.569 111.882 112.194 112.464 112.722 113.024 113.252 113.352 113.672 114.072 114.567 115.122 115.239 115.962 116.782 117.404 117.942 118.299 118.669 118.992 119.292 119.592 119.829 120.089 120.897 121.449 121.267 121.114 121.029 121.137 121.309 121.464 121.569 121.719 121.902 122.057 122.259 122.429 122.634 122.817 123.017 123.164 123.377 123.524 123.717 123.879 124.059 124.289 124.442 124.582 124.842 125.689 126.604 127.329 127.427 126.272 126.849 127.049 127.084 127.054 126.982 127.022 127.164 127.394 127.637 127.889 128.124 128.374 128.627 128.897 129.189 129.454 129.747 130.054 130.357 130.652 130.929 131.212 131.507 131.774 132.054 132.297 132.547 132.827 133.067 133.342 133.637 133.907 134.192 134.462 134.707 134.957 135.244 135.479 135.709 135.912 136.127 136.344 136.552 136.742 136.919 137.127 137.317 137.512 137.717 137.884 138.032 138.197 138.404 138.559 138.707 138.852 138.957 139.427 140.717 140.929 141.034 141.179 141.387 141.289 141.357 141.499 141.697 141.594 142.087 142.027 142.274 142.237 142.382 142.854 143.292 143.117 143.069 143.659 143.732 143.764 144.049 143.974 143.754 145.857 144.942 145.129 144.607 144.537 146.807 144.929 145.109 145.062 145.152 145.939 147.562 147.342 145.924 146.292 146.259 145.727 145.609 146.484 147.169 147.399 147.334 147.184 147.154 147.294 147.314 147.582 148.002 147.852 147.732 147.544 147.347 147.142 147.174 147.337 146.904 146.769 146.679 146.732 146.764 146.774 146.744 146.724 146.829 146.862 146.909 146.964 146.987 147.059 147.142 147.197 147.239 147.294 147.369 147.432 147.504 147.557 147.554 147.557 147.587 147.629 147.689 147.792 147.852 147.884 147.902 147.914 147.954 147.989 147.992 147.972 147.957 147.949 147.914 147.899 147.912 147.879 147.902 147.904 147.874 147.839 147.809 147.764 147.739 147.682 147.602 147.549 147.504 147.459 147.389 147.337 147.317 147.259 147.197 147.137 147.062 146.979 146.889 146.862 146.792 146.729 146.649 146.542 146.467 146.389 146.334 146.264 146.199 146.117 146.034 145.942 145.822 145.719 145.592 145.534 145.429 145.357 145.204 145.057 144.972 144.824 144.724 144.607 144.459 144.337 144.192 144.064 143.944 143.774 143.614 143.484 143.329 143.234 143.069 142.917 142.762 142.629 142.497 142.384 142.279 142.172 142.057 141.922 141.779 141.662 141.577 141.427 141.277 141.129 140.972 140.819 140.664 140.497 140.284 140.127 139.924 139.757 139.594 139.437 139.267 139.109 138.947 138.779 138.564 138.392 138.189 138.044 137.834 137.622 137.437 137.262 137.109 136.932 136.794 136.684 136.762 136.899 136.842 137.132 137.359 136.942 136.672 140.282 135.694 135.564 135.592 136.264 137.397 137.499 135.254 135.252 135.814 136.254 135.549 135.364 135.577 135.014 134.877 134.777 134.672 134.589 134.487 134.377 134.299 134.229 134.164 134.124 134.069 134.027 133.974 133.937 133.899 133.844 133.829 133.797 133.712 133.622 133.584 133.512 133.482 133.437 133.414 133.417 133.417 133.422 133.422 133.407 133.429 133.397 133.369 133.382 133.347
107.704 108.042 108.382 108.727 109.049 109.442 109.832 110.159 110.497 110.837 111.147 111.467 111.707 111.984 112.264 112.552 112.804 112.947 113.139 113.644 114.067 114.339 114.647 115.432 116.249 116.932 117.454 117.877 118.212 118.574 118.889 119.164 119.472 120.259 120.972 121.189 121.067 120.764 120.799 120.929 121.072 121.199 121.349 121.509 121.672 121.852 122.054 122.249 122.424 122.634 122.807 123.002 123.199 123.359 123.544 123.719 123.932 124.117 124.294 124.472 124.612 124.909 125.809 126.852 127.862 127.204 126.437 127.817 127.024 127.094 127.027 127.012 127.109 127.274 127.517 127.789 128.032 128.272 128.527 128.832 129.099 129.364 129.657 129.954 130.224 130.517 130.802 131.109 131.359 131.642 131.892 132.174 132.427 132.677 132.959 133.222 133.517 133.784 134.052 134.294 134.569 134.852 135.102 135.347 135.574 135.799 136.034 136.249 136.457 136.667 136.892 137.084 137.277 137.482 137.664 137.827 138.004 138.199 138.362 138.494 138.682 138.817 139.404 140.209 139.917 140.157 140.542 140.829 140.997 141.284 141.337 141.364 141.487 141.474 141.809 142.127 142.262 142.502 142.274 142.499 142.852 143.139 143.172 143.592 143.477 143.599 143.757 143.862 143.894 144.332 144.392 144.489 144.454 144.729 144.749 145.042 145.137 144.877 145.157 145.459 145.564 145.457 146.302 146.224 146.092 145.699 145.814 145.757 146.467 146.557 146.727 146.724 146.717 146.989 146.879 147.297 147.364 147.524 147.257 147.007 146.684 147.599 147.354 146.789 146.529 146.599 146.692 146.767 146.674 146.617 146.627 146.692 146.727 146.779 146.832 146.872 146.919 146.992 147.047 147.102 147.152 147.237 147.302 147.387 147.444 147.454 147.444 147.489 147.522 147.552 147.589 147.679 147.717 147.742 147.779 147.819 147.859 147.892 147.917 147.874 147.889 147.857 147.862 147.829 147.839 147.827 147.832 147.827 147.787 147.757 147.712 147.714 147.659 147.604 147.557 147.514 147.412 147.367 147.299 147.254 147.179 147.117 147.079 147.012 146.927 146.829 146.782 146.727 146.684 146.597 146.524 146.459 146.384 146.297 146.224 146.134 146.069 145.984 145.889 145.784 145.684 145.562 145.477 145.404 145.319 145.199 145.042 144.904 144.779 144.687 144.572 144.444 144.337 144.197 144.069 143.937 143.742 143.584 143.414 143.262 143.159 142.997 142.859 142.724 142.584 142.449 142.314 142.179 142.089 141.947 141.852 141.699 141.572 141.474 141.372 141.234 141.062 140.924 140.764 140.619 140.464 140.272 140.094 139.902 139.729 139.557 139.397 139.234 139.054 138.897 138.739 138.574 138.382 138.192 138.027 137.819 137.604 137.399 137.274 137.119 136.947 136.759 136.552 136.409 136.307 136.344 136.607 137.162 137.669 136.702 135.907 135.529 135.469 135.317 135.159 135.754 135.707 135.867 135.689 134.834 134.619 135.239 135.637 136.159 140.332 136.884 134.734 134.542 134.442 134.347 134.259 134.147 134.062 133.999 133.917 133.854 133.807 133.749 133.722 133.689 133.629 133.594 133.582 133.529 133.442 133.384 133.327 133.264 133.219 133.189 133.172 133.152 133.144 133.144 133.147 133.147 133.172 133.154 133.134 133.132 133.112
107.309 107.659 107.972 108.312 108.679 109.077 109.479 109.802 110.134 110.432 110.737 111.019 111.289 111.552 111.819 112.109 112.369 112.572 112.727 113.127 113.544 113.749 114.314 115.042 115.802 116.447 116.974 117.387 117.777 118.137 118.404 118.759 119.354 120.567 120.439 120.867 120.452 120.352 120.522 120.672 120.792 120.934 121.114 121.262 121.454 121.657 121.842 122.022 122.234 122.429 122.627 122.842 123.002 123.184 123.357 123.564 123.774 123.962 124.144 124.347 124.514 124.682 125.099 125.869 126.437 127.209 127.654 126.832 126.804 127.049 127.119 127.067 127.114 127.237 127.447 127.699 127.939 128.194 128.457 128.744 129.022 129.292 129.582 129.859 130.122 130.397 130.699 130.984 131.267 131.529 131.794 132.039 132.317 132.572 132.844 133.134 133.404 133.664 133.897 134.159 134.459 134.749 134.989 135.219 135.474 135.727 135.922 136.179 136.399 136.607 136.834 137.044 137.242 137.442 137.627 137.814 137.997 138.174 138.314 138.499 139.147 139.979 140.032 140.819 140.357 140.659 140.772 140.717 140.702 140.829 143.069 141.414 141.137 141.329 141.757 141.734 141.812 141.867 141.787 142.134 142.239 142.767 142.774 142.839 142.902 144.354 143.462 143.452 143.837 144.009 144.274 144.369 144.364 144.429 144.584 144.777 144.969 144.927 144.919 144.987 144.999 145.062 145.437 145.719 145.964 146.274 146.607 145.812 145.724 145.914 146.217 146.489 148.142 148.997 146.439 146.762 146.877 146.637 146.502 146.564 146.587 147.362 146.957 146.469 146.434 146.524 146.627 146.602 146.532 146.544 146.587 146.662 146.679 146.752 146.777 146.812 146.852 146.909 146.949 147.027 147.097 147.174 147.262 147.324 147.362 147.367 147.399 147.419 147.447 147.444 147.492 147.539 147.597 147.619 147.669 147.722 147.774 147.809 147.809 147.814 147.794 147.789 147.769 147.764 147.739 147.769 147.759 147.747 147.709 147.664 147.652 147.627 147.594 147.549 147.492 147.429 147.377 147.314 147.247 147.152 147.067 147.012 146.952 146.882 146.802 146.762 146.699 146.624 146.572 146.492 146.437 146.349 146.267 146.157 146.087 146.002 145.912 145.847 145.747 145.649 145.552 145.437 145.367 145.277 145.152 145.037 144.899 144.772 144.664 144.539 144.429 144.339 144.214 144.094 143.952 143.782 143.594 143.432 143.254 143.107 142.949 142.807 142.677 142.544 142.382 142.237 142.084 141.967 141.867 141.747 141.607 141.499 141.412 141.309 141.199 141.044 140.897 140.732 140.549 140.419 140.247 140.102 139.929 139.714 139.542 139.402 139.229 139.037 138.869 138.682 138.522 138.367 138.189 137.997 137.829 137.659 137.419 137.234 137.097 136.967 136.787 136.614 136.442 136.309 136.109 135.884 135.772 135.997 136.244 136.314 138.794 135.774 135.224 135.074 134.939 135.157 135.347 135.094 135.252 134.829 136.194 135.239 134.764 137.399 139.144 139.294 135.207 134.319 134.254 134.087 134.022 133.932 133.839 133.752 133.684 133.609 133.552 133.494 133.452 133.414 133.354 133.307 133.289 133.244 133.182 133.097 133.059 133.019 132.979 132.952 132.919 132.884 132.882 132.874 132.879 132.887 132.889 132.884 132.877 132.867 132.867
106.942 107.264 107.617 107.977 108.347 108.747 109.104 109.467 109.789 110.084 110.344 110.629 110.857 111.132 111.394 111.667 111.949 112.242 112.529 112.787 113.109 113.587 114.164 114.857 115.492 115.984 116.469 116.917 117.277 117.657 117.964 118.397 119.649 120.457 120.252 120.332 119.977 120.112 120.254 120.412 120.529 120.664 120.857 121.029 121.247 121.432 121.647 121.829 122.044 122.212 122.437 122.644 122.804 123.014 123.187 123.412 123.599 123.817 124.027 124.199 124.367 124.542 124.722 125.144 126.137 126.479 126.542 126.772 126.614 126.897 127.142 127.169 127.147 127.212 127.369 127.612 127.872 128.112 128.397 128.672 128.932 129.227 129.499 129.777 130.057 130.309 130.599 130.874 131.122 131.392 131.679 131.937 132.212 132.489 132.749 133.027 133.274 133.562 133.789 134.099 134.374 134.637 134.892 135.142 135.384 135.637 135.857 136.109 136.339 136.567 136.769 136.979 137.184 137.412 137.604 137.774 137.919 138.107 138.459 139.132 140.389 140.759 140.084 140.922 140.694 140.602 140.709 140.994 140.979 140.612 140.667 140.882 140.814 140.939 141.107 141.272 141.427 141.509 142.142 142.067 142.287 142.507 142.479 142.984 142.767 143.152 143.097 143.094 143.432 143.484 143.794 143.839 143.937 144.062 144.289 144.264 144.704 144.497 144.712 145.322 144.924 144.847 145.352 145.712 145.557 145.932 146.299 146.317 146.017 146.457 146.202 146.257 145.997 146.172 146.054 146.069 146.204 146.342 146.617 146.604 146.674 146.579 146.349 146.337 146.424 146.459 146.509 146.452 146.454 146.492 146.547 146.559 146.627 146.684 146.749 146.759 146.789 146.832 146.882 146.967 147.044 147.114 147.172 147.242 147.259 147.292 147.322 147.342 147.327 147.369 147.397 147.459 147.519 147.582 147.599 147.667 147.709 147.697 147.709 147.707 147.684 147.702 147.674 147.679 147.677 147.659 147.669 147.642 147.604 147.604 147.597 147.582 147.524 147.479 147.437 147.372 147.307 147.234 147.144 147.054 146.987 146.919 146.854 146.794 146.734 146.672 146.597 146.532 146.467 146.389 146.312 146.222 146.122 146.052 145.952 145.877 145.779 145.702 145.602 145.489 145.399 145.327 145.259 145.129 145.002 144.867 144.747 144.652 144.514 144.404 144.287 144.199 144.087 143.977 143.824 143.632 143.429 143.264 143.102 142.947 142.777 142.629 142.517 142.332 142.187 142.009 141.899 141.789 141.662 141.539 141.419 141.349 141.272 141.154 140.994 140.852 140.709 140.527 140.374 140.212 140.039 139.894 139.722 139.562 139.412 139.239 139.042 138.862 138.672 138.494 138.337 138.182 137.992 137.837 137.629 137.477 137.247 137.059 136.939 136.757 136.577 136.402 136.492 136.467 136.334 135.907 135.537 135.367 135.277 135.152 136.927 135.302 134.989 135.632 135.024 135.074 134.989 134.802 134.669 134.902 135.352 134.777 135.527 139.724 139.374 137.384 136.189 135.487 134.514 133.882 133.879 133.672 133.579 133.512 133.447 133.387 133.322 133.257 133.194 133.127 133.102 133.044 133.017 132.979 132.904 132.824 132.797 132.749 132.704 132.679 132.672 132.619 132.604 132.612 132.627 132.619 132.617 132.607 132.614 132.624 132.614
106.607 106.942 107.297 107.669 108.044 108.384 108.774 109.167 109.477 109.752 109.982 110.272 110.509 110.767 111.009 111.282 111.574 111.907 112.244 112.622 113.034 113.514 114.039 114.617 115.099 115.572 115.989 116.384 116.797 117.139 117.557 118.314 119.587 120.789 120.339 119.614 119.639 119.804 119.987 120.089 120.262 120.434 120.569 120.819 121.022 121.244 121.432 121.644 121.829 122.052 122.244 122.459 122.652 122.849 123.044 123.237 123.457 123.649 123.882 124.062 124.224 124.432 124.614 124.779 125.352 126.064 127.312 127.212 127.059 127.344 127.459 127.179 127.202 127.267 127.344 127.552 127.799 128.067 128.329 128.604 128.884 129.147 129.422 129.714 129.969 130.212 130.472 130.737 131.004 131.279 131.554 131.844 132.134 132.432 132.684 132.932 133.179 133.449 133.759 134.042 134.304 134.549 134.829 135.084 135.344 135.564 135.792 136.012 136.252 136.489 136.714 136.942 137.142 137.297 137.502 137.687 138.072 138.829 140.532 139.987 139.279 139.429 139.999 140.569 140.704 140.537 140.287 140.217 140.202 140.249 140.474 140.534 140.639 140.792 141.017 141.099 141.237 141.714 143.477 143.182 142.534 142.392 142.612 142.809 143.557 143.342 142.994 143.169 144.267 143.692 143.384 143.577 143.717 143.754 143.897 143.764 143.902 144.084 144.252 144.412 144.479 145.112 145.442 145.377 145.309 145.502 145.644 145.962 146.112 145.974 145.937 145.859 145.714 145.734 145.669 146.052 146.052 146.189 146.217 146.467 146.367 146.264 146.252 146.257 146.372 146.347 146.364 146.354 146.409 146.444 146.499 146.507 146.587 146.652 146.684 146.694 146.722 146.759 146.817 146.892 146.952 146.997 147.092 147.144 147.199 147.222 147.239 147.232 147.274 147.304 147.337 147.397 147.459 147.502 147.559 147.609 147.609 147.609 147.602 147.594 147.592 147.567 147.572 147.602 147.584 147.579 147.544 147.542 147.539 147.532 147.507 147.489 147.464 147.412 147.357 147.307 147.257 147.152 147.044 146.977 146.889 146.839 146.794 146.737 146.672 146.614 146.514 146.429 146.379 146.297 146.177 146.122 146.012 145.934 145.847 145.777 145.684 145.582 145.469 145.367 145.289 145.239 145.124 144.979 144.869 144.747 144.642 144.529 144.389 144.277 144.134 144.047 143.964 143.854 143.712 143.512 143.329 143.134 142.939 142.757 142.604 142.492 142.334 142.172 142.024 141.869 141.737 141.612 141.507 141.352 141.224 141.172 141.067 140.949 140.817 140.669 140.484 140.329 140.157 139.992 139.844 139.682 139.552 139.414 139.232 139.057 138.852 138.657 138.484 138.319 138.162 137.974 137.797 137.637 137.474 137.292 137.097 136.922 136.717 136.549 136.432 136.314 136.194 136.614 136.939 136.469 135.752 135.272 134.997 134.842 134.704 134.694 134.759 135.299 134.989 134.887 134.662 134.527 134.497 134.652 134.959 135.107 135.264 135.714 136.672 134.017 134.924 135.564 135.102 136.152 134.559 133.872 133.369 133.289 133.204 133.119 133.097 133.017 132.904 132.872 132.824 132.767 132.722 132.699 132.642 132.557 132.539 132.477 132.434 132.434 132.397 132.344 132.337 132.337 132.319 132.324 132.337 132.337 132.329 132.352 132.342
106.362 106.659 107.017 107.377 107.719 108.082 108.479 108.842 109.179 109.432 109.707 109.959 110.182 110.422 110.687 110.927 111.217 111.539 111.944 112.389 112.817 113.312 113.774 114.242 114.729 115.127 115.544 115.924 116.294 116.704 117.264 118.567 119.182 119.179 119.327 119.172 119.344 119.554 119.704 119.829 119.997 120.164 120.352 120.572 120.794 121.002 121.212 121.432 121.632 121.834 122.059 122.284 122.497 122.704 122.892 123.094 123.367 123.517 123.749 123.952 124.144 124.332 124.532 124.687 124.949 125.429 127.167 127.489 127.029 126.827 127.352 126.987 127.174 127.314 127.304 127.487 127.749 128.002 128.274 128.549 128.822 129.099 129.354 129.592 129.859 130.112 130.379 130.639 130.917 131.182 131.467 131.759 132.067 132.364 132.617 132.852 133.127 133.429 133.717 134.012 134.242 134.504 134.774 135.029 135.274 135.492 135.717 135.942 136.172 136.419 136.649 136.817 137.007 137.177 137.379 137.962 139.127 140.277 139.799 139.237 139.242 139.579 139.909 140.334 140.444 140.577 139.914 140.164 140.609 140.334 140.329 140.634 140.794 141.014 140.939 141.309 142.047 141.784 142.664 142.482 142.144 142.319 142.542 142.909 142.692 143.699 144.359 143.559 144.004 143.844 144.149 143.962 144.457 144.107 145.019 144.439 143.964 144.019 144.247 144.329 144.752 144.654 144.702 145.079 145.029 144.889 145.077 145.117 145.389 145.512 145.432 145.494 145.664 145.537 145.647 145.972 145.962 145.994 145.999 146.054 146.332 146.162 146.104 146.197 146.187 146.212 146.269 146.299 146.352 146.372 146.422 146.477 146.554 146.589 146.584 146.612 146.647 146.697 146.744 146.837 146.884 146.939 146.989 147.049 147.092 147.144 147.169 147.184 147.209 147.232 147.274 147.322 147.372 147.422 147.499 147.514 147.517 147.484 147.489 147.484 147.479 147.482 147.502 147.499 147.489 147.437 147.437 147.449 147.437 147.409 147.402 147.407 147.362 147.319 147.294 147.262 147.154 147.097 147.014 146.927 146.824 146.772 146.739 146.684 146.594 146.494 146.422 146.359 146.277 146.174 146.092 145.992 145.917 145.847 145.739 145.669 145.589 145.482 145.387 145.287 145.197 145.117 144.997 144.882 144.737 144.629 144.517 144.389 144.239 144.112 143.982 143.864 143.817 143.724 143.584 143.364 143.194 142.969 142.782 142.609 142.484 142.314 142.167 142.044 141.882 141.737 141.594 141.464 141.327 141.172 141.059 140.972 140.884 140.749 140.604 140.434 140.262 140.102 139.932 139.772 139.657 139.512 139.374 139.224 139.042 138.859 138.674 138.472 138.297 138.134 137.964 137.784 137.622 137.434 137.287 137.122 136.977 136.779 136.564 136.322 136.314 136.139 136.232 136.707 136.667 136.332 136.907 136.572 134.984 134.719 134.534 134.377 134.344 134.399 134.492 134.399 134.532 134.357 134.412 134.464 134.572 134.607 134.564 133.909 133.774 133.399 134.317 134.289 135.912 135.919 136.947 135.809 133.182 133.029 132.964 132.889 132.819 132.754 132.707 132.629 132.534 132.467 132.459 132.414 132.342 132.257 132.237 132.179 132.147 132.144 132.104 132.047 132.054 132.034 132.044 132.044 132.062 132.052 132.057 132.079 132.069
106.122 106.417 106.732 107.077 107.429 107.797 108.149 108.524 108.827 109.117 109.394 109.632 109.904 110.132 110.354 110.599 110.899 111.262 111.664 112.104 112.549 112.964 113.424 113.854 114.297 114.727 115.072 115.452 115.834 116.284 117.512 118.397 118.484 118.484 118.609 118.822 119.064 119.254 119.414 119.564 119.742 119.909 120.104 120.339 120.582 120.794 121.014 121.217 121.457 121.669 121.864 122.107 122.324 122.539 122.767 122.984 123.209 123.422 123.609 123.847 124.044 124.229 124.412 124.637 124.802 125.112 125.694 126.882 126.697 126.587 126.442 126.894 127.114 127.194 127.309 127.444 127.679 127.939 128.212 128.484 128.769 129.027 129.299 129.534 129.774 130.042 130.309 130.557 130.819 131.087 131.374 131.699 132.004 132.277 132.527 132.827 133.137 133.399 133.687 133.949 134.202 134.457 134.714 134.964 135.207 135.419 135.637 135.859 136.107 136.322 136.509 136.687 136.844 137.024 137.802 139.004 139.839 139.687 139.352 139.064 139.527 139.967 140.042 139.852 139.807 139.832 139.939 140.002 140.172 140.547 140.627 140.692 140.814 141.017 141.109 141.414 141.752 141.584 142.482 142.059 142.164 142.344 142.487 142.672 142.567 143.199 143.644 143.727 143.537 143.757 144.322 144.637 144.379 144.884 144.537 144.874 144.444 144.232 144.442 145.289 145.104 145.729 145.079 144.672 144.907 144.874 144.857 144.834 145.097 145.234 145.194 145.227 145.339 145.469 145.587 146.024 145.962 145.874 146.012 145.847 145.999 145.977 145.974 146.007 146.039 146.089 146.149 146.232 146.269 146.302 146.354 146.422 146.474 146.487 146.514 146.524 146.572 146.649 146.729 146.804 146.852 146.894 146.949 146.994 147.052 147.064 147.077 147.089 147.134 147.167 147.219 147.242 147.297 147.364 147.399 147.399 147.399 147.384 147.409 147.429 147.429 147.437 147.429 147.424 147.389 147.359 147.329 147.304 147.294 147.334 147.359 147.342 147.282 147.234 147.184 147.152 147.109 147.017 146.964 146.862 146.809 146.769 146.734 146.627 146.527 146.427 146.377 146.289 146.189 146.097 145.974 145.892 145.822 145.754 145.682 145.592 145.494 145.402 145.322 145.217 145.117 144.969 144.857 144.754 144.629 144.534 144.389 144.277 144.129 143.954 143.817 143.739 143.659 143.552 143.392 143.217 143.019 142.832 142.647 142.469 142.322 142.147 142.009 141.892 141.722 141.559 141.447 141.297 141.142 140.999 140.894 140.792 140.677 140.549 140.387 140.227 140.064 139.882 139.717 139.574 139.464 139.307 139.157 139.044 138.867 138.684 138.502 138.282 138.124 137.977 137.779 137.582 137.407 137.257 137.107 136.929 136.794 136.567 136.372 136.232 136.037 135.867 136.097 136.349 136.252 136.024 135.839 136.369 134.882 134.592 134.619 134.214 134.082 133.989 133.919 133.834 133.769 133.694 133.799 133.889 133.974 134.102 134.199 133.437 133.404 133.659 133.154 133.334 136.334 136.977 137.347 135.774 134.029 133.569 132.769 132.652 132.697 132.502 132.452 132.399 132.304 132.234 132.187 132.122 132.087 131.984 131.909 131.887 131.879 131.844 131.809 131.784 131.742 131.744 131.742 131.764 131.779 131.769 131.779 131.792 131.782
105.932 106.224 106.497 106.822 107.137 107.489 107.842 108.174 108.497 108.802 109.062 109.329 109.569 109.822 110.064 110.337 110.644 110.987 111.404 111.819 112.219 112.654 113.057 113.482 113.917 114.304 114.687 115.022 115.407 116.057 117.314 118.247 118.582 118.042 118.192 118.492 118.749 118.964 119.152 119.314 119.484 119.664 119.879 120.147 120.344 120.577 120.817 121.042 121.257 121.474 121.707 121.954 122.217 122.404 122.647 122.882 123.119 123.364 123.554 123.762 123.984 124.164 124.374 124.537 124.804 125.052 125.249 126.619 127.829 126.932 127.064 126.727 126.982 127.084 127.294 127.482 127.672 127.914 128.152 128.422 128.677 128.944 129.199 129.454 129.707 129.957 130.197 130.472 130.737 131.012 131.309 131.629 131.927 132.192 132.497 132.817 133.107 133.404 133.654 133.934 134.172 134.427 134.667 134.882 135.119 135.334 135.554 135.792 135.994 136.204 136.354 136.577 136.889 138.092 138.182 138.027 138.567 140.487 139.747 139.142 139.539 139.664 139.932 139.637 139.722 139.964 140.097 140.214 140.977 141.159 140.719 140.777 140.897 140.972 141.104 141.199 141.324 141.637 141.692 141.839 141.852 142.237 142.294 142.494 142.349 142.839 143.157 143.087 143.259 143.459 144.144 144.282 145.024 144.949 144.132 145.042 145.224 144.502 144.857 145.264 145.722 144.752 144.529 144.424 144.767 145.134 144.577 144.664 144.809 144.989 145.029 145.072 145.224 145.344 145.452 145.817 145.907 145.659 145.747 145.772 145.814 145.827 145.842 145.882 145.927 145.974 146.042 146.119 146.172 146.227 146.299 146.349 146.407 146.439 146.447 146.452 146.534 146.614 146.689 146.747 146.804 146.854 146.909 146.947 146.982 146.977 146.982 147.019 147.049 147.117 147.149 147.184 147.232 147.304 147.304 147.262 147.277 147.289 147.319 147.312 147.352 147.392 147.387 147.364 147.312 147.299 147.272 147.257 147.244 147.297 147.294 147.249 147.204 147.157 147.104 147.087 147.039 146.967 146.869 146.812 146.749 146.732 146.644 146.567 146.447 146.369 146.292 146.214 146.119 146.007 145.892 145.812 145.702 145.632 145.589 145.517 145.414 145.319 145.237 145.119 144.987 144.849 144.727 144.634 144.552 144.412 144.277 144.152 143.982 143.824 143.667 143.584 143.489 143.369 143.229 143.047 142.842 142.659 142.484 142.294 142.142 141.994 141.857 141.684 141.517 141.394 141.279 141.139 140.979 140.844 140.724 140.607 140.477 140.334 140.172 140.039 139.874 139.667 139.517 139.404 139.254 139.084 138.954 138.817 138.632 138.479 138.287 138.119 137.939 137.782 137.577 137.427 137.234 137.052 136.917 136.767 136.582 136.372 136.219 136.099 135.889 135.769 136.097 136.289 136.169 135.864 136.154 135.124 134.694 134.694 134.614 134.474 134.074 133.787 133.674 133.532 133.469 133.394 133.307 133.217 133.189 133.134 133.327 133.272 132.992 133.119 133.324 135.822 133.987 133.802 134.017 137.009 137.284 135.089 133.134 132.514 132.489 132.407 132.227 132.117 132.034 131.989 131.892 131.824 131.777 131.687 131.622 131.614 131.569 131.529 131.512 131.479 131.454 131.459 131.467 131.467 131.477 131.487 131.494 131.509 131.514
105.732 106.044 106.287 106.572 106.884 107.184 107.539 107.872 108.169 108.474 108.739 109.034 109.269 109.484 109.757 110.062 110.387 110.759 111.137 111.544 111.927 112.334 112.714 113.149 113.534 113.909 114.229 114.604 115.057 116.304 117.032 117.877 117.514 117.517 117.872 118.184 118.467 118.674 118.874 119.047 119.227 119.449 119.652 119.924 120.137 120.364 120.617 120.844 121.082 121.327 121.569 121.827 122.074 122.302 122.537 122.789 123.029 123.282 123.497 123.714 123.907 124.099 124.314 124.499 124.719 124.954 125.132 125.522 126.539 127.867 127.159 127.042 127.202 127.077 127.234 127.417 127.649 127.877 128.097 128.312 128.609 128.844 129.109 129.392 129.639 129.889 130.129 130.397 130.664 130.969 131.262 131.539 131.849 132.124 132.482 132.787 133.089 133.372 133.647 133.879 134.129 134.349 134.569 134.802 135.049 135.282 135.482 135.662 135.869 136.132 137.054 137.277 137.712 139.999 139.462 138.399 138.022 139.197 139.289 139.004 139.159 139.519 139.439 139.742 139.987 140.134 140.314 140.462 140.932 140.822 140.729 140.807 140.824 140.857 140.977 141.067 141.199 141.417 141.462 141.569 141.704 141.904 141.987 142.122 142.172 142.332 142.467 142.699 142.822 142.904 143.419 143.952 144.449 143.764 144.552 144.024 144.117 143.987 144.184 143.922 144.194 144.309 144.314 144.267 144.459 144.704 144.519 144.689 144.787 144.842 144.967 145.069 145.169 145.247 145.289 145.477 145.504 145.532 145.642 145.699 145.744 145.729 145.757 145.807 145.814 145.874 145.927 145.954 146.062 146.137 146.194 146.272 146.327 146.369 146.362 146.434 146.527 146.582 146.642 146.734 146.764 146.814 146.857 146.922 146.914 146.914 146.952 146.954 147.002 147.034 147.069 147.122 147.207 147.239 147.232 147.209 147.214 147.199 147.227 147.262 147.284 147.304 147.297 147.264 147.259 147.239 147.247 147.244 147.252 147.279 147.247 147.164 147.134 147.104 147.054 147.012 146.972 146.869 146.787 146.722 146.694 146.642 146.594 146.462 146.359 146.259 146.207 146.144 146.027 145.952 145.824 145.719 145.657 145.572 145.504 145.412 145.317 145.247 145.167 145.022 144.862 144.702 144.619 144.514 144.382 144.259 144.137 144.042 143.857 143.714 143.562 143.439 143.317 143.207 143.039 142.842 142.654 142.492 142.317 142.117 141.974 141.844 141.694 141.507 141.367 141.244 141.119 140.949 140.809 140.702 140.554 140.399 140.264 140.112 139.954 139.804 139.649 139.479 139.352 139.247 139.047 138.859 138.717 138.577 138.414 138.274 138.092 137.912 137.764 137.597 137.407 137.232 137.054 136.867 136.754 136.592 136.407 136.202 136.054 135.877 135.689 135.742 136.252 136.202 135.732 135.507 135.397 134.282 134.317 134.324 134.552 134.999 134.747 133.867 133.487 133.292 133.229 133.097 133.062 132.947 132.832 132.837 132.719 132.664 132.729 132.694 132.574 132.337 132.374 132.349 132.137 134.402 135.752 135.594 134.257 133.469 132.359 132.287 132.017 131.864 131.794 131.722 131.584 131.532 131.452 131.419 131.359 131.312 131.272 131.227 131.207 131.152 131.139 131.147 131.162 131.174 131.172 131.182 131.212 131.212 131.222
105.654 105.792 106.059 106.347 106.589 106.897 107.214 107.539 107.867 108.187 108.482 108.737 108.964 109.222 109.482 109.812 110.174 110.509 110.887 111.257 111.634 112.049 112.442 112.839 113.209 113.549 113.879 114.282 115.389 116.467 116.892 117.064 116.832 117.152 117.549 117.887 118.152 118.364 118.602 118.804 118.997 119.214 119.437 119.689 119.927 120.162 120.412 120.662 120.932 121.202 121.447 121.727 121.952 122.199 122.429 122.672 122.944 123.194 123.419 123.642 123.857 124.049 124.267 124.429 124.659 124.862 125.154 125.347 125.637 126.787 127.742 127.669 126.659 126.942 127.197 127.387 127.687 127.829 128.024 128.254 128.499 128.752 129.024 129.289 129.529 129.804 130.057 130.312 130.594 130.877 131.177 131.474 131.762 132.112 132.437 132.739 133.042 133.304 133.564 133.844 134.064 134.287 134.527 134.767 134.977 135.189 135.364 135.512 135.807 137.469 137.094 137.424 137.387 137.719 137.454 138.054 138.579 138.852 141.227 140.512 142.434 141.819 139.639 140.049 139.839 139.869 140.319 140.482 140.654 140.754 140.624 140.654 140.667 140.769 140.862 140.989 141.112 141.282 141.387 141.497 141.634 141.749 141.862 141.967 142.074 142.154 142.287 142.382 142.507 142.669 142.962 143.199 143.204 143.254 143.359 143.497 143.622 143.579 143.699 143.827 143.974 144.042 144.112 144.169 144.257 144.379 144.497 144.622 144.722 144.787 144.842 144.967 145.069 145.159 145.237 145.324 145.389 145.452 145.537 145.604 145.614 145.639 145.659 145.709 145.719 145.757 145.819 145.887 145.972 146.052 146.124 146.177 146.252 146.264 146.324 146.404 146.497 146.539 146.599 146.672 146.722 146.772 146.842 146.849 146.852 146.864 146.882 146.887 146.934 146.972 146.989 147.074 147.109 147.129 147.152 147.164 147.154 147.167 147.174 147.197 147.204 147.199 147.202 147.219 147.189 147.172 147.184 147.219 147.224 147.189 147.137 147.107 147.074 147.027 146.997 146.949 146.884 146.812 146.734 146.677 146.607 146.564 146.464 146.384 146.264 146.194 146.119 146.049 145.942 145.844 145.757 145.687 145.579 145.494 145.382 145.317 145.249 145.179 145.034 144.887 144.729 144.587 144.494 144.364 144.247 144.154 144.037 143.884 143.734 143.592 143.449 143.334 143.189 143.047 142.887 142.694 142.519 142.339 142.139 141.967 141.829 141.657 141.487 141.319 141.194 141.097 140.972 140.802 140.662 140.507 140.357 140.209 140.049 139.882 139.744 139.599 139.452 139.332 139.184 139.072 138.869 138.702 138.537 138.347 138.199 138.054 137.887 137.717 137.559 137.409 137.222 137.059 136.849 136.672 136.547 136.389 136.204 136.037 135.869 135.789 135.572 135.937 136.654 136.199 135.829 135.067 134.389 134.247 134.202 134.014 134.762 134.902 134.717 133.954 133.394 133.207 133.044 132.904 132.794 132.694 132.622 132.519 132.429 132.334 132.287 132.197 132.179 132.084 132.199 132.129 132.054 131.777 131.644 133.964 134.922 134.497 134.559 132.957 131.934 131.639 131.537 131.434 131.304 131.254 131.159 131.122 131.112 131.042 130.984 130.942 130.919 130.892 130.844 130.857 130.832 130.867 130.874 130.902 130.914 130.942 130.954
105.924 105.867 105.814 106.097 106.327 106.597 106.917 107.209 107.534 107.862 108.174 108.422 108.657 108.927 109.247 109.577 109.922 110.254 110.647 111.027 111.394 111.777 112.177 112.519 112.892 113.214 113.539 114.257 115.334 116.122 116.939 116.252 116.439 116.842 117.232 117.579 117.864 118.109 118.334 118.532 118.737 118.964 119.207 119.474 119.692 120.002 120.249 120.542 120.792 121.059 121.312 121.569 121.837 122.089 122.322 122.584 122.852 123.114 123.359 123.587 123.822 124.067 124.237 124.437 124.622 124.857 125.102 125.334 125.544 125.897 126.452 127.872 127.079 127.607 127.152 127.387 127.607 127.902 128.197 128.317 128.434 128.677 128.929 129.169 129.449 129.739 129.994 130.234 130.512 130.792 131.097 131.377 131.722 132.034 132.359 132.664 132.947 133.217 133.469 133.767 134.009 134.249 134.444 134.632 134.857 134.994 135.382 136.314 136.334 136.492 136.459 136.789 137.572 137.599 137.982 138.137 138.564 138.379 138.389 139.312 141.132 141.722 139.607 139.684 139.637 139.839 140.214 140.337 140.422 140.479 140.539 140.582 140.692 140.784 140.892 141.017 141.157 141.292 141.397 141.527 141.629 141.729 141.844 141.957 142.074 142.172 142.282 142.384 142.497 142.612 142.719 142.827 142.984 143.117 143.242 143.317 143.404 143.504 143.624 143.737 143.812 143.917 143.969 144.054 144.169 144.269 144.394 144.499 144.624 144.704 144.792 144.844 144.917 145.024 145.134 145.237 145.297 145.384 145.427 145.489 145.507 145.537 145.557 145.602 145.644 145.679 145.734 145.804 145.867 145.937 146.029 146.099 146.157 146.189 146.264 146.359 146.402 146.474 146.549 146.614 146.642 146.732 146.744 146.767 146.777 146.777 146.809 146.839 146.877 146.894 146.947 146.989 147.014 147.074 147.122 147.074 147.087 147.112 147.107 147.109 147.094 147.112 147.117 147.132 147.114 147.107 147.139 147.144 147.112 147.072 147.052 147.039 147.002 146.977 146.939 146.889 146.822 146.769 146.692 146.594 146.542 146.474 146.399 146.297 146.202 146.144 146.059 145.947 145.854 145.772 145.709 145.622 145.509 145.382 145.297 145.242 145.182 145.069 144.917 144.754 144.607 144.484 144.359 144.227 144.132 144.022 143.894 143.779 143.642 143.527 143.394 143.222 143.087 142.937 142.767 142.594 142.384 142.194 142.019 141.837 141.694 141.509 141.317 141.179 141.044 140.912 140.764 140.622 140.477 140.307 140.199 140.039 139.872 139.689 139.539 139.402 139.252 139.147 138.999 138.864 138.702 138.529 138.372 138.212 138.024 137.907 137.719 137.562 137.399 137.237 137.044 136.879 136.654 136.494 136.362 136.169 136.054 135.912 135.712 135.737 135.627 135.887 136.094 135.642 135.797 134.957 134.037 133.989 133.997 134.119 134.657 134.652 134.129 133.672 133.239 133.047 132.882 132.722 132.562 132.427 132.349 132.237 132.169 132.109 132.022 131.932 131.859 131.884 131.857 132.014 132.119 131.839 131.494 131.352 132.442 134.804 133.169 131.802 132.107 131.837 133.204 131.882 131.049 130.987 130.912 130.859 130.817 130.757 130.722 130.677 130.632 130.589 130.562 130.557 130.547 130.562 130.584 130.622 130.637 130.674 130.664
104.722 106.244 105.769 105.829 106.069 106.347 106.614 106.899 107.222 107.519 107.799 108.052 108.324 108.649 108.959 109.307 109.652 110.022 110.389 110.782 111.179 111.547 111.919 112.267 112.569 112.892 113.392 114.519 115.387 116.147 115.647 115.697 116.109 116.524 116.922 117.277 117.579 117.837 118.072 118.267 118.497 118.754 119.004 119.264 119.527 119.812 120.089 120.382 120.664 120.927 121.192 121.459 121.707 121.974 122.247 122.499 122.797 123.052 123.277 123.544 123.792 124.062 124.214 124.404 124.614 124.844 125.099 125.314 125.582 125.799 126.109 127.749 128.947 127.277 127.372 127.512 127.607 128.037 128.347 128.392 128.484 128.599 128.852 129.109 129.384 129.659 129.887 130.172 130.449 130.719 130.977 131.319 131.632 131.952 132.277 132.592 132.887 133.134 133.439 133.692 133.907 134.112 134.312 134.509 135.069 136.042 136.539 136.849 136.804 137.079 137.184 137.087 137.244 137.337 137.757 137.842 137.869 138.022 138.042 138.334 138.534 139.064 139.247 139.629 139.604 139.829 140.124 140.154 140.217 140.324 140.457 140.584 140.709 140.824 140.957 141.054 141.187 141.299 141.407 141.514 141.589 141.704 141.844 141.939 142.024 142.139 142.259 142.384 142.524 142.592 142.709 142.867 142.967 143.097 143.224 143.329 143.389 143.472 143.582 143.674 143.787 143.862 143.954 144.032 144.127 144.234 144.357 144.467 144.562 144.644 144.737 144.772 144.877 144.967 145.104 145.169 145.219 145.292 145.334 145.382 145.409 145.422 145.469 145.507 145.552 145.614 145.664 145.704 145.774 145.872 145.932 145.989 146.067 146.132 146.217 146.259 146.329 146.417 146.487 146.549 146.607 146.639 146.652 146.667 146.694 146.699 146.742 146.792 146.802 146.837 146.867 146.872 146.947 146.987 146.992 146.987 147.017 147.052 147.042 147.022 147.014 147.024 147.042 147.044 147.029 147.034 147.064 147.049 146.997 146.992 147.009 146.952 146.939 146.902 146.862 146.787 146.764 146.697 146.654 146.574 146.509 146.424 146.337 146.214 146.129 146.074 145.949 145.877 145.812 145.722 145.644 145.547 145.437 145.277 145.214 145.147 145.079 144.967 144.794 144.649 144.509 144.389 144.229 144.142 144.017 143.902 143.782 143.647 143.529 143.417 143.297 143.142 143.009 142.862 142.654 142.459 142.264 142.082 141.892 141.717 141.544 141.384 141.204 141.052 140.902 140.739 140.589 140.444 140.297 140.162 140.037 139.897 139.679 139.522 139.374 139.207 139.099 138.962 138.804 138.684 138.524 138.362 138.157 137.992 137.869 137.729 137.582 137.439 137.269 137.059 136.869 136.687 136.499 136.369 136.172 136.024 135.922 135.887 135.679 135.537 135.674 136.007 136.049 135.479 134.842 133.979 133.929 133.952 134.299 134.582 134.294 133.994 133.444 133.159 132.992 132.814 132.687 132.534 132.427 132.304 132.152 131.984 131.904 131.814 131.747 131.689 131.584 131.477 131.442 131.389 131.432 131.397 131.369 131.154 130.959 130.767 130.619 131.182 131.049 131.092 131.559 134.604 133.917 131.129 130.729 130.649 130.557 130.504 130.452 130.417 130.397 130.334 130.314 130.272 130.272 130.289 130.292 130.307 130.354 130.382 130.397
103.984 105.224 105.649 105.594 105.809 106.102 106.354 106.614 106.902 107.204 107.467 107.767 108.057 108.374 108.707 109.027 109.389 109.789 110.174 110.557 110.944 111.324 111.667 111.969 112.294 112.599 113.462 114.704 115.122 115.179 114.984 115.377 115.777 116.199 116.629 116.974 117.292 117.557 117.787 118.034 118.294 118.562 118.814 119.102 119.422 119.704 119.974 120.247 120.522 120.789 121.022 121.337 121.594 121.884 122.187 122.462 122.747 123.007 123.249 123.499 123.767 123.989 124.184 124.372 124.642 124.849 125.084 125.302 125.584 125.819 126.062 126.557 127.152 127.457 127.629 127.347 128.239 128.072 128.522 128.584 128.717 128.569 128.792 129.037 129.319 129.579 129.827 130.104 130.357 130.609 130.904 131.229 131.542 131.857 132.162 132.477 132.787 133.052 133.324 133.569 133.824 133.989 134.412 135.407 136.152 136.294 135.762 136.052 136.314 137.582 136.852 137.327 137.072 137.357 137.319 137.279 137.427 137.749 138.282 138.589 138.879 138.949 138.912 139.147 139.482 139.677 139.849 140.049 140.227 140.379 140.514 140.602 140.729 140.864 140.964 141.047 141.164 141.269 141.364 141.484 141.579 141.669 141.787 141.899 142.007 142.112 142.237 142.369 142.512 142.609 142.767 142.859 142.972 143.114 143.222 143.354 143.444 143.529 143.617 143.702 143.799 143.887 144.009 144.067 144.159 144.244 144.362 144.467 144.549 144.639 144.679 144.752 144.817 144.887 144.952 145.049 145.107 145.199 145.259 145.302 145.307 145.359 145.382 145.429 145.514 145.544 145.574 145.634 145.709 145.764 145.842 145.914 146.012 146.079 146.107 146.177 146.274 146.354 146.409 146.459 146.502 146.517 146.559 146.552 146.584 146.612 146.669 146.719 146.754 146.759 146.767 146.817 146.862 146.887 146.899 146.917 146.969 146.982 146.974 146.964 146.964 146.972 146.984 146.967 146.959 146.964 146.952 146.947 146.917 146.924 146.884 146.862 146.829 146.807 146.772 146.712 146.694 146.672 146.599 146.524 146.477 146.399 146.299 146.194 146.112 146.004 145.919 145.819 145.757 145.689 145.602 145.497 145.329 145.242 145.179 145.092 144.999 144.852 144.697 144.589 144.432 144.299 144.147 144.022 143.917 143.799 143.682 143.547 143.422 143.317 143.197 143.097 142.949 142.754 142.559 142.357 142.179 141.994 141.792 141.602 141.424 141.254 141.102 140.929 140.757 140.604 140.462 140.314 140.182 140.032 139.892 139.714 139.557 139.407 139.244 139.107 138.942 138.777 138.632 138.482 138.304 138.167 137.992 137.852 137.679 137.539 137.407 137.264 137.089 136.872 136.712 136.549 136.349 136.192 136.034 135.882 135.749 135.657 135.532 135.672 135.994 136.102 135.847 135.389 134.532 133.749 134.042 134.089 134.199 133.967 133.574 133.379 133.084 132.864 132.649 132.584 132.467 132.339 132.234 132.082 132.044 131.872 131.682 131.624 131.464 131.397 131.287 131.222 131.144 131.019 130.937 130.872 130.784 130.862 130.787 130.444 130.342 130.992 132.129 131.537 130.232 132.979 132.364 133.852 132.834 131.642 130.362 130.259 130.247 130.192 130.112 130.109 130.084 130.037 130.012 130.012 130.009 130.034 130.059 130.099 130.134
103.639 104.084 105.157 105.844 105.607 105.834 106.092 106.354 106.642 106.899 107.194 107.474 107.799 108.099 108.414 108.769 109.177 109.577 109.972 110.372 110.769 111.122 111.409 111.704 111.997 112.469 113.824 114.424 114.724 114.402 114.682 115.094 115.492 115.897 116.297 116.689 116.977 117.264 117.522 117.799 118.067 118.389 118.662 118.984 119.287 119.577 119.859 120.127 120.367 120.634 120.912 121.217 121.512 121.814 122.137 122.432 122.707 122.949 123.204 123.467 123.807 123.992 124.169 124.427 124.644 124.839 125.057 125.309 125.547 125.747 126.004 126.237 126.759 127.462 128.872 127.929 129.649 127.859 128.482 128.837 128.842 128.612 128.742 128.977 129.242 129.494 129.762 129.997 130.254 130.539 130.874 131.134 131.444 131.769 132.079 132.419 132.664 132.937 133.204 133.402 133.702 134.099 135.109 135.229 135.202 135.987 135.877 136.269 136.237 136.359 136.859 136.902 136.974 136.899 136.852 137.074 137.167 137.619 138.267 138.544 138.619 138.577 138.832 138.979 139.249 139.512 139.754 139.992 140.182 140.339 140.442 140.577 140.714 140.827 140.937 141.047 141.162 141.247 141.359 141.439 141.564 141.682 141.777 141.872 141.987 142.122 142.207 142.322 142.449 142.597 142.709 142.807 142.929 143.059 143.194 143.277 143.387 143.482 143.577 143.662 143.742 143.842 143.929 144.004 144.077 144.174 144.287 144.384 144.462 144.542 144.589 144.662 144.747 144.787 144.884 144.962 145.052 145.132 145.177 145.232 145.262 145.279 145.327 145.407 145.442 145.469 145.509 145.582 145.627 145.707 145.792 145.867 145.977 146.014 146.067 146.147 146.234 146.297 146.354 146.397 146.397 146.412 146.434 146.452 146.507 146.569 146.634 146.632 146.654 146.667 146.707 146.742 146.764 146.809 146.817 146.839 146.874 146.914 146.914 146.942 146.924 146.929 146.922 146.872 146.874 146.864 146.862 146.879 146.852 146.829 146.814 146.784 146.749 146.702 146.674 146.647 146.637 146.614 146.539 146.474 146.412 146.359 146.252 146.179 146.067 145.957 145.859 145.779 145.687 145.624 145.537 145.409 145.307 145.207 145.124 145.002 144.917 144.772 144.634 144.489 144.364 144.184 144.079 143.959 143.862 143.729 143.584 143.452 143.302 143.212 143.104 143.009 142.842 142.647 142.464 142.269 142.082 141.857 141.684 141.499 141.324 141.159 140.977 140.807 140.652 140.507 140.339 140.189 140.062 139.907 139.752 139.587 139.442 139.282 139.107 138.977 138.804 138.627 138.484 138.327 138.162 137.977 137.839 137.652 137.514 137.364 137.232 137.069 136.907 136.722 136.552 136.382 136.194 136.037 135.867 135.734 135.564 135.389 135.532 136.107 136.269 135.862 135.394 135.342 134.874 133.719 133.747 133.772 133.404 133.054 132.917 132.874 132.797 132.594 132.484 132.344 132.257 132.114 131.994 131.874 131.767 131.729 131.604 131.419 131.272 131.137 131.024 130.937 130.844 130.789 130.689 130.572 130.442 130.379 130.284 130.124 130.079 130.057 130.629 133.749 131.252 133.394 132.229 132.497 132.802 132.697 132.077 132.439 130.874 129.957 129.954 129.902 129.864 129.817 129.779 129.774 129.757 129.779 129.802 129.827 129.872
103.379 103.747 104.244 105.917 105.992 105.587 105.844 106.117 106.402 106.659 106.912 107.224 107.522 107.872 108.182 108.539 108.952 109.349 109.802 110.197 110.554 110.914 111.187 111.439 111.774 112.834 114.092 114.282 113.862 113.987 114.409 114.809 115.212 115.584 115.989 116.329 116.659 116.982 117.307 117.567 117.917 118.219 118.572 118.879 119.192 119.464 119.722 119.994 120.227 120.504 120.812 121.129 121.459 121.794 122.119 122.392 122.652 122.872 123.149 123.464 123.747 123.939 124.169 124.372 124.599 124.782 124.992 125.257 125.494 125.702 125.929 126.124 126.377 127.047 128.344 127.872 129.362 128.122 128.539 128.742 128.862 128.734 128.807 129.002 129.202 129.447 129.662 129.924 130.192 130.469 130.784 131.089 131.409 131.727 131.974 132.277 132.534 132.784 133.057 134.719 135.089 134.519 134.387 134.914 135.439 135.877 136.039 136.474 136.699 136.352 136.252 136.319 136.604 136.609 137.349 137.157 137.502 137.344 137.762 137.994 138.127 138.219 138.537 138.829 139.102 139.372 139.642 139.864 140.094 140.259 140.434 140.567 140.699 140.832 140.934 141.052 141.157 141.244 141.349 141.452 141.552 141.667 141.757 141.864 141.992 142.102 142.217 142.327 142.464 142.594 142.709 142.822 142.942 143.074 143.167 143.252 143.347 143.454 143.549 143.652 143.742 143.822 143.909 143.984 144.039 144.117 144.222 144.309 144.409 144.467 144.522 144.619 144.682 144.747 144.817 144.894 144.969 145.019 145.139 145.197 145.232 145.287 145.314 145.324 145.359 145.409 145.477 145.539 145.594 145.664 145.784 145.842 145.909 146.007 146.034 146.119 146.209 146.249 146.302 146.297 146.304 146.337 146.362 146.402 146.439 146.539 146.557 146.552 146.554 146.619 146.657 146.657 146.684 146.717 146.729 146.757 146.799 146.832 146.869 146.862 146.867 146.862 146.854 146.827 146.797 146.807 146.812 146.832 146.794 146.759 146.734 146.704 146.694 146.657 146.627 146.589 146.564 146.484 146.452 146.392 146.342 146.272 146.207 146.097 146.014 145.919 145.832 145.729 145.637 145.587 145.474 145.379 145.257 145.147 145.054 144.952 144.834 144.709 144.577 144.404 144.274 144.122 144.029 143.939 143.799 143.627 143.492 143.344 143.192 143.092 143.009 142.912 142.747 142.579 142.357 142.164 141.964 141.784 141.582 141.404 141.249 141.067 140.884 140.722 140.557 140.389 140.222 140.092 139.924 139.792 139.634 139.497 139.342 139.159 138.982 138.814 138.649 138.509 138.364 138.152 137.989 137.849 137.674 137.527 137.392 137.217 137.069 136.904 136.749 136.554 136.397 136.222 136.034 135.887 135.722 135.547 135.397 135.247 135.574 136.484 136.379 135.777 135.354 134.282 133.624 133.847 133.469 132.982 132.809 132.704 132.639 132.474 132.479 132.582 132.252 132.117 131.979 131.882 131.767 131.652 131.564 131.469 131.374 131.247 131.204 131.072 130.882 130.709 130.624 130.497 130.384 130.269 130.174 130.067 129.954 129.882 129.747 129.754 129.872 130.409 131.439 130.009 130.117 129.724 130.447 131.889 131.264 132.289 130.607 130.257 129.697 129.677 129.657 129.582 129.574 129.562 129.567 129.589 129.604 129.632 129.664
103.104 103.489 103.904 104.629 105.994 105.524 105.619 105.884 106.147 106.429 106.704 106.979 107.292 107.619 107.977 108.364 108.759 109.157 109.559 109.987 110.339 110.629 110.904 111.182 111.967 113.042 113.737 113.567 113.402 113.742 114.142 114.499 114.899 115.284 115.649 116.017 116.372 116.732 117.064 117.429 117.782 118.092 118.459 118.757 119.052 119.319 119.592 119.824 120.092 120.374 120.707 121.052 121.402 121.744 122.069 122.324 122.547 122.797 123.117 123.402 123.622 123.877 124.114 124.307 124.474 124.702 124.939 125.174 125.427 125.599 125.787 126.044 126.294 126.539 127.157 128.159 128.924 129.314 128.314 129.124 128.947 128.879 128.877 128.964 129.399 129.522 129.664 129.907 130.187 130.569 130.809 131.029 131.299 131.672 131.967 132.102 132.444 132.887 133.214 134.939 134.259 134.607 134.532 135.199 135.642 136.114 135.627 136.492 135.967 135.864 136.002 136.057 136.797 137.097 137.329 137.759 137.319 137.204 137.417 137.709 137.844 138.089 138.379 138.629 138.952 139.237 139.499 139.759 139.989 140.222 140.419 140.569 140.692 140.824 140.942 141.037 141.134 141.224 141.314 141.427 141.507 141.637 141.752 141.852 141.979 142.079 142.179 142.317 142.462 142.577 142.707 142.822 142.949 143.059 143.164 143.254 143.354 143.442 143.554 143.649 143.732 143.802 143.879 143.939 143.997 144.077 144.152 144.264 144.364 144.417 144.499 144.592 144.642 144.717 144.762 144.837 144.902 145.027 145.107 145.164 145.184 145.237 145.232 145.277 145.322 145.359 145.422 145.482 145.594 145.687 145.742 145.834 145.897 145.954 146.022 146.074 146.149 146.174 146.224 146.207 146.254 146.267 146.337 146.362 146.434 146.494 146.497 146.494 146.542 146.604 146.622 146.627 146.657 146.654 146.654 146.659 146.689 146.724 146.732 146.757 146.772 146.784 146.787 146.734 146.742 146.782 146.782 146.754 146.749 146.674 146.664 146.657 146.619 146.569 146.542 146.497 146.452 146.412 146.352 146.317 146.254 146.209 146.087 146.024 145.939 145.887 145.772 145.699 145.627 145.517 145.414 145.297 145.199 145.099 144.987 144.887 144.772 144.634 144.494 144.352 144.232 144.104 143.999 143.864 143.717 143.572 143.419 143.257 143.144 143.057 142.957 142.839 142.677 142.479 142.287 142.069 141.867 141.662 141.484 141.299 141.119 140.964 140.797 140.639 140.442 140.277 140.109 139.974 139.814 139.654 139.527 139.352 139.194 139.012 138.844 138.669 138.537 138.382 138.207 138.014 137.874 137.709 137.559 137.389 137.232 137.077 136.912 136.774 136.592 136.422 136.254 136.067 135.914 135.767 135.609 135.429 135.302 135.417 135.737 136.149 136.232 135.827 135.159 134.862 133.362 133.047 133.017 132.892 132.707 132.594 132.424 132.239 132.194 132.332 132.107 131.927 131.779 131.632 131.534 131.407 131.322 131.244 131.149 131.069 130.947 130.829 130.729 130.612 130.424 130.272 130.127 129.977 129.872 129.767 129.659 129.567 129.472 129.374 129.292 129.422 129.484 129.634 129.519 129.799 129.819 129.744 129.322 129.912 131.327 130.599 129.817 129.397 129.414 129.382 129.334 129.364 129.379 129.399 129.457 129.477 129.587
102.857 103.212 103.609 103.999 104.627 106.169 105.564 105.629 105.892 106.169 106.479 106.767 107.062 107.389 107.769 108.137 108.532 108.932 109.359 109.742 110.079 110.367 110.667 111.149 112.527 113.314 113.157 112.812 113.129 113.484 113.844 114.247 114.609 114.989 115.367 115.742 116.119 116.527 116.909 117.282 117.624 117.977 118.294 118.602 118.917 119.192 119.449 119.677 119.972 120.309 120.674 120.999 121.359 121.709 121.977 122.232 122.462 122.732 123.057 123.307 123.577 123.869 124.044 124.247 124.419 124.644 124.849 125.112 125.357 125.554 125.769 125.992 126.204 126.454 126.807 127.954 128.674 129.459 129.929 129.237 128.504 128.807 128.972 129.034 129.567 129.807 129.972 130.012 130.287 130.532 130.802 130.979 131.264 131.607 131.797 132.117 132.534 133.314 134.009 134.007 133.992 134.589 134.877 135.112 135.384 135.562 135.584 135.499 135.404 135.549 135.674 136.742 136.614 137.239 137.422 136.807 136.882 137.052 137.247 137.477 137.704 137.974 138.227 138.517 138.812 139.109 139.397 139.687 139.937 140.174 140.369 140.519 140.664 140.769 140.902 140.992 141.089 141.182 141.259 141.372 141.467 141.584 141.699 141.824 141.934 142.059 142.169 142.317 142.442 142.542 142.679 142.777 142.884 143.014 143.124 143.232 143.312 143.432 143.532 143.639 143.717 143.782 143.867 143.932 143.999 144.084 144.152 144.234 144.307 144.392 144.464 144.562 144.617 144.647 144.729 144.804 144.902 144.997 145.072 145.134 145.167 145.197 145.249 145.252 145.242 145.309 145.344 145.447 145.554 145.612 145.689 145.769 145.847 145.889 145.982 146.047 146.074 146.107 146.152 146.179 146.204 146.249 146.292 146.347 146.399 146.412 146.444 146.499 146.562 146.582 146.604 146.627 146.624 146.597 146.597 146.614 146.622 146.622 146.644 146.677 146.702 146.719 146.674 146.669 146.724 146.709 146.694 146.674 146.657 146.604 146.599 146.569 146.542 146.497 146.437 146.414 146.367 146.307 146.262 146.217 146.184 146.112 146.024 145.939 145.867 145.819 145.757 145.674 145.577 145.437 145.329 145.217 145.144 145.034 144.942 144.809 144.699 144.587 144.464 144.317 144.192 144.057 143.949 143.799 143.667 143.509 143.347 143.207 143.089 142.999 142.907 142.764 142.587 142.427 142.209 141.979 141.779 141.572 141.397 141.204 141.054 140.867 140.719 140.537 140.357 140.162 139.984 139.824 139.677 139.544 139.387 139.214 139.024 138.842 138.672 138.517 138.374 138.237 138.044 137.869 137.752 137.577 137.414 137.262 137.087 136.932 136.752 136.597 136.414 136.254 136.074 135.912 135.772 135.667 135.494 135.297 135.597 135.002 135.374 135.772 135.664 135.282 134.534 133.784 133.382 133.199 133.072 133.122 132.792 132.512 132.274 132.092 131.954 132.044 131.862 131.722 131.559 131.402 131.312 131.187 131.079 131.017 130.942 130.837 130.722 130.604 130.494 130.377 130.277 130.154 129.954 129.739 129.629 129.449 129.327 129.222 129.159 129.064 128.979 128.934 128.917 128.942 128.932 128.927 128.612 128.444 128.439 128.364 129.034 130.492 129.907 130.054 129.902 129.122 129.099 129.139 129.204 129.219 129.254 129.334 129.449
102.549 102.967 103.332 103.697 104.132 105.312 106.377 105.629 105.607 105.937 106.237 106.527 106.847 107.159 107.517 107.892 108.292 108.737 109.137 109.492 109.807 110.109 110.499 112.004 112.869 112.842 112.417 112.564 112.887 113.219 113.612 113.979 114.379 114.732 115.154 115.522 115.967 116.372 116.752 117.112 117.474 117.819 118.099 118.437 118.747 119.022 119.289 119.557 119.867 120.214 120.589 120.924 121.284 121.584 121.857 122.117 122.389 122.719 122.934 123.234 123.507 123.734 123.947 124.154 124.349 124.594 124.797 125.024 125.274 125.509 125.782 125.974 126.174 126.459 126.687 127.002 128.689 129.039 130.334 128.319 128.449 128.609 128.934 129.189 129.292 129.787 129.989 129.999 130.139 130.414 130.804 133.257 131.299 131.889 132.062 132.607 134.709 134.692 133.097 133.664 134.124 134.592 134.877 134.929 134.699 134.887 135.004 135.222 135.237 135.394 135.692 136.232 136.952 136.979 137.314 136.827 136.747 136.937 137.154 137.354 137.569 137.832 138.097 138.387 138.694 139.017 139.307 139.597 139.842 140.069 140.292 140.477 140.614 140.749 140.859 140.967 141.064 141.149 141.257 141.367 141.439 141.552 141.672 141.789 141.932 142.054 142.207 142.299 142.422 142.522 142.667 142.767 142.884 142.977 143.077 143.194 143.284 143.384 143.522 143.607 143.684 143.762 143.852 143.917 143.984 144.049 144.122 144.204 144.284 144.357 144.427 144.527 144.589 144.639 144.722 144.804 144.889 144.974 145.059 145.084 145.149 145.197 145.209 145.217 145.204 145.232 145.277 145.384 145.482 145.544 145.604 145.679 145.752 145.832 145.912 145.959 146.002 146.054 146.117 146.149 146.202 146.204 146.244 146.297 146.352 146.404 146.477 146.539 146.542 146.577 146.589 146.607 146.592 146.579 146.562 146.589 146.584 146.562 146.582 146.582 146.612 146.614 146.627 146.644 146.632 146.617 146.619 146.579 146.549 146.549 146.529 146.469 146.432 146.397 146.372 146.309 146.289 146.222 146.197 146.157 146.097 146.029 145.954 145.862 145.789 145.734 145.667 145.607 145.509 145.394 145.277 145.162 145.094 145.002 144.884 144.764 144.632 144.527 144.397 144.249 144.134 143.982 143.854 143.739 143.602 143.439 143.297 143.147 143.019 142.929 142.817 142.662 142.487 142.307 142.112 141.882 141.679 141.502 141.327 141.127 140.989 140.819 140.647 140.457 140.267 140.049 139.874 139.717 139.547 139.417 139.272 139.087 138.882 138.722 138.562 138.419 138.252 138.107 137.912 137.752 137.589 137.437 137.297 137.137 136.947 136.784 136.652 136.449 136.252 136.089 135.899 135.732 135.607 135.529 135.437 135.209 135.104 135.067 135.159 135.242 135.114 135.042 134.517 134.229 134.004 133.489 133.062 132.917 132.732 132.604 132.184 131.884 131.789 131.804 131.612 131.467 131.294 131.212 131.079 130.997 130.914 130.807 130.707 130.629 130.512 130.417 130.339 130.189 130.042 129.912 129.764 129.637 129.397 129.199 129.007 128.887 128.799 128.722 128.677 128.627 128.567 128.492 128.444 128.502 128.412 128.334 128.184 128.469 130.204 129.192 128.489 130.532 129.529 129.342 129.017 128.897 128.974 129.077 129.097 129.049 129.092
