ncols 407
nrows 32
xllcorner    250148
yllcorner    136360
cellsize     2
NODATA_value -9999
49.259 49.344 49.411 49.486 49.549 49.616 49.669 49.706 49.754 49.774 49.766 49.799 49.786 49.794 49.761 49.764 49.754 49.741 49.726 49.704 49.724 49.729 49.711 49.736 49.746 49.739 49.714 49.699 49.854 50.591 50.001 49.984 50.044 50.121 50.244 50.359 50.544 50.661 50.786 50.916 51.051 51.134 51.211 51.296 51.381 51.451 51.514 51.576 51.639 51.669 51.689 51.714 51.749 51.756 51.796 51.809 51.806 51.819 51.814 51.799 51.811 51.781 51.771 51.729 51.701 51.659 51.634 51.584 51.524 51.474 51.459 51.416 51.371 51.339 51.321 51.286 51.254 51.194 51.156 51.116 51.076 51.011 50.936 50.874 50.819 50.739 50.694 50.616 50.564 50.509 50.466 50.411 50.351 50.319 50.256 50.166 50.134 50.051 49.994 49.931 49.859 49.796 49.694 49.641 49.561 49.486 49.396 49.306 49.236 49.169 49.086 49.006 48.916 48.844 48.781 48.691 48.616 48.561 48.509 48.466 48.436 48.411 48.389 48.361 48.356 48.336 48.354 48.346 48.329 48.339 48.326 48.344 48.366 48.341 48.339 48.341 48.369 48.391 48.394 48.389 48.381 48.411 48.419 48.419 48.421 48.434 48.421 48.416 48.416 48.409 48.411 48.404 48.416 48.434 48.466 48.484 48.486 48.499 48.521 48.524 48.531 48.561 48.581 48.594 48.634 48.639 48.641 48.651 48.649 48.684 48.666 48.706 48.959 48.849 49.109 48.856 48.891 48.929 48.991 49.074 49.144 49.241 49.326 49.424 49.541 49.641 49.756 49.854 49.939 50.034 50.109 50.191 50.264 50.291 50.286 51.646 52.391 51.556 51.736 51.876 52.039 52.274 52.499 52.691 52.891 53.114 53.304 53.496 53.676 53.864 54.029 54.169 54.289 54.414 54.526 54.674 54.784 54.916 55.021 55.169 55.294 55.409 55.504 55.566 55.641 55.706 55.781 55.846 55.939 55.974 56.066 56.134 56.251 56.309 56.279 56.319 56.369 56.426 56.504 56.656 56.671 56.736 56.799 56.771 56.816 57.176 56.876 56.906 56.826 57.196 57.244 58.669 58.726 57.609 58.136 56.991 56.986 56.789 56.781 56.999 56.566 56.999 57.526 56.689 56.516 56.589 56.354 56.236 56.271 57.574 60.026 56.166 56.154 56.141 56.189 56.254 56.391 56.534 56.481 56.589 56.691 56.864 57.051 57.031 57.094 57.219 57.274 57.411 57.464 57.539 57.639 57.644 57.671 57.736 57.891 57.819 57.844 57.879 57.944 57.961 57.974 57.981 57.966 57.961 57.931 57.899 57.874 57.851 57.816 57.744 57.661 57.574 57.481 57.379 57.249 57.131 56.996 56.864 56.724 56.566 56.399 56.184 55.984 55.756 55.501 55.246 55.026 54.739 54.471 54.199 53.966 53.719 53.446 53.196 52.926 52.669 52.411 52.136 51.881 51.626 51.356 51.079 50.831 50.601 50.349 50.079 49.846 49.599 49.361 49.124 48.849 48.624 48.424 48.226 48.006 47.791 47.596 47.406 47.211 47.004 46.824 46.639 46.459 46.251 46.046 45.854 45.676 45.519 45.336 45.129 44.999 44.741 44.419 44.001 43.791 43.519 43.261 43.309 42.919 42.209 44.104 43.804 40.601 40.184 39.624 39.649 39.609 38.819 38.624 38.489 38.179 38.401 38.671 38.586 38.549 38.846 39.106 38.996 39.121 39.164 39.236 39.521 39.881 40.169 40.514 40.886 41.336
48.771 48.849 48.896 48.964 49.036 49.091 49.144 49.194 49.236 49.281 49.296 49.301 49.311 49.316 49.289 49.311 49.304 49.309 49.301 49.284 49.294 49.291 49.289 49.304 49.321 49.319 49.299 49.326 49.421 50.191 49.611 49.571 49.614 49.684 49.809 49.906 50.064 50.181 50.306 50.444 50.564 50.669 50.741 50.841 50.914 50.969 51.041 51.094 51.139 51.169 51.204 51.241 51.264 51.291 51.299 51.296 51.301 51.304 51.314 51.311 51.301 51.261 51.266 51.216 51.161 51.146 51.099 51.046 51.001 50.954 50.919 50.896 50.834 50.806 50.784 50.759 50.714 50.644 50.616 50.571 50.514 50.484 50.409 50.371 50.281 50.226 50.179 50.106 50.049 49.989 49.921 49.849 49.826 49.786 49.714 49.669 49.611 49.561 49.474 49.429 49.361 49.281 49.209 49.129 49.051 48.994 48.914 48.819 48.746 48.679 48.604 48.519 48.441 48.389 48.296 48.224 48.171 48.114 48.069 48.024 47.996 47.976 47.991 47.949 47.946 47.934 47.954 47.931 47.936 47.936 47.931 47.956 47.961 47.966 47.959 47.966 47.979 47.981 48.011 48.004 48.011 48.011 48.034 48.019 48.021 48.021 48.019 48.019 47.996 47.999 47.994 48.009 48.041 48.036 48.061 48.074 48.096 48.106 48.146 48.166 48.169 48.214 48.241 48.244 48.259 48.301 48.306 48.311 48.324 48.321 48.341 48.356 48.404 48.446 48.489 48.484 48.529 48.581 48.619 48.681 48.749 48.839 48.931 49.009 49.114 49.239 49.314 49.399 49.501 49.571 49.666 49.704 49.779 49.766 49.769 51.136 51.881 51.156 51.314 51.449 51.614 51.819 52.029 52.221 52.404 52.609 52.821 53.029 53.201 53.386 53.589 53.736 53.901 54.019 54.136 54.296 54.421 54.529 54.664 54.791 54.909 55.001 55.084 55.166 55.226 55.276 55.344 55.394 55.441 55.489 55.534 55.591 55.666 55.714 55.744 55.774 55.771 55.804 55.831 55.879 55.926 55.969 55.971 55.984 56.016 56.014 56.044 56.011 56.006 55.971 56.129 56.116 56.421 56.139 56.134 55.991 55.876 55.766 55.766 56.001 57.374 56.589 55.931 55.901 55.916 55.754 55.549 55.514 55.559 55.509 56.716 55.679 55.639 55.661 55.706 55.766 55.826 55.961 56.066 56.091 56.159 56.316 56.496 56.586 56.776 56.746 56.901 56.941 56.956 57.106 57.119 57.144 57.224 57.266 57.301 57.326 57.339 57.376 57.399 57.431 57.436 57.449 57.444 57.416 57.404 57.379 57.346 57.316 57.264 57.191 57.121 57.019 56.919 56.819 56.694 56.566 56.419 56.276 56.144 55.979 55.811 55.624 55.411 55.174 54.934 54.699 54.466 54.204 53.939 53.669 53.436 53.186 52.906 52.656 52.399 52.141 51.884 51.621 51.349 51.109 50.826 50.591 50.326 50.094 49.839 49.616 49.394 49.154 48.936 48.699 48.441 48.231 48.029 47.821 47.614 47.436 47.229 47.056 46.864 46.694 46.489 46.311 46.121 45.944 45.759 45.574 45.394 45.231 45.034 44.924 44.621 44.414 44.069 43.794 43.386 42.986 42.729 42.524 42.571 42.339 41.244 45.596 41.056 39.996 39.156 38.954 38.694 38.369 38.096 38.164 38.234 38.339 38.786 38.964 38.499 38.971 38.861 39.479 38.874 39.086 39.356 39.524 39.861 40.184 40.501 40.876 41.311
48.281 48.329 48.376 48.454 48.516 48.569 48.649 48.686 48.744 48.781 48.804 48.829 48.851 48.846 48.846 48.856 48.841 48.871 48.851 48.861 48.881 48.869 48.864 48.884 48.916 48.919 48.901 48.911 49.001 49.851 49.201 49.156 49.184 49.261 49.339 49.446 49.561 49.729 49.841 49.964 50.086 50.196 50.294 50.379 50.436 50.499 50.569 50.624 50.664 50.704 50.751 50.781 50.786 50.801 50.804 50.821 50.809 50.811 50.811 50.794 50.796 50.761 50.726 50.691 50.651 50.621 50.581 50.551 50.476 50.454 50.406 50.371 50.324 50.276 50.256 50.224 50.176 50.154 50.101 50.046 49.981 49.936 49.884 49.819 49.759 49.696 49.641 49.586 49.504 49.464 49.406 49.336 49.304 49.254 49.199 49.149 49.071 49.014 48.966 48.914 48.861 48.784 48.719 48.624 48.579 48.496 48.434 48.344 48.261 48.224 48.146 48.056 47.981 47.899 47.856 47.776 47.736 47.664 47.646 47.591 47.566 47.556 47.554 47.521 47.516 47.516 47.526 47.526 47.556 47.541 47.549 47.566 47.571 47.561 47.549 47.576 47.599 47.606 47.606 47.599 47.611 47.624 47.629 47.609 47.601 47.629 47.626 47.621 47.611 47.604 47.614 47.614 47.646 47.639 47.679 47.696 47.694 47.739 47.764 47.791 47.811 47.861 47.886 47.909 47.926 47.951 47.969 47.969 47.971 47.979 47.994 48.009 48.051 48.111 48.129 48.121 48.169 48.214 48.246 48.291 48.364 48.424 48.531 48.606 48.701 48.801 48.879 48.956 49.024 49.106 49.159 49.226 49.254 49.259 49.214 50.601 51.381 50.721 50.844 50.944 51.131 51.341 51.544 51.776 51.964 52.184 52.349 52.544 52.744 52.916 53.056 53.216 53.384 53.491 53.641 53.789 53.921 54.066 54.209 54.324 54.451 54.556 54.629 54.719 54.794 54.844 54.909 54.974 55.036 55.086 55.099 55.139 55.186 55.221 55.284 55.339 55.354 55.374 55.389 55.404 55.429 55.424 55.404 55.396 55.371 55.344 55.321 55.331 55.334 55.296 55.276 55.264 55.221 55.164 55.134 55.066 54.926 54.954 54.909 54.924 55.019 55.204 55.064 55.039 55.151 55.064 54.929 54.979 55.001 55.051 55.064 55.104 55.154 55.189 55.256 55.329 55.381 55.454 55.504 55.594 55.761 55.896 56.061 56.149 56.246 56.281 56.349 56.464 56.526 56.541 56.599 56.654 56.686 56.746 56.779 56.806 56.804 56.824 56.869 56.869 56.899 56.901 56.881 56.871 56.841 56.824 56.789 56.751 56.696 56.611 56.521 56.446 56.354 56.234 56.121 55.974 55.846 55.691 55.551 55.391 55.244 55.054 54.829 54.606 54.391 54.164 53.911 53.631 53.386 53.146 52.884 52.654 52.381 52.149 51.891 51.614 51.361 51.111 50.869 50.584 50.346 50.094 49.871 49.619 49.379 49.149 48.939 48.739 48.514 48.279 48.034 47.844 47.644 47.446 47.249 47.069 46.886 46.711 46.541 46.341 46.176 45.999 45.829 45.629 45.481 45.296 45.131 44.924 44.736 44.531 44.274 43.994 43.746 43.471 43.141 42.669 42.136 41.729 41.051 41.126 40.576 41.246 40.339 40.141 39.774 38.644 38.366 38.571 37.959 39.534 40.554 38.281 38.256 38.331 38.341 38.794 38.844 39.106 39.189 39.229 39.256 39.586 39.879 40.171 40.521 40.891 41.311
47.796 47.856 47.906 47.981 48.029 48.069 48.131 48.201 48.229 48.299 48.326 48.364 48.374 48.374 48.374 48.391 48.386 48.431 48.429 48.414 48.434 48.446 48.441 48.479 48.506 48.489 48.496 48.489 48.584 49.604 48.871 48.766 48.766 48.834 48.899 48.971 49.091 49.226 49.351 49.476 49.601 49.731 49.829 49.911 50.009 50.054 50.106 50.139 50.171 50.224 50.264 50.306 50.336 50.329 50.331 50.344 50.356 50.329 50.306 50.301 50.294 50.259 50.241 50.186 50.154 50.104 50.084 50.026 49.964 49.934 49.889 49.849 49.809 49.794 49.749 49.701 49.656 49.629 49.594 49.524 49.476 49.411 49.379 49.301 49.231 49.164 49.141 49.051 48.979 48.951 48.874 48.849 48.786 48.744 48.681 48.639 48.556 48.496 48.461 48.414 48.366 48.304 48.236 48.161 48.089 48.021 47.946 47.889 47.804 47.749 47.671 47.599 47.531 47.464 47.384 47.339 47.299 47.234 47.214 47.179 47.166 47.164 47.149 47.136 47.139 47.136 47.129 47.154 47.164 47.151 47.164 47.201 47.171 47.166 47.184 47.184 47.211 47.216 47.229 47.206 47.224 47.214 47.214 47.199 47.211 47.219 47.224 47.219 47.196 47.214 47.231 47.254 47.249 47.271 47.306 47.306 47.339 47.381 47.416 47.426 47.454 47.484 47.506 47.561 47.574 47.624 47.629 47.629 47.616 47.634 47.649 47.671 47.669 47.699 47.731 47.754 47.781 47.826 47.859 47.914 47.941 48.009 48.094 48.189 48.276 48.344 48.426 48.496 48.561 48.611 48.701 48.739 48.756 48.734 48.686 50.166 50.916 50.249 50.336 50.456 50.616 50.814 51.026 51.221 51.419 51.621 51.811 52.006 52.199 52.404 52.559 52.719 52.864 53.009 53.149 53.286 53.404 53.536 53.656 53.771 53.904 54.019 54.086 54.174 54.264 54.316 54.416 54.504 54.566 54.601 54.641 54.689 54.711 54.764 54.851 54.899 54.904 54.936 54.964 54.976 54.989 54.979 54.954 54.924 54.904 54.851 54.834 54.784 54.771 54.746 54.686 54.649 54.629 54.574 54.541 54.479 54.434 54.406 54.376 54.349 54.366 54.526 54.586 54.434 54.556 54.444 54.446 54.494 54.534 54.569 54.644 54.666 54.726 54.774 54.834 54.886 54.921 54.979 55.074 55.161 55.294 55.484 55.606 55.721 55.784 55.819 55.881 55.929 55.954 56.011 56.076 56.111 56.176 56.211 56.239 56.259 56.276 56.324 56.324 56.334 56.341 56.351 56.329 56.311 56.284 56.254 56.211 56.166 56.109 56.036 55.949 55.856 55.774 55.644 55.546 55.396 55.264 55.111 54.971 54.836 54.646 54.441 54.256 54.044 53.826 53.579 53.326 53.089 52.849 52.626 52.371 52.124 51.876 51.626 51.371 51.114 50.861 50.609 50.346 50.094 49.874 49.629 49.394 49.149 48.914 48.709 48.516 48.309 48.086 47.876 47.666 47.451 47.266 47.069 46.894 46.721 46.529 46.381 46.196 46.029 45.851 45.669 45.494 45.359 45.179 45.026 44.854 44.684 44.449 44.206 43.916 43.664 43.354 43.001 42.601 42.164 41.849 41.324 40.851 40.334 39.756 39.511 39.856 39.869 39.006 39.144 38.336 37.926 37.851 37.894 37.936 38.191 38.126 38.741 38.699 39.029 38.744 38.924 39.039 39.126 39.331 39.639 39.899 40.201 40.524 40.866 41.276
47.314 47.369 47.436 47.499 47.541 47.584 47.661 47.714 47.761 47.819 47.849 47.894 47.919 47.909 47.924 47.956 47.956 47.971 47.969 47.996 48.019 48.041 48.041 48.056 48.056 48.076 48.094 48.094 48.069 49.019 48.424 48.319 48.349 48.381 48.444 48.534 48.641 48.746 48.891 49.009 49.144 49.276 49.364 49.456 49.531 49.576 49.624 49.676 49.719 49.764 49.821 49.841 49.856 49.859 49.864 49.869 49.854 49.844 49.836 49.799 49.811 49.761 49.751 49.709 49.651 49.606 49.586 49.521 49.486 49.446 49.404 49.356 49.319 49.286 49.254 49.221 49.164 49.124 49.081 49.031 48.971 48.926 48.859 48.786 48.716 48.671 48.614 48.544 48.509 48.426 48.379 48.329 48.281 48.231 48.169 48.119 48.066 48.021 47.946 47.911 47.876 47.791 47.744 47.666 47.601 47.534 47.459 47.406 47.339 47.269 47.201 47.161 47.084 47.019 46.959 46.924 46.884 46.844 46.816 46.804 46.781 46.759 46.741 46.754 46.744 46.739 46.744 46.739 46.779 46.766 46.796 46.806 46.789 46.791 46.794 46.806 46.806 46.819 46.809 46.829 46.834 46.836 46.831 46.816 46.846 46.836 46.821 46.819 46.829 46.826 46.839 46.874 46.894 46.906 46.936 46.951 46.971 46.994 47.031 47.074 47.101 47.136 47.169 47.211 47.229 47.249 47.279 47.264 47.264 47.281 47.306 47.321 47.344 47.349 47.374 47.401 47.409 47.444 47.494 47.494 47.541 47.616 47.676 47.766 47.846 47.911 47.974 48.041 48.099 48.161 48.199 48.241 48.246 48.226 48.219 49.369 50.221 49.739 49.831 49.949 50.096 50.269 50.474 50.679 50.866 51.066 51.246 51.449 51.611 51.804 51.986 52.171 52.299 52.441 52.574 52.691 52.854 53.009 53.109 53.221 53.364 53.479 53.561 53.661 53.731 53.801 53.861 53.934 54.009 54.079 54.129 54.181 54.241 54.294 54.351 54.386 54.446 54.459 54.491 54.541 54.551 54.536 54.496 54.461 54.464 54.429 54.419 54.354 54.319 54.319 54.286 54.244 54.181 54.129 54.061 54.024 53.971 53.939 53.899 53.894 53.909 53.894 53.909 53.911 53.944 53.984 54.031 54.081 54.109 54.164 54.204 54.271 54.309 54.361 54.414 54.449 54.491 54.534 54.609 54.711 54.844 55.036 55.169 55.256 55.276 55.321 55.366 55.401 55.461 55.484 55.534 55.566 55.621 55.654 55.671 55.674 55.709 55.749 55.736 55.786 55.769 55.764 55.779 55.739 55.721 55.671 55.629 55.589 55.529 55.434 55.366 55.286 55.201 55.064 54.934 54.826 54.676 54.534 54.391 54.231 54.049 53.866 53.664 53.464 53.274 53.051 52.786 52.566 52.341 52.094 51.836 51.594 51.379 51.109 50.861 50.626 50.364 50.124 49.881 49.631 49.396 49.176 48.936 48.714 48.489 48.281 48.091 47.896 47.694 47.481 47.261 47.089 46.909 46.741 46.536 46.381 46.214 46.036 45.849 45.691 45.534 45.361 45.219 45.054 44.916 44.769 44.594 44.391 44.156 43.876 43.584 43.256 42.949 42.601 42.151 41.711 41.256 40.781 40.384 39.876 39.526 39.071 38.769 38.581 38.246 38.306 38.581 38.479 38.056 37.711 37.819 37.789 38.474 38.656 38.979 39.109 39.341 39.244 38.916 39.269 39.444 39.699 39.931 40.206 40.514 40.869 41.254
46.839 46.899 46.959 47.016 47.071 47.121 47.191 47.231 47.289 47.341 47.386 47.416 47.469 47.456 47.464 47.494 47.529 47.516 47.551 47.571 47.586 47.599 47.614 47.649 47.649 47.641 47.686 47.689 47.674 48.594 48.009 47.921 47.949 47.969 48.004 48.094 48.189 48.279 48.419 48.511 48.649 48.776 48.904 48.979 49.059 49.136 49.161 49.194 49.239 49.299 49.329 49.351 49.371 49.419 49.389 49.379 49.376 49.364 49.369 49.324 49.294 49.274 49.241 49.211 49.154 49.129 49.091 49.024 48.989 48.931 48.886 48.861 48.839 48.784 48.731 48.714 48.646 48.614 48.576 48.531 48.459 48.419 48.349 48.274 48.241 48.199 48.124 48.054 48.021 47.946 47.879 47.811 47.779 47.741 47.691 47.621 47.561 47.514 47.456 47.404 47.381 47.314 47.251 47.194 47.104 47.031 46.999 46.936 46.871 46.806 46.784 46.716 46.664 46.604 46.546 46.506 46.476 46.416 46.426 46.414 46.384 46.391 46.384 46.359 46.371 46.366 46.381 46.391 46.391 46.396 46.421 46.429 46.416 46.401 46.424 46.429 46.431 46.441 46.431 46.439 46.429 46.439 46.436 46.429 46.454 46.464 46.439 46.451 46.451 46.446 46.459 46.481 46.521 46.549 46.579 46.586 46.621 46.654 46.671 46.711 46.759 46.794 46.844 46.866 46.899 46.904 46.934 46.936 46.929 46.941 46.949 46.966 46.981 46.996 47.004 47.046 47.059 47.091 47.116 47.129 47.166 47.219 47.279 47.336 47.399 47.481 47.549 47.589 47.644 47.684 47.741 47.746 47.779 47.744 47.704 48.829 49.794 49.234 49.326 49.454 49.591 49.739 49.909 50.111 50.294 50.489 50.679 50.879 51.041 51.214 51.386 51.569 51.706 51.859 51.986 52.114 52.264 52.379 52.506 52.629 52.759 52.879 52.981 53.061 53.131 53.236 53.329 53.401 53.464 53.519 53.596 53.651 53.714 53.766 53.794 53.864 53.901 53.946 53.989 54.039 54.046 54.004 53.991 53.986 53.989 53.986 53.969 53.899 53.854 53.869 53.856 53.836 53.766 53.714 53.659 53.631 53.566 53.539 53.501 53.484 53.501 53.484 53.504 53.511 53.526 53.571 53.626 53.619 53.686 53.719 53.776 53.826 53.859 53.894 53.914 53.979 54.021 54.069 54.126 54.249 54.396 54.574 54.664 54.749 54.776 54.809 54.851 54.881 54.926 54.931 54.969 55.034 55.061 55.089 55.091 55.149 55.169 55.174 55.154 55.166 55.186 55.209 55.174 55.159 55.129 55.101 55.054 54.991 54.929 54.854 54.781 54.696 54.564 54.461 54.349 54.196 54.061 53.939 53.794 53.621 53.441 53.276 53.099 52.929 52.706 52.471 52.259 52.029 51.794 51.546 51.326 51.101 50.866 50.606 50.349 50.141 49.899 49.646 49.396 49.169 48.946 48.709 48.486 48.279 48.094 47.909 47.711 47.501 47.299 47.121 46.904 46.739 46.544 46.391 46.204 46.044 45.874 45.706 45.544 45.369 45.199 45.066 44.941 44.781 44.661 44.501 44.319 44.106 43.834 43.521 43.201 42.859 42.539 42.116 41.681 41.269 40.841 40.389 39.926 39.589 39.176 38.761 38.561 38.146 37.841 37.451 37.241 37.511 37.936 37.426 37.539 38.016 38.356 38.441 39.156 39.121 39.521 39.114 39.084 39.244 39.551 39.749 39.966 40.189 40.506 40.834 41.254
46.371 46.454 46.486 46.551 46.599 46.671 46.731 46.756 46.829 46.896 46.914 46.961 46.996 47.021 47.036 47.064 47.081 47.086 47.109 47.141 47.154 47.151 47.201 47.216 47.224 47.226 47.276 47.276 47.251 48.081 47.621 47.511 47.521 47.526 47.574 47.676 47.764 47.836 47.934 48.039 48.194 48.299 48.419 48.516 48.591 48.666 48.696 48.724 48.756 48.821 48.841 48.876 48.899 48.909 48.919 48.919 48.899 48.871 48.861 48.831 48.806 48.771 48.746 48.714 48.669 48.614 48.584 48.536 48.479 48.434 48.396 48.374 48.339 48.274 48.234 48.199 48.169 48.106 48.086 48.031 47.979 47.916 47.834 47.791 47.729 47.689 47.609 47.571 47.519 47.436 47.376 47.339 47.301 47.251 47.194 47.141 47.084 47.034 46.976 46.899 46.864 46.811 46.746 46.694 46.649 46.574 46.509 46.469 46.426 46.361 46.329 46.284 46.214 46.179 46.119 46.094 46.081 46.049 46.036 46.036 46.011 46.004 46.006 46.004 45.986 46.006 46.014 46.024 46.036 46.031 46.059 46.064 46.054 46.054 46.046 46.074 46.056 46.061 46.069 46.071 46.069 46.069 46.079 46.071 46.086 46.071 46.071 46.084 46.079 46.104 46.109 46.129 46.164 46.191 46.226 46.246 46.276 46.309 46.341 46.371 46.411 46.461 46.481 46.519 46.574 46.586 46.579 46.591 46.601 46.606 46.621 46.614 46.624 46.641 46.656 46.684 46.711 46.711 46.716 46.746 46.786 46.831 46.889 46.924 46.979 47.054 47.109 47.159 47.194 47.246 47.296 47.299 47.304 47.281 47.241 48.376 49.196 48.704 48.826 48.944 49.066 49.206 49.369 49.544 49.701 49.911 50.089 50.286 50.456 50.621 50.791 50.976 51.121 51.246 51.369 51.524 51.659 51.799 51.931 52.029 52.131 52.271 52.379 52.464 52.551 52.634 52.724 52.806 52.866 52.956 52.986 53.041 53.114 53.161 53.209 53.269 53.324 53.379 53.416 53.464 53.484 53.514 53.536 53.536 53.554 53.529 53.499 53.444 53.414 53.386 53.374 53.324 53.294 53.271 53.231 53.179 53.161 53.131 53.084 53.079 53.079 53.069 53.056 53.059 53.076 53.109 53.136 53.174 53.219 53.259 53.291 53.336 53.371 53.431 53.456 53.489 53.516 53.554 53.631 53.769 53.931 54.081 54.189 54.246 54.289 54.294 54.311 54.341 54.379 54.369 54.436 54.476 54.509 54.529 54.534 54.556 54.604 54.584 54.616 54.604 54.604 54.614 54.619 54.586 54.564 54.514 54.461 54.391 54.309 54.249 54.154 54.079 53.979 53.826 53.726 53.604 53.469 53.336 53.206 53.029 52.869 52.694 52.529 52.344 52.136 51.931 51.714 51.494 51.254 51.034 50.819 50.596 50.366 50.119 49.884 49.651 49.411 49.159 48.956 48.711 48.499 48.284 48.074 47.891 47.699 47.491 47.296 47.116 46.921 46.736 46.541 46.366 46.201 46.024 45.864 45.701 45.554 45.359 45.199 45.039 44.901 44.784 44.646 44.534 44.431 44.254 44.049 43.794 43.479 43.156 42.779 42.444 42.054 41.659 41.221 40.786 40.384 39.954 39.584 39.174 38.839 38.561 38.169 37.906 37.524 37.211 36.909 36.951 37.096 38.694 38.929 38.436 38.509 39.079 38.866 39.154 39.126 38.916 38.996 39.266 39.596 39.841 40.039 40.214 40.499 40.831 41.251
45.914 45.989 46.039 46.099 46.154 46.209 46.266 46.314 46.381 46.424 46.454 46.511 46.549 46.571 46.601 46.609 46.621 46.649 46.671 46.704 46.721 46.751 46.759 46.769 46.796 46.806 46.854 46.871 46.901 47.786 47.254 47.091 47.096 47.091 47.161 47.241 47.319 47.401 47.474 47.596 47.701 47.824 47.919 48.026 48.116 48.161 48.209 48.244 48.279 48.329 48.351 48.376 48.401 48.396 48.401 48.409 48.389 48.379 48.364 48.331 48.326 48.304 48.261 48.214 48.184 48.144 48.074 48.024 47.966 47.946 47.904 47.861 47.811 47.771 47.734 47.701 47.661 47.619 47.594 47.546 47.479 47.409 47.334 47.291 47.236 47.191 47.141 47.071 47.014 46.961 46.901 46.849 46.796 46.749 46.681 46.644 46.606 46.551 46.471 46.411 46.364 46.334 46.286 46.224 46.169 46.114 46.079 46.029 45.991 45.949 45.904 45.859 45.804 45.761 45.731 45.711 45.691 45.661 45.641 45.641 45.629 45.644 45.634 45.621 45.631 45.629 45.649 45.681 45.671 45.674 45.679 45.661 45.679 45.671 45.689 45.709 45.706 45.709 45.704 45.711 45.696 45.704 45.704 45.714 45.716 45.706 45.709 45.709 45.731 45.751 45.759 45.781 45.801 45.831 45.876 45.901 45.931 45.961 46.009 46.046 46.079 46.104 46.144 46.191 46.206 46.249 46.266 46.254 46.256 46.264 46.274 46.286 46.276 46.316 46.309 46.304 46.334 46.344 46.346 46.356 46.389 46.416 46.479 46.516 46.579 46.634 46.686 46.749 46.769 46.811 46.854 46.834 46.849 46.829 46.764 48.219 48.636 48.221 48.291 48.419 48.554 48.686 48.839 48.984 49.166 49.341 49.521 49.671 49.881 50.019 50.214 50.354 50.509 50.654 50.791 50.929 51.064 51.199 51.324 51.429 51.544 51.646 51.764 51.861 51.936 52.039 52.131 52.206 52.291 52.341 52.406 52.476 52.534 52.574 52.611 52.654 52.706 52.776 52.831 52.871 52.924 52.924 52.989 52.986 53.001 52.986 53.009 53.021 53.001 52.984 52.949 52.859 52.804 52.779 52.751 52.696 52.676 52.634 52.621 52.589 52.594 52.571 52.579 52.581 52.576 52.606 52.656 52.686 52.711 52.746 52.774 52.819 52.844 52.894 52.964 52.976 53.011 53.069 53.134 53.281 53.424 53.581 53.691 53.731 53.721 53.736 53.771 53.796 53.826 53.861 53.884 53.919 53.936 53.964 54.019 54.039 54.011 54.049 53.991 54.016 54.044 54.044 53.996 53.984 53.944 53.886 53.846 53.769 53.706 53.634 53.561 53.446 53.356 53.254 53.101 52.984 52.859 52.736 52.601 52.434 52.291 52.136 51.959 51.776 51.574 51.376 51.181 50.959 50.734 50.529 50.314 50.096 49.871 49.616 49.411 49.186 48.949 48.719 48.481 48.286 48.046 47.844 47.681 47.486 47.294 47.089 46.891 46.731 46.541 46.369 46.169 46.004 45.829 45.684 45.519 45.371 45.209 45.041 44.874 44.744 44.616 44.506 44.396 44.286 44.154 43.964 43.729 43.424 43.094 42.746 42.374 42.001 41.584 41.174 40.756 40.344 39.946 39.566 39.194 38.819 38.489 38.174 37.899 37.634 37.324 36.876 36.774 37.796 37.809 38.314 39.694 38.701 38.516 39.004 38.924 39.244 39.999 39.561 39.156 39.284 39.644 40.061 40.091 40.241 40.489 40.816 41.159
45.469 45.506 45.576 45.654 45.706 45.759 45.821 45.861 45.916 45.939 45.971 46.024 46.074 46.116 46.146 46.146 46.184 46.229 46.254 46.274 46.279 46.326 46.316 46.361 46.386 46.386 46.434 46.424 46.391 47.011 46.924 46.679 46.681 46.676 46.736 46.796 46.874 46.944 47.021 47.089 47.196 47.309 47.411 47.534 47.616 47.671 47.711 47.754 47.781 47.814 47.846 47.881 47.891 47.891 47.891 47.866 47.874 47.899 47.866 47.824 47.809 47.786 47.756 47.719 47.639 47.611 47.581 47.519 47.461 47.424 47.409 47.341 47.299 47.286 47.236 47.184 47.174 47.124 47.089 47.036 46.994 46.916 46.879 46.816 46.774 46.686 46.636 46.581 46.516 46.476 46.421 46.356 46.306 46.246 46.204 46.164 46.109 46.044 45.991 45.904 45.909 45.871 45.806 45.751 45.731 45.664 45.619 45.581 45.559 45.526 45.479 45.429 45.414 45.371 45.339 45.301 45.296 45.279 45.264 45.299 45.276 45.279 45.256 45.276 45.269 45.281 45.279 45.321 45.316 45.304 45.296 45.304 45.316 45.324 45.329 45.349 45.331 45.336 45.326 45.326 45.331 45.356 45.339 45.354 45.369 45.364 45.371 45.386 45.394 45.404 45.411 45.451 45.466 45.504 45.541 45.581 45.601 45.636 45.656 45.694 45.744 45.799 45.816 45.856 45.879 45.901 45.914 45.919 45.909 45.919 45.919 45.926 45.946 45.951 45.936 45.961 45.964 45.979 45.986 45.986 46.016 46.049 46.071 46.111 46.154 46.234 46.274 46.329 46.341 46.369 46.399 46.429 46.391 46.364 46.294 47.646 48.169 47.709 47.799 47.904 48.024 48.164 48.294 48.434 48.651 48.806 48.969 49.119 49.276 49.479 49.646 49.784 49.926 50.074 50.239 50.339 50.464 50.579 50.716 50.846 50.959 51.051 51.151 51.264 51.346 51.449 51.511 51.589 51.686 51.734 51.809 51.871 51.936 51.974 52.024 52.064 52.131 52.201 52.241 52.281 52.334 52.404 52.411 52.406 52.414 52.429 52.466 52.439 52.436 52.426 52.371 52.359 52.319 52.311 52.251 52.201 52.154 52.144 52.134 52.091 52.071 52.061 52.076 52.086 52.086 52.106 52.134 52.171 52.181 52.231 52.281 52.304 52.364 52.384 52.439 52.481 52.501 52.539 52.624 52.744 52.911 53.086 53.174 53.204 53.191 53.194 53.234 53.239 53.279 53.304 53.359 53.364 53.384 53.384 53.434 53.444 53.434 53.434 53.424 53.411 53.429 53.404 53.399 53.376 53.311 53.274 53.191 53.161 53.089 53.004 52.904 52.859 52.719 52.604 52.499 52.374 52.251 52.131 51.979 51.839 51.689 51.541 51.399 51.216 51.016 50.829 50.634 50.411 50.216 50.024 49.806 49.589 49.381 49.166 48.939 48.724 48.494 48.284 48.071 47.824 47.639 47.454 47.266 47.069 46.891 46.691 46.526 46.366 46.184 46.004 45.821 45.674 45.496 45.329 45.169 45.014 44.854 44.696 44.541 44.451 44.344 44.231 44.114 44.016 43.851 43.599 43.324 42.996 42.686 42.339 41.934 41.511 41.099 40.706 40.286 39.894 39.519 39.161 38.811 38.484 38.189 37.909 37.654 37.379 37.101 36.954 37.426 40.799 39.584 38.311 37.916 38.781 38.016 38.236 38.956 41.026 40.001 39.836 40.114 40.344 40.714 40.721 40.584 40.601 40.976 41.171 41.516
44.999 45.056 45.141 45.206 45.259 45.304 45.354 45.406 45.444 45.481 45.509 45.561 45.616 45.654 45.684 45.709 45.731 45.774 45.791 45.829 45.879 45.879 45.904 45.934 45.969 45.974 46.004 46.016 45.946 46.561 46.494 46.261 46.249 46.249 46.301 46.341 46.419 46.476 46.541 46.621 46.694 46.804 46.904 47.011 47.079 47.171 47.219 47.239 47.274 47.296 47.351 47.346 47.386 47.349 47.366 47.354 47.349 47.349 47.326 47.299 47.276 47.249 47.201 47.196 47.134 47.106 47.056 46.999 46.946 46.916 46.874 46.816 46.796 46.754 46.714 46.659 46.646 46.614 46.589 46.541 46.486 46.429 46.369 46.321 46.259 46.216 46.141 46.081 46.011 45.981 45.926 45.859 45.806 45.759 45.716 45.684 45.639 45.586 45.536 45.476 45.426 45.396 45.346 45.309 45.289 45.224 45.166 45.159 45.134 45.094 45.064 45.059 45.014 44.986 44.951 44.941 44.924 44.919 44.901 44.929 44.919 44.904 44.919 44.914 44.934 44.931 44.941 44.936 44.949 44.966 44.951 44.961 44.959 44.971 44.969 44.981 44.981 44.976 44.959 44.986 44.981 45.004 44.986 44.999 45.024 45.044 45.046 45.034 45.049 45.094 45.104 45.111 45.164 45.181 45.201 45.241 45.276 45.319 45.319 45.361 45.409 45.456 45.469 45.531 45.551 45.569 45.571 45.569 45.601 45.579 45.589 45.586 45.599 45.609 45.621 45.634 45.629 45.636 45.631 45.644 45.651 45.676 45.689 45.734 45.779 45.824 45.874 45.921 45.924 45.936 45.974 46.016 46.004 45.949 45.816 47.316 47.566 47.239 47.311 47.406 47.496 47.611 47.774 47.919 48.101 48.261 48.409 48.576 48.721 48.901 49.054 49.201 49.351 49.506 49.629 49.744 49.886 50.011 50.131 50.231 50.359 50.471 50.569 50.656 50.759 50.851 50.934 51.019 51.094 51.164 51.214 51.296 51.344 51.391 51.434 51.491 51.539 51.601 51.659 51.709 51.761 51.811 51.834 51.836 51.859 51.856 51.879 51.896 51.879 51.874 51.816 51.839 51.856 51.801 51.756 51.704 51.676 51.626 51.626 51.586 51.569 51.581 51.584 51.589 51.596 51.606 51.644 51.649 51.676 51.716 51.766 51.801 51.831 51.874 51.919 51.944 51.999 52.049 52.116 52.246 52.411 52.574 52.659 52.639 52.634 52.656 52.679 52.684 52.721 52.761 52.804 52.799 52.791 52.816 52.839 52.836 52.844 52.846 52.809 52.836 52.824 52.806 52.771 52.749 52.706 52.654 52.586 52.526 52.461 52.379 52.286 52.189 52.094 51.984 51.874 51.769 51.624 51.514 51.384 51.236 51.099 50.984 50.786 50.626 50.446 50.279 50.091 49.876 49.684 49.496 49.326 49.114 48.909 48.704 48.481 48.271 48.059 47.836 47.636 47.439 47.226 47.044 46.854 46.661 46.486 46.289 46.131 45.976 45.811 45.624 45.451 45.286 45.126 44.959 44.831 44.651 44.529 44.386 44.249 44.134 44.056 43.936 43.824 43.681 43.461 43.204 42.896 42.574 42.264 41.899 41.461 41.061 40.646 40.269 39.846 39.474 39.121 38.784 38.459 38.184 37.904 37.661 37.396 37.134 36.864 36.736 36.669 39.584 38.641 38.014 38.034 38.144 38.046 38.119 38.964 39.309 40.204 39.151 40.099 41.166 41.494 41.144 40.821 41.126 41.694 41.594 42.114
44.549 44.601 44.676 44.746 44.784 44.836 44.889 44.921 44.954 45.016 45.054 45.116 45.159 45.191 45.224 45.264 45.296 45.336 45.356 45.381 45.431 45.439 45.464 45.501 45.524 45.534 45.594 45.589 45.544 46.166 46.086 45.824 45.829 45.844 45.879 45.909 45.946 46.011 46.081 46.129 46.194 46.289 46.406 46.489 46.564 46.659 46.726 46.754 46.764 46.791 46.814 46.816 46.821 46.814 46.811 46.799 46.821 46.796 46.784 46.771 46.741 46.701 46.694 46.639 46.596 46.549 46.521 46.479 46.416 46.374 46.346 46.314 46.289 46.236 46.199 46.159 46.141 46.116 46.071 46.026 45.976 45.934 45.889 45.811 45.769 45.706 45.646 45.596 45.526 45.484 45.434 45.374 45.301 45.259 45.226 45.201 45.141 45.104 45.064 45.006 44.954 44.934 44.881 44.869 44.831 44.774 44.749 44.734 44.714 44.681 44.686 44.661 44.641 44.596 44.574 44.589 44.574 44.586 44.564 44.574 44.566 44.566 44.576 44.586 44.589 44.609 44.604 44.631 44.609 44.611 44.609 44.621 44.619 44.639 44.614 44.639 44.644 44.629 44.636 44.651 44.666 44.666 44.664 44.679 44.701 44.701 44.719 44.719 44.744 44.734 44.749 44.786 44.829 44.851 44.911 44.939 44.976 44.984 45.026 45.049 45.091 45.136 45.184 45.194 45.221 45.241 45.266 45.266 45.261 45.266 45.251 45.271 45.271 45.279 45.299 45.281 45.294 45.291 45.291 45.309 45.301 45.329 45.341 45.381 45.421 45.444 45.474 45.504 45.516 45.551 45.574 45.596 45.566 45.504 45.436 46.846 47.111 46.759 46.824 46.899 46.996 47.101 47.264 47.419 47.576 47.711 47.876 48.031 48.166 48.344 48.506 48.631 48.786 48.926 49.069 49.201 49.331 49.436 49.561 49.649 49.776 49.886 49.994 50.094 50.184 50.271 50.356 50.426 50.524 50.581 50.654 50.711 50.766 50.826 50.864 50.911 50.971 51.034 51.064 51.129 51.166 51.221 51.244 51.276 51.299 51.306 51.319 51.326 51.336 51.319 51.304 51.316 51.349 51.294 51.269 51.211 51.154 51.121 51.094 51.074 51.056 51.069 51.081 51.074 51.089 51.091 51.119 51.136 51.184 51.209 51.246 51.279 51.299 51.346 51.404 51.436 51.446 51.529 51.604 51.749 51.901 52.079 52.124 52.104 52.081 52.101 52.121 52.136 52.156 52.206 52.231 52.219 52.224 52.269 52.264 52.261 52.264 52.261 52.259 52.251 52.219 52.186 52.186 52.124 52.084 52.056 51.986 51.924 51.836 51.741 51.636 51.576 51.446 51.344 51.259 51.141 51.021 50.879 50.761 50.661 50.511 50.384 50.211 50.034 49.891 49.731 49.551 49.349 49.169 49.004 48.786 48.596 48.419 48.219 48.021 47.804 47.604 47.409 47.184 46.991 46.791 46.611 46.451 46.266 46.059 45.896 45.749 45.599 45.414 45.256 45.086 44.921 44.746 44.599 44.466 44.324 44.191 44.046 43.934 43.859 43.754 43.644 43.501 43.329 43.041 42.756 42.426 42.139 41.824 41.416 40.976 40.599 40.236 39.826 39.419 39.084 38.756 38.456 38.149 37.879 37.649 37.386 37.151 36.879 36.634 36.491 36.724 37.641 37.626 37.656 37.721 37.949 37.894 38.054 38.244 38.446 38.766 38.831 38.961 39.454 39.864 39.906 39.909 40.141 40.749 40.269 40.401
44.106 44.181 44.234 44.284 44.331 44.391 44.434 44.476 44.514 44.541 44.576 44.631 44.689 44.724 44.761 44.806 44.839 44.879 44.909 44.939 44.954 44.986 45.021 45.054 45.086 45.111 45.144 45.166 45.171 45.809 45.686 45.391 45.401 45.401 45.416 45.434 45.484 45.549 45.616 45.639 45.709 45.779 45.881 45.976 46.059 46.149 46.181 46.256 46.264 46.259 46.274 46.284 46.286 46.276 46.271 46.266 46.266 46.244 46.226 46.206 46.181 46.151 46.144 46.111 46.049 46.006 45.996 45.941 45.884 45.859 45.819 45.791 45.734 45.711 45.679 45.654 45.604 45.574 45.556 45.496 45.469 45.431 45.371 45.329 45.269 45.216 45.164 45.101 45.049 45.001 44.946 44.879 44.846 44.786 44.759 44.714 44.666 44.634 44.579 44.544 44.509 44.499 44.454 44.424 44.396 44.354 44.364 44.346 44.321 44.276 44.294 44.291 44.266 44.246 44.244 44.231 44.239 44.236 44.224 44.229 44.236 44.224 44.231 44.249 44.241 44.269 44.274 44.281 44.269 44.271 44.284 44.296 44.289 44.294 44.286 44.304 44.314 44.314 44.296 44.316 44.349 44.331 44.346 44.354 44.371 44.379 44.394 44.411 44.419 44.431 44.451 44.484 44.534 44.561 44.594 44.619 44.641 44.674 44.711 44.754 44.779 44.816 44.834 44.869 44.914 44.931 44.931 44.941 44.936 44.936 44.941 44.964 44.949 44.986 44.969 44.951 44.969 44.956 44.956 44.961 44.959 44.979 44.991 45.014 45.059 45.109 45.109 45.126 45.141 45.161 45.194 45.214 45.169 45.114 44.976 46.766 46.589 46.296 46.344 46.436 46.504 46.626 46.764 46.894 47.051 47.194 47.356 47.509 47.649 47.801 47.954 48.094 48.229 48.369 48.499 48.644 48.776 48.886 48.991 49.104 49.211 49.341 49.416 49.534 49.641 49.716 49.806 49.866 49.961 50.036 50.091 50.149 50.214 50.241 50.299 50.361 50.436 50.471 50.514 50.566 50.594 50.646 50.681 50.716 50.746 50.751 50.784 50.799 50.779 50.786 50.766 50.806 50.816 50.799 50.766 50.696 50.664 50.631 50.581 50.586 50.561 50.551 50.574 50.571 50.596 50.604 50.609 50.651 50.684 50.731 50.739 50.764 50.786 50.824 50.874 50.901 50.964 51.004 51.079 51.221 51.391 51.549 51.579 51.589 51.546 51.549 51.559 51.606 51.629 51.654 51.664 51.664 51.691 51.709 51.714 51.684 51.686 51.671 51.689 51.664 51.626 51.611 51.554 51.506 51.486 51.426 51.356 51.289 51.214 51.136 51.039 50.946 50.854 50.769 50.666 50.539 50.429 50.316 50.189 50.089 49.949 49.796 49.631 49.479 49.334 49.154 48.981 48.821 48.629 48.471 48.294 48.099 47.911 47.731 47.544 47.341 47.136 46.941 46.746 46.556 46.361 46.209 46.024 45.826 45.664 45.504 45.349 45.206 45.029 44.869 44.706 44.536 44.404 44.249 44.109 43.964 43.861 43.744 43.649 43.569 43.456 43.324 43.124 42.861 42.574 42.284 41.994 41.681 41.289 40.901 40.541 40.156 39.796 39.404 39.064 38.736 38.434 38.154 37.849 37.574 37.361 37.116 36.891 36.699 36.441 36.084 36.969 37.924 37.669 37.639 37.621 37.706 37.844 37.914 38.124 38.231 38.561 38.741 38.874 39.441 39.421 39.724 41.614 42.119 43.376 42.086 40.196
43.659 43.706 43.779 43.819 43.851 43.919 43.966 43.999 44.059 44.094 44.139 44.191 44.234 44.281 44.316 44.359 44.416 44.414 44.456 44.489 44.516 44.554 44.584 44.611 44.646 44.684 44.701 44.731 44.671 45.264 45.311 44.959 44.976 44.959 44.961 45.001 45.046 45.104 45.134 45.164 45.216 45.324 45.376 45.471 45.534 45.626 45.691 45.706 45.711 45.759 45.739 45.739 45.739 45.729 45.751 45.716 45.711 45.679 45.669 45.654 45.634 45.614 45.599 45.549 45.489 45.471 45.431 45.386 45.359 45.324 45.301 45.249 45.214 45.186 45.174 45.146 45.126 45.076 45.034 44.981 44.954 44.934 44.864 44.836 44.779 44.744 44.674 44.626 44.591 44.524 44.459 44.424 44.354 44.316 44.284 44.254 44.214 44.154 44.121 44.094 44.066 44.039 44.011 43.991 43.976 43.961 43.946 43.936 43.931 43.924 43.919 43.921 43.899 43.881 43.904 43.896 43.881 43.876 43.889 43.881 43.914 43.899 43.896 43.926 43.929 43.941 43.959 43.961 43.944 43.961 43.961 43.959 43.966 43.959 43.986 43.984 43.991 43.989 43.999 43.999 43.996 44.026 44.051 44.049 44.054 44.069 44.086 44.094 44.091 44.116 44.136 44.166 44.211 44.249 44.271 44.314 44.346 44.361 44.401 44.439 44.466 44.499 44.516 44.564 44.576 44.609 44.624 44.629 44.624 44.619 44.626 44.639 44.646 44.646 44.634 44.649 44.641 44.631 44.626 44.631 44.639 44.649 44.664 44.696 44.719 44.739 44.741 44.766 44.786 44.796 44.816 44.831 44.809 44.739 44.636 46.216 46.264 45.854 45.884 45.986 46.066 46.159 46.269 46.431 46.556 46.709 46.851 46.981 47.134 47.289 47.426 47.544 47.674 47.819 47.971 48.099 48.204 48.316 48.431 48.554 48.659 48.774 48.884 48.979 49.089 49.171 49.256 49.331 49.409 49.479 49.549 49.621 49.664 49.694 49.751 49.791 49.846 49.939 49.976 50.036 50.056 50.119 50.144 50.169 50.196 50.226 50.229 50.231 50.239 50.254 50.234 50.286 50.326 50.296 50.216 50.179 50.141 50.119 50.081 50.071 50.069 50.059 50.076 50.076 50.084 50.114 50.141 50.169 50.206 50.226 50.256 50.269 50.281 50.331 50.371 50.414 50.451 50.489 50.576 50.726 50.884 51.011 51.066 51.021 50.986 51.006 51.046 51.051 51.066 51.089 51.094 51.119 51.149 51.154 51.146 51.136 51.121 51.129 51.131 51.106 51.051 51.021 50.984 50.931 50.871 50.834 50.766 50.699 50.594 50.516 50.444 50.356 50.271 50.136 50.061 49.944 49.829 49.724 49.619 49.499 49.359 49.219 49.064 48.926 48.769 48.606 48.431 48.279 48.106 47.934 47.749 47.604 47.429 47.214 47.054 46.876 46.676 46.489 46.304 46.109 45.939 45.774 45.594 45.409 45.271 45.104 44.976 44.796 44.641 44.471 44.331 44.169 44.029 43.869 43.766 43.654 43.541 43.439 43.384 43.266 43.139 42.911 42.686 42.419 42.131 41.869 41.564 41.214 40.841 40.459 40.094 39.759 39.384 39.034 38.709 38.404 38.106 37.826 37.546 37.319 37.074 36.859 36.506 36.304 35.856 36.574 37.394 37.731 37.579 37.524 37.471 37.461 37.699 40.606 40.494 39.174 38.386 38.674 38.819 39.121 39.369 39.931 42.456 42.679 43.721 41.731 40.179
43.236 43.281 43.336 43.364 43.404 43.446 43.489 43.541 43.606 43.649 43.694 43.724 43.781 43.824 43.891 43.919 43.944 43.994 44.034 44.046 44.069 44.091 44.134 44.179 44.206 44.224 44.266 44.274 44.246 44.814 44.781 44.536 44.509 44.494 44.516 44.551 44.611 44.624 44.654 44.694 44.749 44.786 44.861 44.916 45.029 45.111 45.151 45.156 45.181 45.209 45.199 45.206 45.161 45.169 45.184 45.166 45.136 45.131 45.111 45.081 45.071 45.061 45.031 44.991 44.939 44.931 44.899 44.846 44.816 44.784 44.776 44.741 44.694 44.674 44.656 44.626 44.591 44.554 44.516 44.479 44.451 44.414 44.371 44.354 44.301 44.261 44.196 44.159 44.109 44.054 43.981 43.946 43.894 43.849 43.811 43.789 43.754 43.721 43.689 43.651 43.624 43.616 43.589 43.559 43.541 43.544 43.554 43.559 43.559 43.554 43.569 43.564 43.551 43.554 43.546 43.559 43.556 43.556 43.569 43.581 43.569 43.571 43.591 43.616 43.634 43.624 43.629 43.649 43.626 43.649 43.626 43.624 43.649 43.654 43.671 43.666 43.671 43.669 43.676 43.694 43.679 43.711 43.719 43.736 43.741 43.754 43.779 43.779 43.794 43.796 43.839 43.859 43.909 43.931 43.964 43.991 44.041 44.054 44.079 44.144 44.166 44.199 44.221 44.241 44.284 44.294 44.319 44.304 44.306 44.331 44.294 44.326 44.356 44.336 44.324 44.324 44.334 44.329 44.319 44.314 44.306 44.334 44.349 44.376 44.371 44.396 44.401 44.414 44.456 44.454 44.486 44.481 44.439 44.374 44.266 45.994 45.816 45.431 45.456 45.554 45.611 45.709 45.836 45.939 46.086 46.204 46.351 46.476 46.626 46.781 46.911 47.046 47.171 47.306 47.444 47.549 47.671 47.799 47.896 48.014 48.136 48.239 48.356 48.451 48.521 48.626 48.709 48.784 48.856 48.941 49.021 49.071 49.129 49.166 49.216 49.276 49.326 49.419 49.461 49.504 49.536 49.591 49.606 49.649 49.676 49.696 49.686 49.701 49.716 49.711 49.736 49.776 49.811 49.784 49.731 49.684 49.659 49.631 49.604 49.591 49.579 49.589 49.616 49.596 49.611 49.631 49.676 49.696 49.716 49.741 49.771 49.796 49.809 49.851 49.879 49.906 49.936 50.004 50.081 50.229 50.404 50.504 50.536 50.501 50.466 50.486 50.519 50.524 50.546 50.566 50.599 50.621 50.621 50.619 50.619 50.619 50.584 50.591 50.566 50.556 50.501 50.456 50.401 50.346 50.304 50.241 50.181 50.089 50.029 49.954 49.869 49.779 49.694 49.599 49.479 49.354 49.261 49.179 49.054 48.941 48.791 48.656 48.489 48.349 48.209 48.051 47.899 47.744 47.546 47.406 47.251 47.076 46.919 46.734 46.551 46.376 46.189 46.006 45.831 45.661 45.506 45.326 45.144 44.989 44.871 44.709 44.559 44.409 44.279 44.096 43.966 43.809 43.654 43.556 43.444 43.349 43.244 43.181 43.081 42.936 42.739 42.526 42.236 41.959 41.716 41.431 41.094 40.761 40.411 40.056 39.719 39.379 39.029 38.689 38.384 38.054 37.759 37.494 37.261 37.061 36.849 36.491 36.219 35.839 37.414 38.166 37.206 37.381 37.584 37.501 37.429 37.511 37.691 37.616 42.426 38.109 38.411 38.756 39.029 39.169 39.664 39.949 42.489 42.761 43.626 42.174 40.154
42.774 42.831 42.871 42.904 42.959 43.009 43.056 43.079 43.154 43.206 43.239 43.266 43.321 43.376 43.429 43.466 43.494 43.546 43.581 43.591 43.636 43.654 43.689 43.734 43.746 43.781 43.821 43.824 43.806 44.306 44.529 44.076 44.041 44.036 44.056 44.099 44.119 44.136 44.191 44.206 44.251 44.291 44.329 44.399 44.491 44.569 44.604 44.629 44.659 44.689 44.664 44.659 44.654 44.636 44.611 44.606 44.576 44.571 44.556 44.531 44.509 44.504 44.474 44.441 44.406 44.399 44.346 44.326 44.264 44.231 44.224 44.211 44.169 44.134 44.099 44.099 44.074 44.031 44.001 43.944 43.939 43.909 43.871 43.834 43.806 43.754 43.699 43.666 43.609 43.566 43.521 43.484 43.459 43.401 43.364 43.349 43.319 43.286 43.269 43.254 43.214 43.209 43.201 43.189 43.181 43.186 43.209 43.211 43.199 43.211 43.209 43.209 43.219 43.199 43.219 43.196 43.224 43.236 43.264 43.254 43.249 43.266 43.276 43.284 43.304 43.306 43.321 43.321 43.321 43.324 43.316 43.339 43.331 43.344 43.354 43.354 43.346 43.364 43.376 43.391 43.369 43.421 43.429 43.431 43.444 43.464 43.476 43.481 43.491 43.521 43.544 43.561 43.616 43.639 43.666 43.701 43.736 43.759 43.789 43.809 43.856 43.876 43.901 43.931 43.964 43.991 43.996 43.991 43.986 43.999 43.999 44.021 44.029 44.021 44.016 44.041 44.029 44.019 44.006 44.014 44.011 44.039 44.044 44.059 44.086 44.071 44.084 44.101 44.124 44.124 44.136 44.119 44.074 44.011 44.009 45.596 45.271 45.014 45.036 45.109 45.181 45.289 45.376 45.499 45.636 45.771 45.886 46.021 46.151 46.306 46.411 46.544 46.669 46.801 46.924 47.036 47.154 47.269 47.401 47.491 47.619 47.734 47.821 47.939 48.029 48.109 48.174 48.246 48.341 48.434 48.489 48.561 48.604 48.649 48.714 48.774 48.819 48.904 48.959 48.989 49.036 49.071 49.099 49.134 49.169 49.186 49.199 49.206 49.204 49.201 49.216 49.284 49.291 49.254 49.226 49.184 49.181 49.161 49.146 49.124 49.129 49.134 49.151 49.151 49.151 49.189 49.194 49.211 49.261 49.254 49.296 49.311 49.336 49.369 49.411 49.434 49.459 49.516 49.609 49.744 49.896 50.001 50.016 49.984 49.959 49.974 49.981 50.001 50.011 50.036 50.079 50.104 50.096 50.069 50.076 50.066 50.064 50.044 50.029 50.016 49.991 49.911 49.859 49.809 49.766 49.704 49.621 49.544 49.461 49.396 49.299 49.216 49.159 49.014 48.904 48.796 48.696 48.611 48.484 48.359 48.221 48.086 47.956 47.796 47.661 47.511 47.359 47.196 47.029 46.879 46.716 46.566 46.414 46.239 46.099 45.916 45.731 45.539 45.384 45.216 45.064 44.886 44.726 44.576 44.456 44.304 44.159 44.026 43.896 43.736 43.579 43.461 43.306 43.249 43.144 43.036 42.956 42.881 42.746 42.566 42.329 42.064 41.821 41.561 41.286 40.979 40.671 40.351 39.996 39.656 39.354 39.004 38.664 38.369 38.024 37.729 37.471 37.206 36.991 36.766 36.566 36.249 35.836 35.431 37.304 37.219 37.054 37.149 37.401 37.784 37.559 37.496 37.641 37.474 37.389 38.026 38.561 39.026 39.156 39.199 39.394 40.429 42.451 42.534 43.704 42.301 40.059
42.339 42.384 42.426 42.466 42.516 42.566 42.621 42.651 42.701 42.756 42.811 42.844 42.876 42.921 42.981 43.009 43.054 43.094 43.136 43.154 43.194 43.216 43.251 43.286 43.319 43.344 43.361 43.404 43.346 43.756 44.099 43.616 43.599 43.566 43.619 43.629 43.659 43.679 43.701 43.726 43.744 43.796 43.851 43.889 43.951 44.031 44.049 44.106 44.131 44.134 44.134 44.114 44.101 44.069 44.081 44.056 44.034 44.006 43.999 43.971 43.961 43.944 43.926 43.876 43.864 43.829 43.814 43.789 43.719 43.714 43.684 43.676 43.649 43.619 43.601 43.561 43.554 43.506 43.481 43.459 43.431 43.419 43.369 43.336 43.311 43.271 43.221 43.184 43.141 43.106 43.054 43.024 43.006 42.954 42.941 42.929 42.911 42.866 42.844 42.824 42.806 42.834 42.811 42.826 42.809 42.831 42.834 42.859 42.846 42.859 42.876 42.869 42.901 42.889 42.894 42.906 42.906 42.916 42.916 42.931 42.936 42.961 42.969 42.996 42.986 43.001 43.026 43.041 43.024 43.029 43.031 43.031 43.036 43.054 43.046 43.066 43.059 43.079 43.086 43.089 43.081 43.121 43.129 43.134 43.156 43.171 43.196 43.194 43.201 43.219 43.244 43.271 43.306 43.339 43.386 43.411 43.441 43.466 43.506 43.536 43.564 43.579 43.596 43.641 43.666 43.656 43.671 43.689 43.694 43.681 43.696 43.711 43.714 43.726 43.724 43.736 43.734 43.726 43.706 43.706 43.724 43.724 43.736 43.754 43.754 43.756 43.766 43.776 43.791 43.801 43.814 43.769 43.741 43.694 43.596 45.259 44.874 44.621 44.644 44.711 44.781 44.871 44.976 45.084 45.201 45.331 45.464 45.574 45.706 45.824 45.951 46.066 46.211 46.321 46.444 46.536 46.639 46.749 46.854 46.974 47.089 47.201 47.294 47.426 47.494 47.619 47.669 47.769 47.834 47.906 47.986 48.064 48.096 48.159 48.201 48.264 48.316 48.396 48.449 48.486 48.539 48.584 48.616 48.649 48.669 48.679 48.679 48.701 48.721 48.709 48.726 48.764 48.786 48.776 48.726 48.726 48.719 48.696 48.684 48.671 48.679 48.686 48.684 48.701 48.724 48.721 48.756 48.771 48.796 48.804 48.846 48.861 48.869 48.919 48.956 48.966 48.996 49.051 49.156 49.276 49.411 49.516 49.514 49.476 49.451 49.466 49.496 49.511 49.511 49.541 49.564 49.584 49.581 49.576 49.571 49.564 49.556 49.536 49.531 49.506 49.456 49.396 49.314 49.269 49.234 49.139 49.054 48.981 48.934 48.821 48.759 48.689 48.591 48.486 48.356 48.256 48.164 48.061 47.939 47.806 47.681 47.541 47.424 47.256 47.124 46.976 46.804 46.626 46.509 46.369 46.191 46.081 45.904 45.756 45.591 45.421 45.261 45.076 44.921 44.774 44.626 44.461 44.321 44.169 44.039 43.889 43.754 43.651 43.524 43.364 43.249 43.139 43.014 42.924 42.831 42.756 42.669 42.534 42.374 42.159 41.909 41.676 41.419 41.146 40.856 40.571 40.261 39.939 39.614 39.324 38.991 38.664 38.354 38.036 37.751 37.431 37.181 36.931 36.724 36.494 36.231 36.169 35.289 38.059 36.821 36.896 37.091 37.704 37.624 37.191 37.229 37.254 37.439 37.464 37.031 37.964 38.501 38.911 39.139 39.271 39.426 39.626 39.711 39.751 39.886 40.056 39.944
41.886 41.931 42.004 42.039 42.061 42.111 42.156 42.211 42.291 42.306 42.334 42.391 42.421 42.486 42.529 42.581 42.619 42.674 42.694 42.721 42.751 42.776 42.821 42.864 42.881 42.899 42.911 42.911 42.914 43.266 43.719 43.201 43.144 43.116 43.139 43.154 43.181 43.206 43.221 43.221 43.256 43.299 43.341 43.381 43.411 43.481 43.511 43.564 43.576 43.596 43.594 43.561 43.566 43.526 43.526 43.491 43.481 43.444 43.441 43.424 43.411 43.409 43.374 43.336 43.309 43.304 43.286 43.234 43.181 43.181 43.136 43.139 43.121 43.086 43.061 43.036 43.024 43.001 42.991 42.946 42.939 42.914 42.901 42.871 42.841 42.796 42.786 42.744 42.686 42.674 42.614 42.584 42.551 42.539 42.524 42.501 42.499 42.464 42.461 42.434 42.446 42.444 42.436 42.449 42.456 42.471 42.489 42.521 42.511 42.526 42.549 42.551 42.554 42.544 42.556 42.561 42.581 42.599 42.624 42.619 42.651 42.649 42.664 42.696 42.714 42.729 42.724 42.736 42.726 42.731 42.749 42.734 42.741 42.751 42.756 42.774 42.771 42.791 42.764 42.796 42.804 42.831 42.824 42.851 42.859 42.886 42.896 42.894 42.911 42.934 42.951 42.996 43.014 43.056 43.076 43.111 43.151 43.166 43.199 43.224 43.259 43.276 43.321 43.331 43.339 43.366 43.364 43.394 43.391 43.391 43.399 43.409 43.424 43.421 43.429 43.414 43.424 43.431 43.426 43.416 43.434 43.454 43.449 43.444 43.444 43.451 43.446 43.474 43.499 43.491 43.491 43.456 43.424 43.356 43.324 44.906 44.466 44.256 44.261 44.331 44.394 44.451 44.589 44.689 44.791 44.924 45.029 45.159 45.284 45.401 45.514 45.649 45.771 45.869 45.966 46.079 46.169 46.306 46.419 46.514 46.621 46.731 46.836 46.944 47.029 47.109 47.206 47.266 47.346 47.419 47.504 47.564 47.616 47.651 47.724 47.769 47.841 47.919 47.984 48.026 48.046 48.081 48.116 48.149 48.186 48.179 48.179 48.221 48.244 48.251 48.251 48.256 48.304 48.294 48.271 48.279 48.279 48.259 48.249 48.234 48.234 48.249 48.259 48.269 48.269 48.289 48.316 48.321 48.374 48.366 48.424 48.446 48.441 48.474 48.479 48.521 48.564 48.609 48.719 48.829 48.939 49.024 49.021 48.989 48.974 48.984 49.009 49.019 49.049 49.076 49.091 49.094 49.091 49.094 49.086 49.096 49.059 49.061 49.014 48.986 48.931 48.889 48.819 48.761 48.699 48.631 48.544 48.451 48.391 48.321 48.239 48.149 48.079 47.939 47.834 47.744 47.639 47.524 47.421 47.271 47.141 47.029 46.884 46.724 46.601 46.441 46.319 46.144 46.009 45.884 45.731 45.584 45.431 45.284 45.124 44.966 44.824 44.659 44.516 44.359 44.211 44.054 43.919 43.789 43.646 43.524 43.394 43.279 43.164 43.044 42.914 42.799 42.724 42.626 42.546 42.466 42.326 42.169 41.964 41.756 41.526 41.279 41.006 40.756 40.479 40.184 39.881 39.581 39.284 38.971 38.644 38.334 38.021 37.706 37.389 37.144 36.909 36.639 36.429 36.166 36.104 35.329 35.474 38.726 37.179 37.316 37.171 38.071 37.746 37.051 36.961 37.119 37.091 36.676 37.301 38.024 38.499 38.929 39.246 39.336 39.431 39.569 39.649 39.716 39.776 39.796 39.864
41.459 41.501 41.566 41.596 41.626 41.661 41.699 41.784 41.834 41.856 41.914 41.969 41.999 42.069 42.109 42.154 42.201 42.229 42.256 42.279 42.321 42.351 42.374 42.426 42.451 42.454 42.461 42.491 42.489 42.781 43.094 42.741 42.674 42.661 42.659 42.701 42.729 42.724 42.729 42.724 42.754 42.794 42.834 42.884 42.891 42.941 42.991 43.021 43.029 43.041 43.026 43.021 42.996 42.976 42.966 42.959 42.929 42.909 42.879 42.886 42.869 42.859 42.836 42.826 42.796 42.776 42.749 42.714 42.676 42.651 42.631 42.611 42.601 42.581 42.561 42.541 42.524 42.506 42.496 42.464 42.454 42.431 42.424 42.404 42.391 42.354 42.311 42.299 42.254 42.219 42.194 42.164 42.136 42.139 42.114 42.094 42.076 42.091 42.076 42.069 42.071 42.029 42.079 42.101 42.114 42.124 42.159 42.166 42.176 42.196 42.214 42.236 42.259 42.234 42.244 42.271 42.291 42.284 42.316 42.319 42.356 42.369 42.381 42.409 42.436 42.449 42.456 42.459 42.446 42.444 42.459 42.481 42.469 42.484 42.476 42.481 42.486 42.484 42.496 42.519 42.511 42.536 42.571 42.581 42.576 42.596 42.609 42.604 42.636 42.636 42.659 42.704 42.721 42.769 42.789 42.834 42.871 42.904 42.941 42.939 42.964 42.971 43.014 43.034 43.046 43.066 43.079 43.094 43.084 43.106 43.111 43.116 43.126 43.119 43.156 43.139 43.146 43.139 43.131 43.136 43.131 43.144 43.154 43.159 43.169 43.174 43.179 43.186 43.179 43.176 43.174 43.141 43.104 43.049 43.101 44.616 44.096 43.889 43.906 43.964 44.016 44.104 44.206 44.314 44.436 44.544 44.649 44.746 44.864 44.991 45.106 45.229 45.316 45.421 45.531 45.659 45.754 45.869 45.984 46.089 46.181 46.266 46.384 46.471 46.566 46.651 46.741 46.811 46.866 46.949 47.019 47.084 47.149 47.199 47.256 47.319 47.369 47.436 47.499 47.536 47.589 47.631 47.664 47.679 47.704 47.729 47.724 47.754 47.774 47.789 47.799 47.799 47.839 47.809 47.834 47.841 47.826 47.821 47.799 47.794 47.809 47.834 47.849 47.854 47.874 47.876 47.916 47.921 47.944 47.956 47.979 48.009 48.021 48.056 48.081 48.081 48.129 48.179 48.261 48.384 48.519 48.576 48.559 48.509 48.499 48.544 48.551 48.544 48.584 48.636 48.636 48.659 48.634 48.629 48.621 48.636 48.614 48.591 48.561 48.519 48.459 48.401 48.336 48.296 48.199 48.134 48.046 47.979 47.906 47.814 47.726 47.646 47.554 47.449 47.334 47.249 47.146 47.009 46.904 46.776 46.664 46.526 46.381 46.239 46.114 45.971 45.801 45.644 45.534 45.386 45.241 45.094 44.969 44.821 44.669 44.531 44.386 44.261 44.124 43.956 43.786 43.686 43.554 43.421 43.279 43.154 43.049 42.924 42.814 42.721 42.616 42.539 42.454 42.354 42.264 42.146 41.984 41.791 41.576 41.374 41.161 40.899 40.619 40.389 40.106 39.824 39.514 39.239 38.944 38.631 38.311 37.986 37.696 37.396 37.124 36.851 36.634 36.364 36.146 35.711 35.416 35.974 38.051 37.511 37.384 37.214 37.114 37.009 36.771 36.846 37.051 37.114 37.146 36.894 37.556 38.101 38.514 38.904 39.291 39.484 39.481 39.551 39.621 39.656 39.934 39.921 39.759
41.024 41.064 41.114 41.136 41.186 41.256 41.281 41.341 41.386 41.421 41.474 41.536 41.561 41.609 41.661 41.711 41.754 41.804 41.834 41.849 41.861 41.916 41.956 41.981 42.006 42.006 42.019 42.049 42.059 42.329 42.839 42.306 42.219 42.204 42.201 42.221 42.234 42.239 42.246 42.254 42.256 42.286 42.319 42.359 42.376 42.401 42.436 42.469 42.484 42.519 42.509 42.489 42.464 42.436 42.439 42.406 42.379 42.366 42.366 42.341 42.344 42.309 42.289 42.299 42.264 42.254 42.214 42.216 42.174 42.136 42.116 42.116 42.099 42.066 42.046 42.039 42.029 42.041 42.001 41.996 41.964 41.981 41.961 41.934 41.941 41.919 41.884 41.846 41.816 41.814 41.789 41.761 41.754 41.714 41.716 41.694 41.706 41.694 41.711 41.709 41.704 41.711 41.751 41.781 41.799 41.809 41.844 41.849 41.876 41.876 41.896 41.936 41.966 41.954 41.951 41.974 41.984 42.001 42.024 42.036 42.051 42.089 42.101 42.129 42.161 42.166 42.184 42.176 42.189 42.161 42.166 42.191 42.186 42.211 42.196 42.199 42.196 42.201 42.209 42.221 42.239 42.266 42.281 42.284 42.284 42.306 42.306 42.334 42.356 42.376 42.379 42.414 42.451 42.484 42.524 42.546 42.576 42.621 42.624 42.651 42.684 42.704 42.736 42.746 42.761 42.771 42.764 42.781 42.804 42.824 42.791 42.824 42.844 42.864 42.851 42.859 42.839 42.849 42.854 42.851 42.851 42.869 42.871 42.881 42.859 42.881 42.901 42.901 42.899 42.886 42.881 42.854 42.824 42.729 42.849 44.349 43.751 43.559 43.581 43.609 43.656 43.751 43.864 43.959 44.061 44.166 44.264 44.364 44.491 44.604 44.726 44.839 44.929 45.026 45.136 45.241 45.354 45.449 45.551 45.646 45.764 45.874 45.961 46.054 46.136 46.209 46.304 46.381 46.451 46.524 46.596 46.646 46.714 46.771 46.826 46.874 46.946 47.021 47.081 47.119 47.151 47.171 47.209 47.249 47.251 47.279 47.284 47.299 47.326 47.361 47.354 47.359 47.371 47.371 47.421 47.419 47.429 47.409 47.404 47.406 47.416 47.436 47.434 47.466 47.474 47.489 47.521 47.539 47.561 47.574 47.599 47.614 47.646 47.651 47.649 47.696 47.729 47.776 47.874 47.974 48.096 48.129 48.136 48.076 48.079 48.089 48.106 48.121 48.151 48.184 48.184 48.214 48.189 48.201 48.199 48.174 48.161 48.144 48.101 48.069 48.011 47.966 47.896 47.816 47.726 47.664 47.581 47.516 47.436 47.371 47.264 47.164 47.061 46.976 46.874 46.764 46.656 46.526 46.401 46.301 46.169 46.026 45.916 45.774 45.616 45.461 45.314 45.206 45.059 44.914 44.784 44.639 44.501 44.371 44.236 44.104 43.984 43.841 43.689 43.559 43.429 43.311 43.171 43.031 42.924 42.826 42.704 42.596 42.509 42.409 42.341 42.226 42.146 42.056 41.961 41.801 41.629 41.409 41.244 41.034 40.789 40.534 40.279 40.019 39.731 39.449 39.176 38.901 38.616 38.264 37.969 37.679 37.364 37.106 36.834 36.581 36.339 36.084 35.801 35.106 35.359 37.359 37.494 36.956 37.314 37.206 36.944 37.331 36.626 36.421 36.486 36.514 36.916 37.231 37.609 37.984 38.409 38.891 39.256 39.539 39.496 39.546 39.571 40.336 41.009 40.214 39.779
40.576 40.634 40.694 40.721 40.749 40.791 40.836 40.899 40.939 40.984 41.051 41.096 41.131 41.181 41.229 41.266 41.336 41.379 41.409 41.426 41.471 41.489 41.531 41.554 41.564 41.594 41.601 41.604 41.639 41.799 42.361 41.851 41.784 41.779 41.744 41.779 41.754 41.771 41.786 41.764 41.804 41.824 41.854 41.859 41.866 41.889 41.909 41.909 41.926 41.941 41.966 41.964 41.951 41.901 41.904 41.849 41.851 41.849 41.819 41.806 41.776 41.774 41.769 41.761 41.746 41.716 41.709 41.691 41.676 41.659 41.644 41.599 41.611 41.586 41.541 41.559 41.559 41.559 41.536 41.526 41.534 41.511 41.521 41.509 41.484 41.474 41.466 41.426 41.409 41.394 41.386 41.394 41.381 41.354 41.346 41.341 41.366 41.321 41.346 41.339 41.351 41.399 41.414 41.431 41.454 41.491 41.501 41.536 41.566 41.584 41.606 41.631 41.634 41.649 41.651 41.664 41.689 41.731 41.751 41.774 41.796 41.816 41.824 41.854 41.891 41.899 41.906 41.909 41.904 41.904 41.909 41.924 41.941 41.919 41.946 41.939 41.926 41.954 41.939 41.951 41.966 41.996 42.004 42.024 42.026 42.024 42.059 42.071 42.094 42.091 42.106 42.144 42.191 42.211 42.236 42.271 42.299 42.334 42.364 42.356 42.391 42.424 42.456 42.446 42.436 42.481 42.499 42.479 42.536 42.516 42.511 42.529 42.546 42.561 42.561 42.559 42.569 42.566 42.564 42.576 42.566 42.571 42.574 42.584 42.584 42.594 42.621 42.596 42.591 42.606 42.591 42.566 42.531 42.421 42.694 44.029 43.396 43.229 43.249 43.271 43.341 43.419 43.529 43.634 43.731 43.841 43.939 44.039 44.154 44.259 44.371 44.461 44.554 44.661 44.764 44.869 44.959 45.071 45.154 45.254 45.341 45.446 45.559 45.641 45.734 45.809 45.909 45.964 46.036 46.121 46.204 46.244 46.324 46.341 46.411 46.484 46.554 46.634 46.671 46.704 46.731 46.774 46.794 46.834 46.844 46.851 46.854 46.886 46.916 46.939 46.949 46.951 46.944 46.966 47.024 47.024 47.011 47.019 47.006 47.004 47.029 47.054 47.069 47.109 47.124 47.146 47.154 47.169 47.199 47.204 47.216 47.229 47.249 47.271 47.284 47.329 47.334 47.376 47.464 47.579 47.689 47.731 47.706 47.661 47.651 47.649 47.681 47.721 47.741 47.776 47.776 47.789 47.771 47.759 47.764 47.754 47.739 47.729 47.694 47.644 47.584 47.546 47.469 47.381 47.311 47.229 47.136 47.084 46.984 46.931 46.799 46.704 46.609 46.519 46.419 46.314 46.194 46.066 45.951 45.849 45.714 45.571 45.426 45.309 45.159 45.001 44.864 44.739 44.616 44.456 44.344 44.199 44.086 43.951 43.834 43.694 43.584 43.464 43.319 43.174 43.071 42.976 42.819 42.676 42.579 42.494 42.394 42.306 42.206 42.104 42.066 41.974 41.856 41.744 41.646 41.471 41.321 41.106 40.896 40.681 40.436 40.181 39.911 39.651 39.394 39.124 38.826 38.581 38.251 37.954 37.649 37.356 37.091 36.806 36.571 36.299 36.056 35.819 35.326 34.841 35.984 36.614 36.584 36.791 37.456 36.834 37.001 37.131 36.391 36.174 36.559 36.864 37.059 37.216 37.544 37.896 38.289 38.736 39.154 39.494 39.464 39.509 39.504 39.754 39.876 40.084 43.156
40.144 40.214 40.274 40.271 40.309 40.394 40.421 40.469 40.516 40.566 40.624 40.671 40.704 40.756 40.816 40.846 40.901 40.926 40.994 41.011 41.041 41.079 41.116 41.124 41.116 41.134 41.181 41.174 41.184 41.394 41.929 41.416 41.351 41.329 41.324 41.321 41.336 41.331 41.291 41.304 41.316 41.351 41.361 41.366 41.361 41.371 41.376 41.401 41.399 41.399 41.411 41.429 41.399 41.361 41.369 41.339 41.319 41.326 41.306 41.276 41.284 41.266 41.266 41.266 41.236 41.224 41.209 41.211 41.179 41.171 41.136 41.161 41.139 41.134 41.114 41.104 41.124 41.104 41.076 41.094 41.096 41.094 41.081 41.094 41.089 41.074 41.059 41.054 41.041 41.019 41.011 41.009 41.019 40.999 41.009 41.006 41.014 41.014 41.024 41.011 41.046 41.076 41.081 41.134 41.171 41.179 41.229 41.256 41.266 41.279 41.324 41.346 41.376 41.364 41.371 41.384 41.409 41.446 41.474 41.501 41.519 41.551 41.581 41.606 41.619 41.631 41.651 41.646 41.649 41.636 41.644 41.664 41.661 41.666 41.676 41.676 41.669 41.674 41.684 41.699 41.711 41.706 41.756 41.756 41.759 41.766 41.806 41.811 41.799 41.816 41.839 41.871 41.914 41.944 41.949 41.984 42.021 42.051 42.069 42.109 42.119 42.146 42.156 42.154 42.166 42.199 42.204 42.206 42.226 42.234 42.236 42.254 42.264 42.279 42.306 42.289 42.281 42.286 42.291 42.286 42.299 42.304 42.299 42.291 42.281 42.321 42.336 42.324 42.326 42.339 42.299 42.304 42.244 42.119 42.376 43.694 42.989 42.934 42.931 42.976 43.051 43.134 43.211 43.339 43.424 43.514 43.611 43.719 43.819 43.934 44.021 44.114 44.211 44.301 44.399 44.509 44.599 44.686 44.761 44.866 44.979 45.074 45.174 45.274 45.359 45.451 45.539 45.606 45.676 45.769 45.841 45.894 45.939 45.999 46.049 46.104 46.176 46.261 46.274 46.314 46.356 46.384 46.409 46.434 46.446 46.469 46.476 46.501 46.531 46.559 46.594 46.589 46.561 46.589 46.651 46.654 46.631 46.639 46.621 46.656 46.671 46.679 46.714 46.739 46.751 46.781 46.781 46.809 46.826 46.841 46.854 46.864 46.876 46.906 46.926 46.944 46.961 47.009 47.094 47.206 47.324 47.339 47.319 47.261 47.266 47.281 47.316 47.329 47.346 47.381 47.391 47.404 47.401 47.379 47.384 47.361 47.369 47.341 47.306 47.259 47.194 47.146 47.071 47.001 46.899 46.831 46.729 46.671 46.579 46.491 46.391 46.309 46.186 46.096 45.984 45.884 45.746 45.634 45.524 45.386 45.256 45.149 45.026 44.881 44.729 44.571 44.454 44.324 44.161 44.034 43.914 43.799 43.689 43.579 43.456 43.324 43.224 43.086 42.976 42.849 42.734 42.599 42.481 42.369 42.276 42.181 42.099 42.034 41.934 41.851 41.761 41.669 41.546 41.429 41.306 41.159 40.984 40.804 40.544 40.329 40.096 39.861 39.589 39.304 39.061 38.789 38.539 38.246 37.934 37.654 37.356 37.074 36.779 36.506 36.291 36.059 35.821 35.466 34.996 34.629 35.679 36.629 36.979 36.666 36.664 37.081 37.166 36.541 35.954 36.309 36.769 37.031 37.184 37.399 37.461 37.766 38.159 38.594 38.971 39.241 39.391 39.541 39.539 40.624 43.606 45.726 46.101
39.754 39.811 39.866 39.879 39.906 39.979 40.011 40.056 40.101 40.149 40.214 40.251 40.299 40.356 40.389 40.444 40.499 40.541 40.581 40.596 40.646 40.669 40.671 40.696 40.716 40.729 40.784 40.759 40.741 40.929 41.601 40.991 40.941 40.904 40.884 40.894 40.871 40.884 40.836 40.864 40.874 40.856 40.881 40.879 40.874 40.861 40.889 40.884 40.876 40.881 40.881 40.909 40.899 40.884 40.836 40.819 40.799 40.804 40.786 40.789 40.776 40.796 40.779 40.746 40.731 40.746 40.744 40.719 40.709 40.711 40.699 40.686 40.666 40.661 40.661 40.661 40.664 40.666 40.661 40.666 40.674 40.679 40.691 40.709 40.696 40.686 40.664 40.671 40.679 40.659 40.664 40.666 40.669 40.669 40.669 40.694 40.716 40.704 40.714 40.716 40.751 40.794 40.806 40.849 40.869 40.884 40.919 40.966 40.999 41.029 41.056 41.089 41.109 41.109 41.124 41.159 41.189 41.204 41.226 41.261 41.286 41.306 41.336 41.381 41.411 41.409 41.414 41.409 41.419 41.409 41.424 41.424 41.411 41.411 41.416 41.414 41.416 41.419 41.439 41.436 41.446 41.459 41.466 41.489 41.491 41.506 41.526 41.534 41.541 41.549 41.579 41.629 41.654 41.669 41.696 41.734 41.759 41.776 41.804 41.831 41.851 41.864 41.879 41.881 41.909 41.919 41.944 41.946 41.944 41.936 41.946 41.994 41.981 41.991 42.009 41.994 41.999 41.994 42.004 41.991 42.011 42.031 42.019 42.024 42.044 42.049 42.044 42.036 42.036 42.049 42.036 42.006 41.951 41.804 42.361 43.354 42.706 42.591 42.606 42.666 42.744 42.811 42.939 43.034 43.131 43.214 43.304 43.401 43.521 43.609 43.694 43.796 43.904 43.986 44.079 44.169 44.266 44.351 44.441 44.531 44.636 44.721 44.819 44.934 45.026 45.099 45.179 45.259 45.331 45.421 45.481 45.544 45.594 45.671 45.719 45.766 45.846 45.894 45.931 45.969 45.976 46.031 46.064 46.091 46.074 46.114 46.124 46.129 46.141 46.199 46.224 46.239 46.204 46.249 46.271 46.296 46.261 46.279 46.271 46.301 46.334 46.329 46.364 46.386 46.411 46.426 46.461 46.461 46.501 46.506 46.526 46.514 46.546 46.576 46.584 46.599 46.614 46.644 46.744 46.856 46.964 46.976 46.929 46.906 46.891 46.921 46.954 46.966 46.989 47.039 47.039 47.024 47.039 47.036 47.046 47.034 47.009 46.989 46.956 46.894 46.829 46.776 46.671 46.616 46.531 46.456 46.364 46.289 46.216 46.101 46.019 45.916 45.819 45.706 45.584 45.464 45.336 45.219 45.096 44.981 44.861 44.724 44.606 44.451 44.326 44.181 44.034 43.911 43.764 43.626 43.514 43.421 43.326 43.196 43.079 42.969 42.864 42.749 42.601 42.511 42.396 42.286 42.154 42.061 41.964 41.891 41.821 41.729 41.654 41.571 41.466 41.356 41.266 41.119 41.001 40.854 40.689 40.451 40.236 39.996 39.756 39.499 39.244 38.984 38.729 38.456 38.179 37.911 37.611 37.311 37.014 36.796 36.526 36.259 36.046 35.829 35.609 35.199 34.814 35.024 36.234 36.646 36.376 36.426 36.736 36.366 36.431 36.179 35.891 36.401 36.759 37.029 37.359 37.236 37.386 37.616 37.946 38.414 38.836 39.156 39.326 39.564 39.941 43.871 46.089 47.301 46.824
39.394 39.436 39.484 39.496 39.549 39.599 39.604 39.669 39.714 39.769 39.799 39.844 39.899 39.936 39.991 40.041 40.104 40.119 40.161 40.184 40.226 40.244 40.284 40.291 40.301 40.344 40.361 40.354 40.321 40.484 41.061 40.541 40.501 40.476 40.501 40.489 40.451 40.436 40.431 40.409 40.414 40.406 40.401 40.404 40.374 40.371 40.351 40.381 40.389 40.376 40.389 40.409 40.401 40.389 40.339 40.329 40.314 40.309 40.284 40.269 40.284 40.296 40.271 40.284 40.256 40.276 40.286 40.256 40.251 40.249 40.241 40.229 40.224 40.229 40.249 40.244 40.246 40.241 40.279 40.271 40.281 40.296 40.301 40.324 40.334 40.319 40.314 40.319 40.351 40.349 40.349 40.336 40.356 40.369 40.391 40.416 40.406 40.441 40.449 40.474 40.494 40.524 40.554 40.596 40.634 40.666 40.679 40.699 40.739 40.766 40.816 40.824 40.874 40.874 40.901 40.926 40.966 40.991 41.004 41.041 41.064 41.084 41.129 41.164 41.169 41.181 41.184 41.181 41.189 41.204 41.169 41.181 41.181 41.206 41.184 41.174 41.156 41.194 41.184 41.181 41.194 41.206 41.209 41.229 41.261 41.246 41.261 41.284 41.276 41.299 41.306 41.339 41.371 41.414 41.419 41.449 41.474 41.504 41.546 41.559 41.584 41.594 41.609 41.639 41.626 41.669 41.671 41.679 41.661 41.674 41.696 41.699 41.724 41.729 41.724 41.719 41.724 41.741 41.759 41.719 41.726 41.734 41.741 41.764 41.771 41.779 41.794 41.756 41.769 41.774 41.766 41.719 41.671 41.516 42.091 43.269 42.326 42.294 42.346 42.384 42.459 42.556 42.666 42.751 42.861 42.944 43.046 43.139 43.226 43.326 43.406 43.494 43.606 43.669 43.769 43.864 43.946 44.031 44.129 44.209 44.294 44.396 44.496 44.586 44.671 44.769 44.844 44.901 44.994 45.094 45.146 45.211 45.289 45.339 45.396 45.449 45.524 45.589 45.614 45.664 45.661 45.706 45.741 45.754 45.774 45.776 45.789 45.821 45.819 45.856 45.891 45.869 45.886 45.914 45.936 45.939 45.944 45.931 45.941 45.961 46.006 46.039 46.044 46.061 46.101 46.126 46.151 46.159 46.174 46.186 46.199 46.204 46.216 46.254 46.271 46.271 46.311 46.339 46.424 46.531 46.611 46.624 46.579 46.549 46.554 46.581 46.604 46.639 46.666 46.676 46.699 46.716 46.719 46.724 46.714 46.699 46.669 46.639 46.619 46.561 46.481 46.406 46.321 46.261 46.204 46.114 46.016 45.941 45.849 45.741 45.636 45.551 45.441 45.336 45.194 45.066 44.941 44.844 44.729 44.611 44.484 44.346 44.204 44.041 43.931 43.809 43.661 43.509 43.389 43.259 43.156 43.049 42.946 42.851 42.756 42.644 42.529 42.421 42.279 42.194 42.076 41.936 41.844 41.746 41.676 41.599 41.524 41.441 41.356 41.269 41.164 41.061 40.969 40.811 40.686 40.506 40.349 40.136 39.904 39.669 39.409 39.174 38.931 38.649 38.406 38.141 37.846 37.569 37.301 37.034 36.781 36.494 36.226 36.044 35.831 35.654 35.406 35.069 34.624 34.964 36.646 36.419 36.436 36.201 36.319 36.161 36.054 35.896 36.081 36.406 36.676 37.294 37.304 37.231 37.279 37.424 37.746 38.211 38.684 39.034 39.236 39.314 40.531 42.976 45.341 46.724 47.501
39.066 39.099 39.134 39.146 39.209 39.234 39.274 39.324 39.336 39.396 39.429 39.484 39.521 39.574 39.604 39.669 39.739 39.734 39.764 39.809 39.849 39.881 39.886 39.906 39.894 39.946 39.961 39.944 39.936 39.931 40.706 40.144 40.096 40.056 40.061 40.044 40.026 40.021 40.011 39.989 39.946 39.936 39.936 39.931 39.926 39.901 39.904 39.879 39.864 39.866 39.899 39.924 39.926 39.896 39.866 39.841 39.811 39.824 39.806 39.789 39.806 39.814 39.814 39.814 39.811 39.816 39.809 39.814 39.826 39.806 39.794 39.799 39.804 39.826 39.841 39.834 39.861 39.886 39.904 39.896 39.949 39.974 39.971 39.996 39.979 39.984 39.996 40.009 40.044 40.039 40.039 40.074 40.079 40.076 40.119 40.131 40.141 40.149 40.186 40.216 40.234 40.289 40.314 40.359 40.381 40.436 40.464 40.484 40.514 40.519 40.564 40.621 40.631 40.654 40.681 40.724 40.739 40.764 40.821 40.826 40.846 40.886 40.901 40.946 40.944 40.956 40.956 40.956 40.974 40.964 40.964 40.969 40.966 40.971 40.964 40.964 40.956 40.951 40.966 40.956 40.966 40.966 40.964 40.989 40.981 41.011 41.001 40.999 41.019 41.034 41.056 41.086 41.116 41.144 41.159 41.189 41.216 41.246 41.261 41.304 41.311 41.326 41.336 41.354 41.369 41.384 41.399 41.399 41.401 41.399 41.429 41.424 41.441 41.446 41.456 41.456 41.464 41.461 41.484 41.449 41.449 41.461 41.479 41.506 41.494 41.509 41.501 41.504 41.504 41.504 41.494 41.434 41.399 41.261 42.039 42.841 42.019 42.006 42.061 42.104 42.209 42.286 42.406 42.491 42.579 42.671 42.781 42.864 42.969 43.031 43.134 43.229 43.324 43.399 43.481 43.556 43.649 43.734 43.831 43.909 44.004 44.084 44.189 44.306 44.384 44.444 44.541 44.621 44.694 44.789 44.859 44.916 44.976 45.024 45.094 45.154 45.236 45.274 45.284 45.334 45.371 45.411 45.434 45.469 45.469 45.464 45.499 45.504 45.531 45.559 45.531 45.569 45.581 45.581 45.616 45.639 45.624 45.621 45.639 45.681 45.706 45.739 45.751 45.764 45.821 45.844 45.859 45.864 45.859 45.894 45.904 45.901 45.914 45.944 45.949 45.974 45.989 46.054 46.121 46.221 46.306 46.309 46.264 46.226 46.251 46.261 46.296 46.341 46.336 46.386 46.391 46.396 46.414 46.419 46.419 46.384 46.374 46.316 46.319 46.266 46.179 46.096 46.034 45.956 45.896 45.806 45.706 45.619 45.514 45.434 45.311 45.216 45.099 44.981 44.859 44.719 44.601 44.479 44.366 44.244 44.106 43.999 43.839 43.686 43.574 43.434 43.289 43.156 43.046 42.896 42.824 42.721 42.606 42.521 42.419 42.326 42.221 42.074 41.994 41.866 41.756 41.646 41.546 41.464 41.389 41.334 41.249 41.156 41.079 40.959 40.881 40.791 40.651 40.524 40.391 40.216 40.054 39.811 39.594 39.351 39.091 38.844 38.601 38.341 38.091 37.801 37.539 37.256 36.984 36.721 36.499 36.249 36.001 35.819 35.631 35.431 35.231 34.994 34.579 34.909 36.401 36.646 36.206 36.079 36.266 36.166 35.894 35.849 36.149 36.374 36.596 37.096 37.214 37.186 37.204 37.306 37.539 37.976 38.444 38.824 39.071 39.201 39.421 40.556 42.681 45.999 47.959
38.784 38.791 38.831 38.861 38.884 38.891 38.929 38.974 38.989 39.049 39.074 39.154 39.176 39.226 39.264 39.311 39.371 39.411 39.399 39.446 39.464 39.491 39.506 39.521 39.554 39.581 39.574 39.551 39.564 39.554 40.294 39.744 39.721 39.689 39.651 39.631 39.624 39.614 39.604 39.574 39.536 39.481 39.511 39.479 39.464 39.474 39.439 39.431 39.414 39.426 39.434 39.456 39.461 39.444 39.404 39.379 39.364 39.349 39.346 39.341 39.371 39.381 39.371 39.369 39.394 39.364 39.366 39.366 39.396 39.394 39.394 39.394 39.411 39.456 39.469 39.486 39.534 39.554 39.564 39.589 39.629 39.649 39.644 39.691 39.719 39.704 39.724 39.749 39.754 39.749 39.781 39.796 39.829 39.846 39.879 39.901 39.909 39.924 39.959 39.976 39.994 40.046 40.096 40.136 40.166 40.201 40.234 40.276 40.319 40.346 40.386 40.414 40.444 40.464 40.524 40.551 40.566 40.581 40.596 40.631 40.646 40.674 40.709 40.734 40.764 40.774 40.796 40.771 40.761 40.776 40.754 40.751 40.759 40.751 40.749 40.764 40.756 40.746 40.721 40.751 40.751 40.759 40.739 40.764 40.769 40.756 40.784 40.774 40.781 40.804 40.824 40.836 40.864 40.901 40.901 40.956 40.956 41.001 40.999 41.036 41.049 41.061 41.084 41.081 41.101 41.114 41.116 41.129 41.136 41.126 41.141 41.161 41.176 41.171 41.194 41.209 41.196 41.191 41.204 41.179 41.191 41.214 41.219 41.229 41.231 41.234 41.229 41.239 41.244 41.256 41.221 41.166 41.111 41.004 41.679 42.611 41.709 41.711 41.781 41.864 41.926 42.014 42.109 42.229 42.326 42.419 42.501 42.596 42.706 42.794 42.871 42.949 43.029 43.119 43.199 43.274 43.364 43.469 43.559 43.616 43.684 43.774 43.881 43.989 44.069 44.159 44.241 44.326 44.404 44.489 44.566 44.639 44.701 44.736 44.816 44.859 44.909 44.969 45.006 45.066 45.081 45.106 45.154 45.151 45.164 45.189 45.181 45.204 45.246 45.276 45.261 45.309 45.306 45.314 45.334 45.349 45.341 45.341 45.359 45.389 45.424 45.456 45.479 45.504 45.514 45.539 45.579 45.594 45.596 45.601 45.606 45.644 45.659 45.656 45.656 45.689 45.689 45.771 45.859 45.956 46.044 46.019 45.961 45.949 45.941 45.979 45.989 46.036 46.054 46.074 46.111 46.124 46.139 46.129 46.114 46.104 46.079 46.049 46.014 45.964 45.894 45.819 45.779 45.661 45.589 45.516 45.439 45.336 45.211 45.114 45.021 44.919 44.796 44.671 44.511 44.391 44.276 44.161 44.034 43.909 43.769 43.621 43.494 43.364 43.239 43.109 42.966 42.849 42.716 42.621 42.501 42.401 42.329 42.231 42.139 42.004 41.901 41.781 41.701 41.571 41.444 41.364 41.269 41.211 41.131 41.056 40.979 40.876 40.781 40.696 40.589 40.496 40.411 40.294 40.101 39.929 39.731 39.491 39.279 39.041 38.791 38.546 38.276 38.044 37.769 37.491 37.216 36.931 36.706 36.456 36.219 35.951 35.754 35.591 35.416 35.219 35.011 34.674 34.401 36.601 36.134 36.281 36.061 36.054 36.306 36.134 36.299 35.799 36.264 36.479 36.566 37.039 37.084 37.129 37.159 37.224 37.356 37.696 38.121 38.561 38.891 39.056 39.321 40.041 40.954 45.256 46.556
38.516 38.511 38.556 38.561 38.596 38.604 38.631 38.661 38.709 38.741 38.804 38.839 38.866 38.911 38.954 39.001 39.056 39.066 39.089 39.109 39.109 39.126 39.161 39.184 39.189 39.241 39.204 39.194 39.224 39.179 39.754 39.366 39.329 39.289 39.274 39.229 39.229 39.221 39.191 39.131 39.126 39.104 39.089 39.061 39.019 39.031 39.036 38.976 38.966 38.971 38.989 39.016 39.049 39.009 38.996 38.956 38.929 38.911 38.924 38.941 38.949 38.961 38.959 38.969 38.959 38.934 38.961 38.976 38.986 38.994 39.014 39.046 39.051 39.079 39.116 39.146 39.201 39.264 39.289 39.311 39.354 39.356 39.376 39.416 39.426 39.459 39.451 39.506 39.494 39.514 39.519 39.529 39.574 39.599 39.641 39.651 39.669 39.686 39.734 39.739 39.776 39.816 39.846 39.909 39.911 39.949 39.979 40.031 40.069 40.086 40.096 40.149 40.154 40.199 40.226 40.246 40.294 40.309 40.336 40.329 40.364 40.416 40.454 40.481 40.489 40.524 40.536 40.561 40.571 40.554 40.544 40.531 40.534 40.541 40.546 40.549 40.551 40.544 40.536 40.539 40.566 40.536 40.531 40.546 40.564 40.546 40.554 40.559 40.576 40.574 40.601 40.606 40.624 40.646 40.674 40.711 40.689 40.719 40.736 40.756 40.791 40.821 40.826 40.831 40.854 40.851 40.856 40.869 40.861 40.856 40.891 40.896 40.919 40.926 40.919 40.936 40.929 40.919 40.924 40.931 40.931 40.941 40.961 40.979 40.981 40.954 40.971 40.961 40.984 40.969 40.951 40.914 40.854 40.734 41.549 42.176 41.436 41.439 41.491 41.604 41.679 41.751 41.876 41.976 42.081 42.156 42.256 42.346 42.441 42.529 42.604 42.704 42.781 42.841 42.936 43.009 43.089 43.199 43.286 43.349 43.421 43.501 43.604 43.694 43.779 43.884 43.964 44.049 44.131 44.211 44.284 44.359 44.411 44.481 44.541 44.584 44.651 44.696 44.741 44.794 44.811 44.836 44.874 44.891 44.896 44.926 44.946 44.949 44.966 44.996 45.014 45.076 45.061 45.064 45.056 45.056 45.061 45.099 45.114 45.121 45.186 45.196 45.229 45.241 45.276 45.281 45.309 45.321 45.331 45.329 45.344 45.361 45.374 45.376 45.389 45.406 45.419 45.509 45.594 45.686 45.759 45.739 45.659 45.661 45.671 45.711 45.736 45.759 45.809 45.826 45.839 45.871 45.876 45.864 45.854 45.831 45.796 45.756 45.739 45.694 45.636 45.554 45.479 45.384 45.314 45.224 45.141 45.054 44.946 44.834 44.744 44.621 44.491 44.359 44.216 44.124 43.991 43.866 43.724 43.604 43.459 43.316 43.196 43.049 42.916 42.789 42.649 42.539 42.426 42.304 42.211 42.121 42.046 41.951 41.824 41.719 41.599 41.496 41.369 41.264 41.179 41.104 41.014 40.951 40.894 40.796 40.701 40.609 40.521 40.444 40.351 40.244 40.134 39.966 39.794 39.616 39.411 39.179 38.971 38.724 38.486 38.249 37.961 37.714 37.439 37.179 36.914 36.669 36.434 36.164 35.946 35.711 35.551 35.381 35.209 34.981 34.706 34.404 34.779 36.076 37.016 36.064 36.034 36.209 37.616 35.901 35.829 35.746 36.176 36.371 36.584 36.956 37.061 37.094 37.129 37.174 37.241 37.454 37.816 38.256 38.639 39.634 40.179 39.849 39.614 43.344 45.856
38.266 38.291 38.311 38.339 38.354 38.366 38.386 38.416 38.471 38.501 38.539 38.579 38.634 38.621 38.684 38.721 38.766 38.801 38.799 38.796 38.806 38.836 38.851 38.854 38.881 38.889 38.884 38.894 38.886 38.826 39.346 39.031 38.994 38.944 38.906 38.901 38.866 38.861 38.799 38.784 38.749 38.721 38.701 38.659 38.631 38.629 38.599 38.564 38.536 38.539 38.564 38.579 38.631 38.594 38.569 38.551 38.514 38.494 38.521 38.531 38.544 38.561 38.594 38.581 38.549 38.564 38.554 38.569 38.589 38.634 38.634 38.671 38.694 38.734 38.789 38.824 38.899 38.966 39.004 39.059 39.079 39.076 39.106 39.146 39.166 39.149 39.209 39.236 39.239 39.271 39.274 39.296 39.311 39.341 39.371 39.394 39.416 39.424 39.429 39.454 39.486 39.539 39.554 39.596 39.589 39.649 39.686 39.711 39.756 39.784 39.804 39.826 39.861 39.881 39.896 39.919 39.966 39.989 40.011 40.051 40.071 40.126 40.141 40.179 40.216 40.246 40.264 40.256 40.291 40.314 40.291 40.311 40.314 40.291 40.336 40.341 40.351 40.354 40.359 40.359 40.354 40.354 40.351 40.354 40.349 40.351 40.364 40.349 40.379 40.381 40.384 40.389 40.431 40.454 40.464 40.474 40.474 40.501 40.511 40.531 40.546 40.561 40.581 40.574 40.576 40.589 40.594 40.606 40.601 40.609 40.631 40.619 40.649 40.651 40.651 40.659 40.669 40.676 40.659 40.664 40.669 40.684 40.706 40.696 40.701 40.724 40.729 40.731 40.734 40.704 40.684 40.656 40.589 40.436 41.209 41.874 41.126 41.144 41.241 41.321 41.426 41.506 41.606 41.714 41.816 41.896 41.991 42.099 42.179 42.266 42.356 42.419 42.506 42.581 42.679 42.761 42.861 42.906 43.001 43.089 43.169 43.231 43.331 43.414 43.509 43.609 43.689 43.774 43.854 43.934 44.016 44.081 44.149 44.221 44.294 44.331 44.389 44.426 44.479 44.514 44.546 44.581 44.596 44.619 44.651 44.664 44.674 44.699 44.704 44.726 44.756 44.821 44.829 44.796 44.821 44.811 44.816 44.844 44.861 44.889 44.916 44.921 44.966 44.994 45.016 45.016 45.029 45.059 45.074 45.059 45.089 45.109 45.129 45.126 45.134 45.156 45.191 45.269 45.349 45.451 45.499 45.454 45.409 45.409 45.441 45.446 45.484 45.519 45.526 45.571 45.599 45.624 45.621 45.611 45.601 45.566 45.571 45.546 45.501 45.456 45.379 45.314 45.229 45.161 45.084 44.976 44.869 44.779 44.661 44.566 44.454 44.321 44.216 44.081 43.939 43.839 43.691 43.536 43.429 43.296 43.179 43.026 42.906 42.766 42.649 42.496 42.369 42.234 42.134 42.034 41.941 41.839 41.761 41.646 41.554 41.436 41.336 41.211 41.109 41.004 40.931 40.841 40.784 40.719 40.629 40.524 40.434 40.354 40.276 40.216 40.131 40.014 39.846 39.674 39.491 39.291 39.091 38.874 38.656 38.421 38.186 37.916 37.641 37.416 37.139 36.866 36.659 36.389 36.166 35.924 35.699 35.481 35.346 35.191 35.014 34.684 34.381 34.361 35.114 36.929 36.131 36.006 36.059 37.084 35.881 35.686 35.629 35.799 36.299 36.281 36.514 36.999 37.234 37.164 37.201 37.139 37.164 37.251 37.521 38.206 39.099 39.246 38.666 39.244 39.841 40.446 43.566
38.049 38.091 38.139 38.136 38.151 38.166 38.204 38.236 38.274 38.291 38.324 38.351 38.376 38.389 38.451 38.479 38.494 38.529 38.526 38.536 38.531 38.549 38.571 38.591 38.596 38.606 38.589 38.561 38.596 38.544 39.151 38.749 38.669 38.641 38.584 38.556 38.511 38.496 38.484 38.431 38.399 38.359 38.349 38.319 38.289 38.264 38.246 38.191 38.169 38.174 38.189 38.216 38.229 38.236 38.216 38.199 38.176 38.169 38.174 38.169 38.194 38.216 38.221 38.219 38.219 38.204 38.236 38.209 38.206 38.234 38.289 38.319 38.379 38.491 38.551 38.611 38.669 38.706 38.746 38.774 38.794 38.824 38.856 38.861 38.891 38.911 38.914 38.951 38.966 38.976 38.981 38.994 39.011 39.021 39.046 39.061 39.101 39.114 39.129 39.151 39.179 39.181 39.216 39.249 39.311 39.331 39.386 39.579 39.569 39.701 39.729 39.771 39.891 39.919 39.951 40.101 39.871 39.974 39.986 40.139 40.099 40.404 40.061 40.451 40.284 40.226 40.296 40.136 40.026 39.971 39.989 39.996 40.009 40.039 40.049 40.076 40.106 40.119 40.159 40.181 40.181 40.189 40.174 40.176 40.174 40.169 40.174 40.191 40.181 40.176 40.191 40.204 40.231 40.271 40.266 40.274 40.276 40.281 40.294 40.314 40.339 40.329 40.354 40.346 40.349 40.349 40.349 40.361 40.339 40.369 40.356 40.384 40.389 40.406 40.396 40.406 40.416 40.421 40.419 40.429 40.411 40.424 40.454 40.449 40.459 40.479 40.456 40.446 40.474 40.451 40.436 40.396 40.329 40.204 41.246 41.419 40.819 40.889 40.976 41.059 41.146 41.246 41.339 41.446 41.551 41.629 41.741 41.819 41.919 41.999 42.094 42.149 42.254 42.321 42.409 42.501 42.559 42.641 42.746 42.829 42.909 42.986 43.051 43.139 43.226 43.329 43.419 43.504 43.569 43.651 43.739 43.824 43.874 43.934 43.994 44.066 44.141 44.176 44.234 44.269 44.291 44.319 44.346 44.376 44.411 44.404 44.421 44.469 44.461 44.491 44.496 44.594 44.579 44.564 44.551 44.571 44.569 44.594 44.596 44.649 44.674 44.691 44.724 44.744 44.779 44.799 44.804 44.799 44.824 44.834 44.841 44.871 44.879 44.884 44.891 44.899 44.949 45.044 45.124 45.219 45.229 45.204 45.156 45.159 45.176 45.196 45.229 45.261 45.306 45.311 45.354 45.366 45.369 45.379 45.354 45.326 45.329 45.296 45.239 45.181 45.129 45.046 44.991 44.906 44.839 44.724 44.626 44.516 44.419 44.304 44.179 44.059 43.911 43.791 43.669 43.544 43.411 43.281 43.169 43.004 42.876 42.761 42.619 42.491 42.346 42.214 42.089 41.991 41.861 41.776 41.676 41.574 41.494 41.384 41.279 41.171 41.066 40.969 40.856 40.766 40.691 40.631 40.549 40.464 40.374 40.289 40.209 40.156 40.066 40.009 39.859 39.709 39.571 39.396 39.191 39.001 38.781 38.576 38.359 38.114 37.909 37.631 37.366 37.094 36.821 36.584 36.374 36.146 35.889 35.656 35.479 35.281 35.141 34.989 34.776 34.421 34.589 34.286 35.161 35.796 35.649 35.951 35.884 36.809 35.731 35.779 35.479 35.394 36.106 36.046 36.236 36.706 37.059 37.144 37.269 37.101 37.086 37.166 37.399 38.276 38.011 38.069 38.449 38.959 39.314 39.914 39.521
37.794 37.854 37.884 37.924 37.949 37.981 38.011 38.036 38.084 38.104 38.134 38.154 38.176 38.216 38.231 38.249 38.291 38.299 38.304 38.309 38.294 38.324 38.346 38.339 38.356 38.381 38.349 38.304 38.301 38.266 38.781 38.391 38.396 38.316 38.304 38.259 38.229 38.171 38.156 38.136 38.111 38.074 38.046 38.024 37.991 37.951 37.936 37.886 37.894 37.866 37.844 37.839 37.886 37.874 37.886 37.864 37.826 37.829 37.826 37.844 37.874 37.879 37.911 37.914 37.899 37.891 37.884 37.829 37.799 37.839 37.824 37.934 38.114 38.224 38.301 38.334 38.354 38.396 38.424 38.469 38.484 38.494 38.526 38.561 38.569 38.584 38.609 38.616 38.611 38.611 38.606 38.629 38.641 38.684 38.714 38.739 38.869 38.961 39.134 38.991 39.091 39.066 39.229 39.421 39.269 39.439 39.341 39.486 39.326 39.306 39.236 39.106 39.134 38.944 39.004 38.874 38.766 38.921 38.774 38.801 38.811 38.964 39.091 39.334 39.231 39.616 39.624 40.079 40.139 40.134 39.906 39.811 39.721 39.776 39.759 39.791 39.819 39.839 39.874 39.914 39.934 39.976 39.969 39.986 40.026 39.999 40.024 40.036 40.036 40.039 40.044 40.029 40.064 40.054 40.086 40.089 40.084 40.106 40.106 40.119 40.116 40.134 40.131 40.144 40.129 40.129 40.149 40.126 40.136 40.119 40.119 40.144 40.154 40.146 40.171 40.164 40.164 40.149 40.149 40.171 40.169 40.184 40.199 40.186 40.199 40.206 40.214 40.204 40.219 40.229 40.186 40.146 40.076 39.946 41.101 41.156 40.556 40.621 40.694 40.811 40.904 40.994 41.091 41.199 41.286 41.381 41.464 41.561 41.664 41.751 41.819 41.901 41.984 42.051 42.151 42.239 42.304 42.396 42.476 42.564 42.646 42.716 42.801 42.876 42.956 43.034 43.134 43.229 43.311 43.369 43.464 43.534 43.596 43.666 43.734 43.801 43.849 43.911 43.961 44.016 44.046 44.066 44.111 44.136 44.156 44.181 44.209 44.211 44.231 44.234 44.276 44.344 44.346 44.334 44.341 44.349 44.339 44.364 44.389 44.411 44.454 44.469 44.514 44.521 44.544 44.544 44.579 44.571 44.594 44.619 44.624 44.636 44.629 44.651 44.656 44.669 44.724 44.821 44.901 44.974 45.004 44.954 44.896 44.904 44.934 44.949 45.001 45.029 45.066 45.096 45.126 45.134 45.129 45.131 45.109 45.096 45.076 45.041 44.984 44.966 44.891 44.816 44.746 44.656 44.584 44.471 44.384 44.271 44.166 44.056 43.926 43.799 43.666 43.526 43.424 43.279 43.156 43.009 42.886 42.756 42.604 42.476 42.374 42.226 42.089 41.966 41.841 41.734 41.616 41.499 41.414 41.324 41.221 41.136 41.051 40.926 40.814 40.711 40.616 40.549 40.469 40.414 40.311 40.219 40.156 40.074 39.979 39.921 39.839 39.746 39.599 39.439 39.269 39.079 38.889 38.679 38.494 38.266 38.049 37.814 37.584 37.341 37.074 36.809 36.569 36.314 36.084 35.859 35.629 35.439 35.254 35.101 34.964 34.786 34.546 34.074 34.494 35.009 36.329 35.571 35.699 35.889 35.649 35.664 35.564 35.894 35.354 35.449 35.854 35.934 36.096 36.524 36.804 36.979 37.129 36.956 36.926 37.564 38.879 38.569 37.779 37.979 38.266 38.629 39.086 39.226 39.891
37.499 37.534 37.576 37.619 37.654 37.701 37.741 37.811 37.834 37.874 37.899 37.941 37.974 38.011 38.036 38.051 38.069 38.101 38.101 38.114 38.116 38.131 38.126 38.126 38.154 38.121 38.084 38.054 38.059 37.976 38.646 38.114 38.069 38.046 38.016 37.999 37.959 37.919 37.904 37.886 37.864 37.801 37.784 37.761 37.721 37.684 37.664 37.651 37.644 37.599 37.606 37.606 37.601 37.606 37.594 37.594 37.589 37.564 37.591 37.596 37.584 37.596 37.591 37.584 37.634 37.581 37.524 37.404 37.164 37.124 37.349 37.644 37.831 37.901 37.964 38.004 38.056 38.081 38.119 38.126 38.126 38.144 38.196 38.196 38.224 38.244 38.316 38.294 38.201 38.301 38.479 38.561 38.569 38.706 38.694 38.791 38.269 38.374 38.476 38.626 38.279 38.299 38.224 38.184 37.904 37.919 37.826 37.746 37.786 37.716 37.626 37.646 37.654 37.626 37.671 37.674 37.756 37.756 37.806 37.829 37.869 37.944 38.009 38.141 38.281 38.379 38.469 38.454 38.489 38.631 38.799 38.956 39.376 39.634 39.776 39.736 39.859 39.679 39.614 39.606 39.649 39.656 39.689 39.711 39.736 39.769 39.779 39.814 39.841 39.854 39.859 39.884 39.904 39.911 39.916 39.919 39.904 39.939 39.941 39.919 39.926 39.959 39.949 39.959 39.929 39.946 39.939 39.906 39.929 39.911 39.894 39.914 39.919 39.916 39.924 39.924 39.936 39.934 39.936 39.926 39.921 39.931 39.941 39.956 39.951 39.981 39.989 39.979 39.986 39.956 39.939 39.894 39.809 39.726 40.921 40.536 40.291 40.371 40.464 40.539 40.639 40.721 40.851 40.944 41.029 41.121 41.194 41.301 41.391 41.476 41.541 41.626 41.709 41.789 41.864 41.941 42.039 42.134 42.209 42.281 42.364 42.439 42.531 42.596 42.691 42.794 42.859 42.931 43.014 43.074 43.169 43.269 43.326 43.399 43.456 43.516 43.599 43.661 43.701 43.754 43.794 43.824 43.884 43.911 43.926 43.954 43.981 43.989 44.014 44.009 44.044 44.126 44.099 44.121 44.131 44.136 44.124 44.151 44.159 44.204 44.231 44.269 44.269 44.299 44.311 44.319 44.331 44.346 44.366 44.381 44.384 44.426 44.414 44.416 44.411 44.449 44.509 44.571 44.654 44.721 44.746 44.721 44.669 44.666 44.686 44.706 44.756 44.794 44.821 44.854 44.876 44.901 44.891 44.896 44.871 44.854 44.831 44.816 44.761 44.729 44.644 44.576 44.501 44.426 44.339 44.234 44.139 44.014 43.919 43.796 43.676 43.549 43.406 43.281 43.146 43.014 42.899 42.764 42.626 42.491 42.349 42.221 42.101 41.974 41.846 41.706 41.589 41.469 41.359 41.271 41.156 41.061 40.981 40.896 40.789 40.661 40.571 40.481 40.391 40.331 40.269 40.184 40.076 39.999 39.971 39.881 39.781 39.721 39.596 39.496 39.319 39.146 38.981 38.786 38.594 38.399 38.191 37.991 37.746 37.519 37.284 37.046 36.796 36.531 36.289 36.069 35.816 35.636 35.391 35.221 35.051 34.941 34.776 34.566 34.366 34.426 34.959 35.331 35.434 35.446 35.576 35.536 35.574 35.504 35.494 35.609 35.221 35.414 35.746 35.951 36.996 36.966 37.189 36.646 36.731 36.624 37.054 37.529 37.226 37.551 37.789 38.319 38.324 38.524 38.771 39.014 39.449
37.421 37.419 37.331 37.341 37.416 37.399 37.439 37.506 37.559 37.591 37.646 37.671 37.714 37.719 37.759 37.786 37.791 37.839 37.839 37.876 37.899 37.911 37.936 37.946 37.934 37.891 37.834 37.791 37.724 37.664 38.329 37.844 37.751 37.761 37.724 37.729 37.701 37.714 37.716 37.651 37.619 37.616 37.566 37.539 37.499 37.479 37.441 37.419 37.366 37.324 37.319 37.309 37.296 37.299 37.304 37.306 37.299 37.289 37.299 37.309 37.256 37.261 37.286 37.276 37.236 37.196 37.189 37.121 36.489 36.626 37.001 37.334 37.479 37.534 37.744 37.736 37.796 37.836 37.624 37.754 37.841 37.561 38.244 38.439 38.571 38.074 37.991 37.469 37.739 37.504 37.311 37.514 37.369 37.074 36.996 36.919 36.934 36.861 36.829 36.834 36.859 36.926 36.929 36.979 37.019 37.104 37.139 37.164 37.194 37.269 37.316 37.336 37.374 37.394 37.406 37.456 37.496 37.514 37.531 37.574 37.571 37.629 37.641 37.694 37.709 37.776 37.766 37.779 37.801 37.861 37.906 37.929 38.024 38.149 38.209 38.716 38.989 39.554 39.661 39.711 39.661 39.464 39.481 39.374 39.381 39.471 39.511 39.539 39.561 39.579 39.616 39.654 39.679 39.691 39.711 39.721 39.746 39.754 39.761 39.764 39.769 39.771 39.771 39.766 39.756 39.731 39.716 39.726 39.711 39.704 39.701 39.706 39.716 39.699 39.714 39.721 39.716 39.709 39.694 39.709 39.724 39.719 39.719 39.726 39.734 39.726 39.726 39.746 39.734 39.719 39.684 39.656 39.584 39.536 40.914 40.281 40.036 40.096 40.191 40.279 40.374 40.464 40.536 40.661 40.741 40.841 40.934 41.019 41.136 41.206 41.274 41.354 41.426 41.509 41.601 41.679 41.756 41.851 41.924 42.016 42.104 42.171 42.256 42.331 42.421 42.491 42.579 42.644 42.736 42.806 42.896 42.986 43.044 43.116 43.189 43.256 43.326 43.404 43.464 43.501 43.539 43.589 43.629 43.661 43.691 43.731 43.761 43.771 43.819 43.759 43.794 43.891 43.889 43.919 43.939 43.934 43.924 43.939 43.986 43.976 44.019 44.056 44.066 44.074 44.084 44.101 44.111 44.144 44.146 44.164 44.156 44.179 44.184 44.199 44.216 44.236 44.279 44.354 44.431 44.481 44.514 44.461 44.409 44.429 44.454 44.491 44.539 44.566 44.619 44.626 44.631 44.656 44.664 44.646 44.631 44.596 44.579 44.544 44.501 44.449 44.389 44.334 44.281 44.186 44.099 43.991 43.896 43.771 43.679 43.554 43.424 43.294 43.171 43.039 42.906 42.751 42.629 42.494 42.351 42.226 42.086 41.946 41.839 41.711 41.566 41.474 41.371 41.244 41.121 41.011 40.946 40.826 40.739 40.654 40.576 40.469 40.344 40.241 40.184 40.119 40.039 39.939 39.889 39.799 39.739 39.679 39.599 39.481 39.349 39.211 39.046 38.881 38.704 38.489 38.326 38.141 37.899 37.666 37.461 37.234 36.994 36.751 36.504 36.276 36.064 35.839 35.584 35.374 35.199 35.034 34.884 34.776 34.581 34.369 34.331 34.899 36.014 35.189 35.426 35.254 35.591 35.599 35.199 35.279 35.699 35.891 34.861 35.391 35.774 35.971 36.189 42.199 40.079 36.341 36.604 36.811 36.916 36.841 37.096 37.349 38.034 37.899 38.159 38.434 38.676 39.161 39.629
37.034 37.604 37.709 37.751 37.601 37.601 37.556 37.496 37.534 37.551 37.409 37.419 37.441 37.454 37.494 37.506 37.531 37.549 37.576 37.591 37.621 37.639 37.644 37.664 37.664 37.634 37.586 37.526 37.394 37.329 37.764 37.491 37.411 37.436 37.464 37.456 37.449 37.449 37.464 37.416 37.396 37.369 37.311 37.279 37.256 37.226 37.186 37.124 37.024 37.046 37.001 36.956 36.984 36.961 36.971 36.971 36.964 36.981 37.004 36.981 37.091 37.086 37.074 37.161 37.244 37.301 37.469 36.611 36.021 36.936 37.804 37.601 37.321 37.419 37.579 37.376 37.769 37.506 37.394 37.046 36.956 37.884 37.341 37.431 37.059 36.479 36.594 36.406 36.341 36.309 36.321 36.336 36.356 36.421 36.469 36.511 36.561 36.669 36.709 36.739 36.799 36.844 36.879 36.949 36.999 37.056 37.101 37.116 37.194 37.204 37.256 37.254 37.254 37.331 37.331 37.391 37.461 37.504 37.544 37.564 37.581 37.609 37.624 37.684 37.646 37.681 37.739 37.741 37.761 37.784 37.816 37.831 37.849 37.874 37.859 37.849 37.879 37.929 38.079 38.406 38.631 38.961 39.119 39.376 39.544 39.374 39.446 39.369 39.344 39.334 39.351 39.349 39.374 39.416 39.439 39.461 39.484 39.491 39.519 39.541 39.566 39.559 39.576 39.589 39.581 39.569 39.544 39.544 39.549 39.534 39.521 39.521 39.516 39.516 39.519 39.506 39.509 39.511 39.509 39.504 39.479 39.464 39.464 39.459 39.509 39.541 39.524 39.514 39.501 39.514 39.491 39.439 39.346 39.491 40.651 39.849 39.776 39.854 39.936 40.009 40.099 40.191 40.304 40.399 40.456 40.534 40.624 40.749 40.846 40.911 40.986 41.084 41.139 41.244 41.319 41.379 41.474 41.569 41.649 41.729 41.811 41.896 41.984 42.061 42.121 42.209 42.271 42.351 42.444 42.529 42.614 42.691 42.746 42.841 42.904 43.004 43.079 43.141 43.191 43.246 43.294 43.356 43.386 43.419 43.464 43.491 43.539 43.561 43.604 43.521 43.569 43.629 43.654 43.699 43.704 43.706 43.736 43.749 43.749 43.786 43.806 43.831 43.846 43.851 43.901 43.894 43.911 43.924 43.936 43.949 43.939 43.956 43.981 43.991 43.989 44.011 44.069 44.124 44.189 44.236 44.256 44.209 44.179 44.196 44.224 44.269 44.296 44.336 44.369 44.389 44.404 44.421 44.404 44.389 44.381 44.329 44.324 44.274 44.239 44.199 44.139 44.081 44.006 43.916 43.819 43.721 43.606 43.494 43.409 43.289 43.154 43.021 42.899 42.771 42.639 42.484 42.341 42.211 42.081 41.951 41.826 41.711 41.581 41.464 41.339 41.209 41.104 41.004 40.891 40.791 40.691 40.599 40.524 40.464 40.359 40.249 40.141 40.036 39.941 39.854 39.809 39.729 39.659 39.599 39.549 39.474 39.366 39.236 39.099 38.951 38.761 38.616 38.434 38.261 38.054 37.854 37.636 37.404 37.184 36.944 36.716 36.479 36.249 36.034 35.809 35.606 35.399 35.169 34.986 34.864 34.736 34.586 34.354 34.214 35.996 35.016 34.894 35.264 35.189 35.126 35.249 35.191 35.034 34.944 35.934 34.799 34.804 35.331 35.549 35.769 36.374 36.764 36.086 36.329 36.481 36.536 36.551 36.761 37.114 37.291 37.489 37.769 38.019 38.289 38.526 38.711 39.134
