ncols 391
nrows 32
xllcorner    250166
yllcorner    139878
cellsize     2
NODATA_value -9999
68.409 68.339 68.349 68.607 68.892 69.247 68.937 68.319 67.562 66.992 66.792 66.754 66.707 66.882 67.177 67.527 67.662 67.372 66.867 66.247 66.019 65.879 65.777 65.692 65.579 65.494 65.437 65.407 65.332 65.282 65.187 65.074 64.967 64.849 64.804 64.634 64.497 64.432 64.334 64.264 64.259 64.237 64.212 64.249 64.317 64.339 64.352 64.274 64.104 64.077 64.059 64.074 64.259 63.852 63.787 63.702 63.644 63.624 63.582 63.519 63.402 63.334 63.229 63.054 62.814 62.572 62.477 62.527 62.424 62.779 62.914 64.272 62.919 63.357 63.262 63.402 63.702 62.982 62.487 62.619 62.634 63.079 63.629 63.119 62.984 62.787 62.984 63.039 63.009 63.084 63.284 63.127 63.167 64.697 63.307 62.992 62.997 62.934 63.184 63.484 63.482 63.402 64.299 65.884 65.994 64.729 66.459 65.957 64.079 63.612 63.617 63.644 63.754 63.737 63.769 63.604 63.574 63.607 63.602 63.642 63.704 64.007 64.594 64.444 64.149 64.177 64.189 64.309 64.479 64.122 64.054 64.042 64.049 64.057 64.069 64.112 64.129 64.194 64.224 64.307 64.357 64.429 64.467 64.552 64.594 64.654 64.714 64.792 64.847 64.889 64.959 65.047 65.112 65.157 65.152 65.162 65.167 65.119 65.097 65.124 65.114 65.159 65.169 65.207 65.244 65.329 65.344 65.419 65.502 65.597 65.659 65.777 65.837 65.887 65.934 65.979 65.992 65.902 65.894 65.854 65.797 65.732 65.762 65.779 65.832 65.882 65.942 65.947 65.949 65.979 66.119 66.184 66.257 66.367 66.412 66.422 66.469 66.562 66.644 66.722 66.712 66.652 66.587 66.557 66.547 66.482 66.469 66.417 66.424 66.477 66.582 66.677 66.754 66.857 66.989 67.074 67.059 67.077 66.917 66.904 66.882 66.849 66.812 66.774 66.707 66.724 66.769 66.842 66.854 66.807 66.834 66.912 66.964 67.024 67.057 67.114 67.129 67.124 67.129 67.124 67.157 67.239 67.292 67.387 67.454 67.534 67.592 67.659 67.734 67.792 67.804 67.794 67.759 67.697 67.697 67.807 68.889 68.679 68.489 68.399 68.729 67.444 67.539 68.287 68.002 68.584 68.419 68.229 68.489 67.989 68.119 68.137 68.199 68.667 68.397 68.587 68.457 68.724 68.759 68.979 68.859 68.959 68.624 68.484 68.517 68.489 68.939 68.614 68.567 68.752 69.072 69.987 68.902 68.709 68.997 69.309 69.507 69.049 69.124 69.057 68.922 69.194 69.097 69.377 69.182 69.087 69.274 69.352 69.532 68.602 70.312 71.214 69.644 70.432 70.724 72.154 71.109 69.017 68.854 69.007 71.719 74.282 70.344 71.312 70.219 71.534 73.454 72.907 74.249 73.227 72.412 70.429 69.749 70.129 70.074 70.104 70.342 70.464 70.172 70.234 70.299 70.347 70.452 70.407 70.382 70.397 70.384 70.374 70.484 70.407 70.419 70.467 70.862 70.687 70.822 70.914 71.087 71.134 71.377 71.217 71.324 71.404 71.492 71.529 71.597 71.689 71.784 71.914 72.019 72.169 72.364 72.574 72.829 73.077 73.374 73.639 73.867 74.102 74.294 74.477 74.684 74.874 75.042 75.217 75.397 75.572 75.752 75.897 76.029 76.212 76.357
68.724 68.642 68.594 68.499 68.427 68.387 68.442 69.164 69.362 68.352 68.892 68.297 67.639 66.807 66.799 66.812 66.849 67.249 67.529 67.827 67.517 67.062 66.672 66.402 66.144 65.954 65.832 65.749 65.659 65.567 65.457 65.342 65.292 65.192 65.124 64.959 64.857 64.819 64.707 64.679 64.639 64.654 64.594 64.702 64.692 64.622 64.622 64.579 64.469 64.422 64.404 64.407 64.342 64.197 64.122 64.029 63.944 63.924 63.817 63.754 63.649 63.617 63.532 63.384 63.112 62.912 62.707 62.657 62.684 62.564 62.664 63.067 63.007 62.739 63.922 63.082 62.694 63.457 63.214 62.734 62.504 62.572 62.752 63.817 63.392 63.294 63.092 63.192 63.162 63.229 63.234 63.502 64.139 64.922 63.639 63.522 63.244 63.169 65.247 64.459 63.454 63.577 65.002 65.647 66.229 66.947 66.252 64.414 63.862 63.657 63.852 63.809 63.774 63.634 63.632 63.579 63.577 63.577 63.597 63.757 63.764 64.292 64.732 64.562 64.154 64.107 64.069 64.092 64.237 64.074 64.064 64.062 64.064 64.077 64.059 64.077 64.109 64.187 64.229 64.292 64.359 64.377 64.444 64.474 64.577 64.614 64.649 64.689 64.774 64.824 64.869 64.937 64.969 65.024 65.042 65.059 65.034 65.017 64.982 64.934 64.924 64.924 64.977 64.999 65.069 65.099 65.154 65.194 65.282 65.374 65.442 65.539 65.584 65.642 65.687 65.697 65.684 65.694 65.614 65.589 65.564 65.572 65.599 65.649 65.647 65.682 65.709 65.717 65.747 65.782 65.822 65.894 65.954 66.014 66.094 66.144 66.187 66.262 66.357 66.399 66.382 66.364 66.292 66.294 66.257 66.267 66.259 66.244 66.309 66.317 66.427 66.537 66.609 66.674 66.734 66.782 66.829 66.787 66.757 66.732 66.692 66.669 66.647 66.659 66.634 66.652 66.687 66.742 66.752 66.754 66.774 66.857 66.912 66.927 66.974 66.994 67.049 67.062 67.069 67.074 67.089 67.147 67.217 67.302 67.394 67.479 67.542 67.599 67.657 67.724 67.734 69.759 68.002 67.682 67.712 68.182 68.824 68.559 68.409 67.647 68.707 67.877 68.442 68.279 68.239 68.209 68.109 68.077 68.487 68.899 68.064 68.267 68.257 68.137 68.389 68.274 68.414 68.824 69.189 68.524 68.562 68.662 68.522 68.382 68.344 68.512 68.934 68.842 68.537 68.684 68.902 68.659 68.579 68.682 68.794 69.027 69.347 69.182 69.044 69.879 69.047 69.187 69.287 69.449 69.229 69.332 70.224 70.739 71.349 69.922 69.667 71.847 71.432 71.767 73.197 70.602 69.907 69.307 70.647 73.294 74.699 71.794 70.094 70.727 72.184 70.454 73.024 72.669 70.784 74.759 75.082 72.172 71.779 71.607 70.059 70.354 70.362 71.249 70.447 70.407 71.964 70.484 70.592 70.474 70.497 70.487 70.472 70.509 70.499 70.522 70.559 70.682 70.794 70.869 70.929 71.014 71.134 71.184 71.252 71.354 71.429 71.482 71.534 71.572 71.689 71.774 71.847 72.009 72.129 72.294 72.534 72.759 73.007 73.307 73.604 73.844 74.082 74.317 74.522 74.737 74.899 75.087 75.249 75.442 75.647 75.842 75.939 76.044 76.197 76.354 76.472
69.077 68.967 68.912 68.847 68.764 68.677 68.614 68.457 68.909 69.469 68.842 68.702 69.179 69.007 68.114 67.399 66.917 66.827 66.799 66.852 67.157 67.477 67.722 67.902 67.874 67.914 67.412 66.649 66.414 66.034 65.882 65.737 65.589 65.474 65.359 65.302 65.229 65.139 65.059 65.052 64.997 64.979 65.044 65.084 65.042 64.959 64.902 64.837 64.789 64.759 64.762 64.724 64.567 64.522 64.467 64.344 64.329 64.839 64.229 64.092 64.047 63.937 63.854 63.714 63.577 63.402 63.324 63.167 63.044 63.019 62.964 63.067 63.042 62.972 65.434 65.124 63.234 62.974 62.959 63.234 62.687 62.839 62.687 63.309 63.217 63.454 63.787 64.342 63.612 64.134 63.489 68.412 66.669 64.142 63.904 63.479 63.282 63.602 65.909 64.482 63.589 65.134 65.207 65.967 65.527 65.257 64.394 63.537 63.829 64.347 64.484 63.964 63.702 63.639 63.627 63.567 64.182 63.747 63.617 64.134 63.807 64.217 64.277 64.184 64.072 63.979 63.972 64.089 64.219 64.057 64.057 64.047 64.062 64.092 64.087 64.067 64.084 64.149 64.222 64.257 64.317 64.344 64.419 64.467 64.522 64.607 64.624 64.664 64.699 64.709 64.769 64.804 64.864 64.887 64.912 64.924 64.937 64.879 64.862 64.812 64.827 64.834 64.837 64.899 64.937 64.972 64.992 65.042 65.124 65.217 65.267 65.367 65.419 65.457 65.502 65.494 65.497 65.474 65.454 65.437 65.419 65.432 65.464 65.509 65.494 65.552 65.602 65.622 65.652 65.664 65.679 65.767 65.799 65.834 65.874 65.967 66.034 66.062 66.149 66.172 66.189 66.137 66.144 66.107 66.124 66.107 66.094 66.147 66.164 66.219 66.317 66.397 66.434 66.514 66.557 66.607 66.647 66.647 66.644 66.569 66.534 66.527 66.574 66.572 66.579 66.597 66.657 66.709 66.714 66.744 66.747 66.804 66.847 66.839 66.914 66.972 66.989 67.049 67.074 67.094 67.082 67.087 67.184 67.264 67.349 67.417 67.459 67.544 67.599 67.649 67.902 68.874 67.742 67.677 67.707 68.202 68.494 68.204 70.694 68.762 67.679 68.189 68.282 68.264 69.007 68.939 68.062 68.009 68.354 67.984 68.197 68.432 68.199 68.064 68.199 68.154 68.199 68.369 68.404 68.577 68.464 68.442 68.327 68.317 68.367 68.407 68.762 68.622 68.509 68.464 68.502 68.574 68.594 68.622 68.834 68.787 69.097 69.162 69.269 70.239 68.972 69.077 69.132 69.077 69.124 69.282 70.989 71.642 69.352 69.077 69.222 69.402 69.922 70.459 71.559 70.569 69.727 69.719 70.482 68.809 70.864 70.307 70.224 69.804 71.639 71.612 70.867 69.894 70.312 72.114 71.942 71.062 69.989 70.309 70.637 70.729 71.172 70.642 70.632 70.819 70.724 70.997 71.569 71.859 70.729 70.627 70.607 70.629 70.732 70.769 70.844 70.924 70.982 71.042 71.097 71.187 71.289 71.349 71.417 71.454 71.534 71.534 71.552 71.644 71.742 71.867 71.984 72.129 72.302 72.507 72.714 72.944 73.242 73.522 73.799 74.047 74.304 74.534 74.724 74.909 75.074 75.267 75.412 75.642 75.829 75.887 75.962 76.102 76.319 76.482 76.602
69.384 69.344 69.284 69.179 69.079 68.977 68.892 68.812 69.132 69.719 68.599 68.424 68.507 68.587 68.904 69.204 69.222 68.337 67.632 66.974 66.892 66.869 66.867 66.927 67.149 67.229 67.197 67.222 67.692 67.784 67.179 66.499 66.124 65.939 65.722 65.617 65.519 65.489 65.462 65.412 65.402 65.379 65.442 65.464 65.384 65.312 65.372 65.357 65.169 65.072 65.062 64.964 64.872 64.837 64.744 64.669 64.637 64.642 64.509 64.429 64.459 64.589 64.479 64.199 64.014 63.812 63.729 63.617 63.422 63.329 63.272 63.312 63.357 63.267 63.344 63.324 63.237 63.212 63.287 63.284 63.499 65.589 67.114 64.392 62.542 62.649 63.044 63.772 63.277 63.209 63.169 64.527 67.269 68.517 65.042 65.242 63.897 63.289 63.732 63.742 64.259 65.827 65.082 64.679 64.894 63.654 63.634 64.124 64.009 64.604 65.107 64.697 63.997 63.657 63.679 63.657 63.832 63.654 63.699 63.997 63.789 64.134 64.177 63.959 63.939 63.939 63.969 64.134 64.124 64.029 64.027 63.997 64.039 64.069 64.092 64.099 64.114 64.167 64.194 64.214 64.272 64.344 64.392 64.442 64.497 64.572 64.602 64.617 64.637 64.647 64.652 64.724 64.759 64.779 64.797 64.787 64.807 64.749 64.734 64.784 64.857 64.844 64.834 64.882 64.914 64.952 65.004 65.032 65.074 65.129 65.197 65.297 65.317 65.359 65.382 65.377 65.399 65.414 65.404 65.399 65.382 65.372 65.412 65.462 65.484 65.517 65.569 65.612 65.637 65.622 65.632 65.659 65.684 65.709 65.757 65.847 65.907 65.964 65.987 66.009 66.029 65.999 65.969 65.987 65.979 66.004 66.007 66.029 66.072 66.184 66.242 66.302 66.339 66.417 66.454 66.512 66.564 66.569 66.557 66.474 66.454 66.474 66.479 66.487 66.509 66.584 66.649 66.664 66.687 66.727 66.739 66.772 66.779 66.809 66.892 66.934 66.982 67.014 67.052 67.089 67.049 67.087 67.164 67.242 67.309 67.349 67.439 67.477 67.552 67.607 69.499 69.132 67.574 67.714 67.784 67.994 67.679 70.254 71.502 68.632 67.797 67.827 67.957 68.294 68.457 68.059 68.779 68.077 68.452 68.122 68.149 68.124 68.212 67.994 68.024 68.129 68.264 68.297 68.259 68.324 68.267 68.304 68.259 68.299 68.324 68.307 68.369 68.422 68.424 68.487 68.512 68.534 68.619 68.649 68.672 68.734 68.837 68.934 69.032 68.824 68.902 68.932 69.072 69.167 69.064 69.204 69.439 69.102 69.329 69.162 69.102 69.419 69.572 70.379 70.879 70.332 70.449 72.427 69.799 69.872 69.627 69.377 68.999 69.132 69.404 69.784 70.079 69.879 69.989 70.104 70.004 70.512 70.717 70.639 71.104 71.772 72.067 70.699 70.604 70.837 70.959 70.757 70.792 70.924 70.692 70.707 70.774 70.844 70.867 70.897 71.002 71.074 71.159 71.232 71.317 71.369 71.422 71.482 71.552 71.554 71.537 71.589 71.669 71.782 71.839 71.969 72.157 72.302 72.487 72.689 72.944 73.189 73.489 73.749 73.992 74.252 74.519 74.724 74.929 75.107 75.272 75.427 75.609 75.774 75.917 75.987 76.084 76.217 76.407 76.562 76.709
69.717 69.672 69.612 69.497 69.394 69.294 69.239 69.147 69.277 70.159 68.804 68.669 68.657 68.662 68.624 68.619 68.994 69.234 69.107 68.759 68.427 67.847 67.432 66.977 66.969 66.972 66.974 66.994 67.032 67.109 67.262 67.604 67.827 67.424 66.782 66.197 65.982 65.899 65.854 65.812 65.782 65.779 65.789 65.737 65.702 65.672 65.674 66.207 67.387 65.574 65.309 65.202 65.169 65.127 65.047 64.969 64.942 64.964 64.882 64.849 64.837 64.794 64.699 64.577 64.664 64.299 64.119 63.917 63.794 63.669 63.569 63.492 63.472 63.497 63.609 63.582 63.537 63.602 63.492 63.504 63.552 64.239 64.657 66.334 63.412 62.994 62.652 66.419 64.914 62.797 63.289 64.022 70.612 68.447 66.432 65.747 65.064 63.859 63.877 63.647 64.109 65.377 64.057 63.687 63.659 63.809 64.479 64.807 64.512 64.762 65.157 64.262 63.714 63.662 63.714 63.692 63.669 63.877 63.832 63.804 63.819 63.987 64.182 63.914 63.942 63.972 64.032 64.259 64.079 64.044 64.082 64.067 64.087 64.082 64.124 64.157 64.174 64.179 64.187 64.244 64.289 64.334 64.364 64.432 64.457 64.504 64.522 64.544 64.499 64.522 64.534 64.599 64.619 64.669 64.659 64.652 64.694 64.672 64.707 64.784 64.822 64.844 64.847 64.897 64.919 64.957 64.997 65.044 65.039 65.067 65.147 65.207 65.237 65.274 65.282 65.302 65.334 65.319 65.317 65.317 65.359 65.362 65.387 65.437 65.492 65.502 65.582 65.619 65.612 65.624 65.587 65.627 65.637 65.639 65.699 65.742 65.819 65.867 65.909 65.897 65.912 65.909 65.939 65.962 65.959 65.962 66.002 66.042 66.067 66.162 66.222 66.252 66.292 66.344 66.419 66.464 66.517 66.534 66.484 66.439 66.419 66.399 66.417 66.417 66.402 66.494 66.584 66.577 66.639 66.687 66.712 66.724 66.742 66.787 66.867 66.907 66.952 66.982 67.032 67.037 67.009 67.054 67.107 67.174 67.282 67.327 67.374 67.444 67.472 67.602 69.127 68.029 68.039 68.037 67.842 67.659 67.202 68.509 69.009 68.104 67.717 67.609 67.907 68.029 68.734 68.072 68.127 68.044 68.012 67.989 68.242 68.102 67.999 68.164 68.254 68.337 68.287 68.292 68.119 68.119 68.179 68.204 68.237 68.307 68.314 68.327 68.357 68.419 68.444 68.524 68.557 68.587 68.637 68.659 68.657 68.684 68.787 68.764 69.019 69.024 68.882 69.037 68.947 69.402 69.117 69.089 69.499 69.209 69.367 69.207 69.144 69.222 69.214 69.464 69.274 69.857 70.722 70.254 69.947 69.954 69.942 69.589 69.209 69.719 70.664 70.127 69.922 69.962 70.299 70.084 70.049 70.239 70.159 70.317 71.087 73.129 71.459 70.974 70.519 70.849 71.239 71.062 70.749 70.804 70.757 70.852 70.912 70.972 71.027 71.102 71.157 71.184 71.269 71.344 71.417 71.504 71.569 71.647 71.619 71.582 71.619 71.694 71.779 71.872 71.982 72.112 72.309 72.482 72.682 72.912 73.167 73.439 73.709 73.957 74.237 74.459 74.694 74.912 75.084 75.277 75.437 75.577 75.704 75.887 76.017 76.044 76.159 76.354 76.502 76.669 76.814
70.052 70.002 69.924 69.837 69.777 69.654 69.527 69.482 69.597 70.517 69.277 68.994 68.997 68.912 68.864 68.799 68.739 68.699 68.654 68.837 68.982 69.164 69.414 68.892 67.632 67.147 67.034 67.067 67.129 67.112 67.112 67.149 67.217 67.532 67.859 67.909 67.522 66.832 66.434 66.302 66.294 66.257 66.207 66.214 66.159 65.987 65.944 65.934 65.934 65.674 65.574 65.534 65.477 65.397 65.364 65.289 65.264 65.229 65.184 65.139 65.177 65.144 65.069 64.942 64.847 64.679 64.574 64.392 64.272 64.352 64.172 63.914 63.804 63.772 63.862 64.034 63.792 63.817 63.784 64.024 63.889 63.849 64.007 64.069 64.089 63.629 63.282 63.594 63.564 63.099 64.059 64.517 64.652 63.602 64.052 65.724 67.722 64.257 64.089 64.659 63.832 62.904 62.927 62.967 63.237 63.454 63.779 64.539 64.702 64.412 63.879 63.537 63.514 63.514 63.527 63.789 63.882 63.874 63.994 64.069 63.869 63.929 64.132 64.027 63.962 63.974 64.117 64.377 64.057 64.047 64.077 64.114 64.142 64.152 64.192 64.202 64.209 64.212 64.202 64.222 64.269 64.332 64.327 64.439 64.477 64.494 64.484 64.459 64.432 64.447 64.439 64.509 64.569 64.557 64.592 64.589 64.654 64.639 64.697 64.759 64.814 64.849 64.864 64.872 64.897 64.967 64.977 65.049 65.029 65.022 65.074 65.139 65.182 65.224 65.194 65.239 65.264 65.252 65.267 65.289 65.312 65.327 65.364 65.397 65.469 65.522 65.597 65.589 65.564 65.574 65.552 65.549 65.547 65.572 65.599 65.639 65.709 65.752 65.807 65.809 65.854 65.869 65.894 65.954 65.967 65.984 65.994 66.024 66.079 66.127 66.189 66.239 66.292 66.332 66.387 66.429 66.482 66.469 66.429 66.392 66.419 66.437 66.494 66.504 66.504 66.512 66.552 66.594 66.637 66.679 66.662 66.677 66.719 66.794 66.894 66.989 67.002 67.009 67.062 67.107 67.099 67.149 67.112 67.184 67.247 67.312 67.342 67.399 67.469 67.654 68.909 68.202 68.494 68.284 68.999 67.654 67.054 67.297 67.764 67.792 67.697 67.389 67.527 67.959 67.812 69.857 68.799 67.879 67.949 68.259 68.059 68.044 68.409 68.019 68.004 68.164 68.179 68.069 68.074 68.117 68.177 68.214 68.229 68.272 68.309 68.327 68.344 68.399 68.454 68.494 68.567 68.609 68.647 68.677 68.692 68.709 68.774 68.859 68.874 69.299 69.462 69.192 68.947 69.277 69.347 69.112 69.317 69.792 70.084 69.499 69.412 69.364 69.282 69.364 69.327 69.887 70.294 69.597 69.642 69.812 69.812 70.062 70.124 69.722 70.374 70.484 70.649 70.904 70.867 70.767 70.344 70.787 70.262 70.407 71.177 71.819 71.254 70.684 70.522 70.734 70.964 71.002 70.884 70.844 70.969 70.952 71.024 71.097 71.169 71.267 71.294 71.312 71.367 71.437 71.539 71.602 71.669 71.689 71.699 71.699 71.732 71.829 71.904 71.989 72.127 72.264 72.442 72.667 72.862 73.114 73.397 73.647 73.922 74.189 74.437 74.682 74.894 75.052 75.269 75.437 75.574 75.707 75.794 75.972 76.112 76.199 76.292 76.424 76.624 76.767 76.884
70.349 70.314 70.237 70.194 70.094 70.004 69.884 69.819 69.957 70.912 69.592 69.329 69.317 69.219 69.184 69.092 69.012 68.912 68.864 68.804 68.732 68.724 68.857 69.097 69.559 69.172 68.612 68.192 67.409 67.242 67.232 67.237 67.227 67.242 67.267 67.469 67.824 68.132 68.092 67.904 67.354 66.902 66.754 66.677 66.577 66.482 66.384 66.204 66.082 66.009 66.019 65.907 65.817 65.714 65.659 65.597 65.594 65.554 65.499 65.432 65.504 65.477 65.414 65.317 65.194 65.112 65.034 64.794 64.699 64.712 64.617 64.402 64.287 64.249 64.149 64.077 64.104 64.137 64.367 65.497 64.214 64.147 64.222 64.414 65.062 64.234 64.414 64.829 64.987 70.674 65.669 66.844 72.427 72.827 70.632 66.089 64.849 64.257 64.582 64.242 63.714 62.889 63.257 66.099 64.587 63.012 65.842 63.289 63.182 63.139 63.429 64.277 64.697 65.707 63.952 64.399 66.392 63.572 64.549 64.312 64.194 64.607 64.204 63.907 63.952 63.979 64.019 64.167 64.002 64.002 64.059 64.074 64.087 64.157 64.219 64.229 64.262 64.272 64.272 64.247 64.307 64.314 64.337 64.402 64.472 64.464 64.472 64.437 64.422 64.477 64.459 64.509 64.522 64.569 64.587 64.624 64.642 64.689 64.714 64.762 64.792 64.824 64.822 64.839 64.897 64.914 64.957 65.017 65.047 65.057 65.052 65.084 65.127 65.187 65.202 65.214 65.229 65.217 65.247 65.277 65.284 65.304 65.342 65.399 65.469 65.554 65.572 65.574 65.539 65.519 65.532 65.487 65.549 65.582 65.552 65.617 65.674 65.752 65.767 65.799 65.872 65.869 65.917 65.954 65.942 65.962 65.994 66.029 66.099 66.122 66.189 66.249 66.279 66.322 66.359 66.412 66.437 66.432 66.392 66.384 66.369 66.444 66.532 66.532 66.544 66.567 66.569 66.624 66.649 66.687 66.627 66.702 66.704 66.782 66.942 67.162 67.109 67.062 66.474 66.744 67.974 67.592 67.194 67.159 67.202 67.244 67.317 67.369 67.409 67.659 68.909 68.647 69.602 71.039 68.389 67.824 67.827 67.509 67.679 67.737 68.077 67.634 67.619 67.762 67.654 68.599 68.517 67.807 67.797 67.879 67.897 68.259 69.084 68.057 68.049 68.019 68.142 68.084 68.087 68.144 68.192 68.237 68.247 68.279 68.327 68.339 68.372 68.427 68.467 68.497 68.587 68.642 68.682 68.682 68.739 68.732 68.779 68.887 68.907 69.054 69.142 69.219 69.132 69.629 69.329 69.074 69.272 69.449 69.372 69.559 69.289 69.277 69.344 69.449 69.432 69.552 69.817 70.042 69.697 69.879 69.867 70.299 70.217 70.194 70.404 70.574 70.777 70.917 71.037 71.247 70.677 70.849 71.072 70.592 70.612 71.439 71.769 71.742 70.927 71.159 70.774 70.972 71.044 70.972 70.999 71.059 71.134 71.212 71.289 71.314 71.319 71.387 71.429 71.497 71.622 71.702 71.732 71.754 71.759 71.814 71.857 71.934 71.999 72.119 72.242 72.422 72.597 72.812 73.077 73.329 73.602 73.867 74.152 74.372 74.587 74.847 75.052 75.217 75.404 75.562 75.682 75.742 75.882 76.032 76.212 76.349 76.452 76.547 76.692 76.824 76.979
70.647 70.597 70.529 70.499 70.419 70.309 70.252 70.159 70.269 71.167 69.932 69.682 69.667 69.597 69.522 69.424 69.309 69.262 69.159 69.079 68.989 68.929 68.887 68.874 68.874 68.899 69.132 69.339 69.559 69.129 68.547 67.944 67.652 67.414 67.292 67.324 67.327 67.422 67.669 68.214 68.682 68.547 68.214 67.609 67.034 66.879 66.779 66.614 66.484 66.367 66.239 66.172 66.124 66.059 65.972 65.887 65.882 65.862 65.777 65.734 65.747 65.677 65.637 65.577 65.492 65.444 65.329 65.239 65.127 65.049 64.984 64.837 64.787 64.822 64.997 64.537 64.519 64.467 64.472 64.649 64.537 64.537 64.594 64.637 65.402 65.119 66.762 70.427 70.664 74.782 77.659 74.869 73.909 79.879 73.199 65.624 64.587 64.944 65.537 65.082 64.059 63.294 63.862 65.457 64.714 64.762 65.559 64.024 63.414 63.462 64.224 65.314 64.977 64.884 63.972 64.002 63.802 68.174 65.369 63.829 63.344 63.459 64.369 64.067 63.729 63.977 64.097 64.097 63.967 63.939 63.977 63.994 64.034 64.154 64.264 64.242 64.269 64.279 64.239 64.202 64.244 64.247 64.297 64.354 64.399 64.514 64.529 64.467 64.459 64.579 64.492 64.474 64.507 64.552 64.634 64.682 64.754 64.707 64.769 64.842 64.952 64.834 64.769 64.794 64.884 65.167 65.039 64.944 65.009 65.029 65.042 65.049 65.104 65.104 65.134 65.179 65.279 65.197 65.232 65.224 65.239 65.267 65.284 65.352 65.484 65.469 65.489 65.472 65.449 65.494 65.487 65.522 65.547 65.499 65.577 65.597 65.669 65.709 65.729 65.779 65.814 65.834 65.899 65.892 65.904 65.944 65.967 66.004 66.054 66.159 66.124 66.154 66.217 66.262 66.332 66.299 66.314 66.334 66.352 66.374 66.404 66.787 66.769 66.494 66.564 66.749 66.794 66.839 66.914 67.652 67.449 68.404 67.712 67.542 67.589 67.304 67.309 67.294 66.404 67.222 69.197 67.947 67.667 67.202 67.302 67.284 67.254 67.407 67.372 67.709 68.342 68.044 71.589 72.149 67.784 67.822 68.247 67.549 67.502 67.709 67.979 68.139 68.434 67.724 67.754 67.827 67.827 67.802 67.749 67.772 67.822 67.862 68.072 67.967 67.959 68.052 68.049 68.117 68.179 68.197 68.254 68.287 68.309 68.309 68.364 68.392 68.427 68.447 68.524 68.582 68.664 68.687 68.697 68.712 68.764 68.787 68.834 68.827 68.887 68.947 68.879 68.879 69.042 69.099 69.272 69.102 69.189 69.204 69.319 69.359 69.384 69.362 69.379 69.482 69.594 69.674 69.884 70.159 70.007 70.542 70.359 70.459 70.194 70.384 70.332 70.819 71.002 71.204 71.312 71.292 70.862 70.707 71.152 70.734 70.677 70.634 71.779 71.787 70.969 70.604 71.009 71.057 71.199 71.222 71.267 71.207 71.259 71.272 71.324 71.352 71.384 71.412 71.487 71.572 71.649 71.732 71.754 71.792 71.854 71.914 71.964 72.039 72.109 72.204 72.337 72.544 72.782 73.022 73.287 73.552 73.819 74.082 74.364 74.582 74.777 75.017 75.172 75.317 75.499 75.629 75.714 75.812 75.959 76.107 76.297 76.449 76.552 76.679 76.779 76.917 77.044
70.924 70.897 70.839 70.779 70.712 70.634 70.549 70.479 70.684 71.534 70.089 70.022 69.984 69.932 69.859 69.757 69.624 69.594 69.497 69.397 69.309 69.242 69.214 69.127 69.132 69.094 69.124 69.084 69.152 69.437 69.687 69.799 69.469 68.967 68.894 67.887 67.592 67.464 67.402 67.422 67.547 68.327 68.407 69.152 69.132 68.844 67.982 67.212 67.079 66.787 66.667 66.557 66.427 66.349 66.314 66.269 66.224 66.152 66.252 66.049 66.014 66.007 65.967 65.892 65.847 65.789 65.702 65.652 65.552 65.477 65.389 65.287 65.194 65.182 65.089 65.032 64.999 64.964 64.924 64.892 64.892 64.962 64.994 65.169 66.154 67.442 72.592 71.274 75.747 73.084 76.437 77.077 77.394 79.227 71.689 65.167 65.497 66.329 66.807 67.069 66.689 64.789 63.754 64.277 64.787 67.004 64.992 63.829 63.792 63.919 63.809 65.737 64.489 63.952 64.502 64.759 65.592 66.182 64.972 64.922 63.824 63.957 63.839 63.929 63.809 63.824 64.002 64.124 64.042 63.987 63.907 63.914 63.909 64.079 64.232 64.244 64.249 64.232 64.227 64.284 64.392 64.527 64.377 64.359 64.414 64.669 64.669 64.782 64.654 64.882 64.839 64.752 64.787 64.772 64.912 65.147 64.872 64.812 64.834 65.137 64.849 64.779 64.767 65.102 65.652 65.647 65.582 65.082 64.987 65.164 65.204 65.169 65.209 65.297 66.022 65.732 65.279 65.254 65.219 65.292 65.372 65.339 65.354 65.262 65.464 65.547 65.387 65.349 65.384 65.497 65.489 65.657 65.637 65.502 65.602 65.579 65.634 65.682 65.682 65.669 65.754 65.792 65.829 65.844 65.904 66.019 65.967 66.044 66.089 66.377 66.172 66.757 67.247 66.759 66.899 66.712 66.822 66.992 67.147 67.207 67.332 67.667 67.362 67.622 67.819 68.027 67.474 67.097 66.297 67.819 68.649 68.392 68.659 68.557 68.982 68.467 69.379 68.894 67.164 66.309 67.772 67.114 67.609 68.254 68.829 68.904 69.402 68.429 67.719 68.012 67.512 67.407 69.522 68.324 67.779 67.847 68.707 67.464 67.474 67.889 69.464 68.344 67.767 67.807 67.832 67.774 67.757 67.762 67.834 67.824 67.837 67.884 67.942 67.972 67.994 68.079 68.129 68.207 68.249 68.299 68.339 68.367 68.387 68.414 68.432 68.467 68.502 68.529 68.569 68.632 68.704 68.784 68.784 68.762 68.834 68.844 68.879 68.952 68.927 68.974 68.914 68.922 68.977 69.064 69.119 69.192 69.257 69.329 69.352 69.384 69.447 69.537 69.509 69.587 69.682 69.659 69.799 70.204 70.252 70.437 70.289 70.244 70.344 70.364 70.382 70.514 70.624 70.712 70.732 70.639 70.664 70.652 70.712 70.692 70.782 70.602 72.002 71.309 71.447 71.284 70.872 71.627 71.542 71.259 71.222 71.292 71.327 71.364 71.347 71.367 71.384 71.489 71.534 71.644 71.697 71.742 71.799 71.884 71.942 71.989 72.042 72.082 72.202 72.309 72.374 72.692 72.949 73.182 73.474 73.727 73.984 74.272 74.504 74.744 74.982 75.142 75.262 75.417 75.537 75.652 75.752 75.919 76.029 76.164 76.342 76.512 76.657 76.759 76.874 76.989 77.074
71.154 71.149 71.104 71.062 70.974 70.912 70.862 70.792 71.259 71.772 70.444 70.392 70.352 70.309 70.269 70.137 70.014 69.934 69.832 69.752 69.674 69.622 69.557 69.499 69.432 69.419 69.429 69.392 69.399 69.384 69.369 69.424 69.649 70.232 70.054 69.462 68.929 68.474 68.137 67.872 67.629 67.569 67.574 67.697 68.107 68.667 69.252 69.197 68.709 67.649 67.209 67.019 66.869 66.782 66.687 66.587 66.534 66.527 66.469 66.434 66.379 66.354 66.269 66.239 66.227 66.132 66.054 66.012 65.944 65.884 65.822 65.747 65.657 65.662 65.622 65.579 65.499 65.439 65.429 65.387 65.362 65.367 65.422 65.499 66.632 68.739 74.694 71.259 72.824 75.727 75.552 76.439 77.234 73.877 68.199 65.567 66.117 65.832 65.954 66.159 66.314 66.687 66.114 65.389 64.544 64.967 65.427 64.934 65.139 65.722 66.039 65.969 65.169 64.814 65.647 65.634 65.919 66.159 66.067 67.157 64.449 64.377 64.377 64.214 64.272 63.622 64.009 64.309 64.017 63.834 63.862 63.889 63.909 63.984 64.184 64.247 64.227 64.249 64.322 64.394 66.879 64.584 64.479 64.717 64.719 64.714 65.257 64.669 64.782 64.392 64.449 64.649 65.117 65.372 65.074 65.444 66.819 65.914 65.199 65.297 64.884 65.039 65.132 67.647 67.002 65.452 65.609 65.652 66.162 65.287 65.574 66.192 65.002 65.197 66.522 67.174 65.447 65.587 64.877 65.402 67.264 65.667 65.884 65.972 65.849 65.872 65.987 65.589 65.417 65.577 65.649 65.579 65.647 65.627 65.717 65.867 66.119 66.147 66.012 66.102 66.134 66.117 66.139 66.104 65.899 66.347 66.632 66.589 67.167 67.589 67.384 68.047 68.419 67.409 67.767 67.269 67.492 67.492 68.337 67.704 67.507 67.544 67.052 67.189 67.127 66.882 66.252 66.022 66.152 67.234 68.042 68.782 67.477 67.712 68.064 69.799 68.472 69.289 67.949 66.574 68.902 66.619 67.117 68.314 68.262 68.102 68.242 68.792 68.227 69.204 69.259 68.869 67.744 68.209 67.947 67.839 69.042 67.749 67.387 67.699 67.877 67.792 67.967 67.869 67.984 68.039 67.824 67.819 67.912 67.917 67.939 68.009 68.082 68.089 68.144 68.189 68.237 68.282 68.362 68.379 68.469 68.479 68.519 68.532 68.559 68.594 68.642 68.634 68.697 68.699 68.774 68.774 68.827 68.869 68.899 68.924 68.972 69.062 69.059 69.067 69.072 69.109 69.139 69.207 69.279 69.369 69.419 69.444 69.494 69.494 69.557 69.689 69.634 69.664 69.727 69.787 69.929 70.042 70.177 70.304 70.342 70.339 70.387 70.447 70.534 70.617 70.757 70.754 70.777 70.847 70.884 70.939 70.934 70.939 71.017 70.817 70.887 71.839 73.364 72.104 72.319 72.032 71.209 71.577 72.639 71.359 71.419 71.414 71.427 71.354 71.432 71.529 71.614 71.674 71.707 71.802 71.867 71.959 72.014 72.039 72.097 72.179 72.272 72.429 72.582 72.837 73.082 73.362 73.644 73.889 74.137 74.389 74.607 74.817 74.999 75.144 75.287 75.447 75.569 75.662 75.837 75.972 76.014 76.197 76.372 76.554 76.699 76.819 76.934 77.052 77.154
71.454 71.422 71.384 71.339 71.264 71.209 71.162 71.094 71.482 71.739 70.759 70.757 70.742 70.684 70.617 70.539 70.422 70.334 70.207 70.109 70.022 69.954 69.899 69.839 69.782 69.762 69.719 69.707 69.699 69.692 69.682 69.637 69.614 69.619 69.642 69.762 70.014 69.997 69.667 69.224 68.754 68.519 68.157 67.822 67.747 67.787 67.944 68.482 68.882 69.239 68.992 68.212 67.519 67.279 67.107 67.042 66.947 66.852 66.797 66.782 66.772 66.734 66.659 66.649 66.597 66.502 66.442 66.404 66.337 66.289 66.247 66.214 66.167 66.132 66.087 66.017 66.009 65.954 65.929 65.934 65.902 65.877 65.852 65.912 67.052 66.299 68.004 70.527 66.922 72.009 72.697 73.692 70.474 66.117 66.014 66.169 66.059 66.027 66.017 65.952 65.954 65.959 66.132 66.199 65.927 64.959 64.999 66.312 66.849 66.292 65.744 65.699 66.054 66.739 66.192 66.717 66.844 66.824 66.869 68.464 65.987 68.549 65.024 64.602 64.227 63.784 63.972 63.647 63.969 63.889 63.894 63.949 63.969 63.997 64.089 64.179 64.242 64.297 64.359 65.239 68.757 64.627 64.289 64.467 64.287 65.399 64.527 65.717 66.022 64.352 64.404 64.589 64.617 64.624 65.142 65.997 65.029 65.002 64.504 64.957 64.729 64.862 65.649 66.589 65.287 65.332 65.539 65.257 66.519 65.492 67.264 66.592 64.934 65.362 65.644 65.749 65.984 65.342 64.902 65.589 65.594 65.932 65.579 65.804 66.072 66.949 66.419 66.344 66.092 65.964 66.054 65.879 66.269 66.324 65.992 66.399 67.514 66.912 66.544 66.907 65.854 67.339 66.017 65.909 65.584 67.287 67.907 67.739 67.162 66.867 66.777 66.692 67.037 66.817 67.627 66.612 66.452 66.497 69.512 67.629 67.617 66.929 69.362 67.309 67.329 66.674 67.032 66.932 66.424 67.344 70.132 66.557 66.549 66.612 66.914 68.112 66.824 66.959 68.664 67.402 67.092 68.377 67.299 69.619 68.887 67.652 67.772 67.227 68.662 69.849 68.379 69.789 68.582 67.767 67.864 67.782 68.692 68.237 67.459 67.772 67.867 67.789 67.884 68.154 68.509 68.272 67.969 67.972 67.987 68.037 68.034 68.112 68.142 68.257 68.264 68.314 68.309 68.362 68.459 68.557 68.622 68.667 68.649 68.687 68.714 68.732 68.749 68.747 68.759 68.777 68.792 68.832 68.879 68.912 68.994 69.047 69.189 69.254 69.254 69.307 69.334 69.344 69.347 69.384 69.497 69.607 69.632 69.649 69.692 69.767 69.812 69.792 69.837 69.874 69.947 70.014 70.107 70.249 70.319 70.372 70.404 70.444 70.507 70.584 70.684 70.812 70.937 71.002 71.074 71.162 71.204 71.194 71.207 71.177 71.129 71.034 71.002 71.382 72.237 73.442 74.602 72.422 71.137 71.427 72.249 71.617 71.399 71.469 71.557 71.387 71.462 71.559 71.647 71.709 71.779 71.857 71.927 72.009 72.044 72.114 72.174 72.284 72.394 72.512 72.724 72.982 73.252 73.477 73.774 73.974 74.209 74.439 74.617 74.797 74.934 75.104 75.227 75.429 75.567 75.734 75.922 75.984 76.082 76.242 76.379 76.582 76.764 76.872 77.004 77.099 77.192
71.719 71.677 71.657 71.609 71.542 71.492 71.467 71.414 72.049 72.429 71.067 71.122 71.117 71.047 70.979 70.907 70.832 70.702 70.599 70.497 70.412 70.342 70.272 70.129 70.097 70.092 70.057 70.014 70.009 69.992 70.009 69.969 69.947 69.922 69.889 69.857 69.814 69.852 70.087 70.337 70.322 69.947 69.697 69.259 68.949 68.454 67.962 67.924 67.979 68.239 68.787 69.294 69.332 68.797 68.107 67.522 67.332 67.277 67.222 67.197 67.134 67.104 67.099 67.072 67.024 66.927 66.894 66.827 66.749 66.722 66.707 66.657 66.644 66.602 66.579 66.517 66.504 66.484 66.449 66.417 66.367 66.422 66.352 66.359 67.269 66.782 66.582 67.959 66.494 66.692 66.617 66.662 66.262 66.277 66.497 66.379 66.369 66.322 66.307 66.289 66.237 66.172 66.129 66.002 65.809 65.414 65.309 65.617 65.942 66.092 66.032 65.942 65.892 65.947 66.072 66.134 66.189 66.232 66.127 66.472 66.879 66.689 65.869 65.359 64.809 65.252 66.069 64.162 63.974 64.074 63.989 63.977 64.014 64.057 64.124 64.237 64.387 65.102 64.492 67.219 67.164 64.192 63.992 66.184 63.994 64.007 64.322 64.792 64.287 65.522 64.554 64.772 66.759 64.722 64.949 65.309 64.424 64.824 64.599 64.429 64.589 64.932 64.979 65.297 67.647 66.039 65.014 66.259 65.349 65.664 65.454 66.439 66.512 65.247 66.744 66.302 65.679 65.169 66.237 65.067 65.812 65.569 65.112 65.012 65.722 65.857 65.742 66.789 65.374 65.502 65.817 67.432 66.162 65.704 65.664 66.734 66.072 66.004 67.372 66.694 65.667 65.692 65.767 65.749 67.064 65.652 65.522 65.737 66.062 66.542 67.439 66.482 66.417 68.219 66.184 65.939 66.072 67.582 66.399 66.714 67.219 66.637 66.767 66.339 66.377 68.514 66.877 67.904 66.684 66.827 68.079 67.157 66.367 67.619 67.067 66.389 67.054 67.122 66.837 67.137 67.669 67.824 69.989 67.357 67.884 67.444 67.927 68.497 67.064 68.459 69.032 72.174 69.227 67.997 68.229 67.832 68.299 68.684 67.629 67.867 67.869 67.877 68.039 68.659 68.089 68.012 68.024 68.062 68.089 68.139 68.194 68.234 68.282 68.347 68.382 68.442 68.444 68.474 68.524 68.664 68.754 68.819 68.827 68.827 68.859 68.864 68.832 68.829 68.812 68.842 68.857 68.912 68.984 69.074 69.174 69.217 69.344 69.392 69.494 69.514 69.572 69.567 69.579 69.594 69.652 69.749 69.819 69.847 69.937 69.939 69.974 70.004 70.049 70.197 70.119 70.217 70.282 70.374 70.442 70.494 70.512 70.589 70.697 70.824 70.974 71.089 71.147 71.219 71.282 71.322 71.324 71.352 71.339 71.314 71.249 71.229 71.162 71.274 72.684 73.497 72.684 73.897 71.907 71.417 71.737 71.982 72.012 72.109 71.487 71.422 71.514 71.637 71.697 71.759 71.829 71.902 71.969 72.029 72.109 72.192 72.262 72.372 72.464 72.599 72.774 73.052 73.344 73.747 73.782 73.992 74.199 74.512 74.747 74.954 75.004 75.087 75.222 75.494 75.692 75.849 75.944 76.027 76.154 76.292 76.477 76.662 76.819 76.942 77.032 77.154 77.252
71.972 71.947 71.912 71.897 71.829 71.802 71.762 71.722 72.239 72.732 71.399 71.464 71.459 71.427 71.347 71.289 71.214 71.109 70.989 70.889 70.802 70.737 70.624 70.562 70.464 70.422 70.344 70.312 70.334 70.304 70.289 70.272 70.282 70.267 70.249 70.212 70.152 70.132 70.102 70.102 70.092 70.284 70.494 70.602 70.297 70.154 69.637 69.032 68.442 68.119 68.144 68.219 68.562 69.022 69.444 69.149 68.609 68.382 67.987 67.642 67.592 67.542 67.482 67.447 67.404 67.389 67.369 67.339 67.244 67.189 67.142 67.099 67.114 67.102 67.047 67.104 67.014 66.987 66.969 66.932 66.912 66.897 66.849 66.937 68.557 67.907 67.002 68.507 68.072 67.414 66.832 66.629 66.659 67.054 66.752 66.764 66.729 66.724 66.664 66.642 66.619 66.594 66.524 66.487 66.392 66.152 65.772 65.754 66.029 66.279 66.269 66.242 66.249 66.234 66.212 66.252 66.302 66.299 66.189 66.122 65.967 65.952 66.304 66.494 66.944 66.379 68.497 65.982 65.932 64.644 64.009 63.992 64.062 64.352 64.192 64.272 64.509 65.269 64.929 64.519 64.769 65.349 63.917 64.242 65.262 64.932 64.452 64.479 64.247 64.964 64.959 66.282 65.672 65.017 65.359 65.029 65.049 65.352 65.554 65.102 64.559 64.564 64.944 65.252 65.579 67.209 65.797 65.517 64.767 64.577 65.469 65.432 65.854 65.534 65.652 65.762 65.597 65.592 65.742 65.572 66.654 65.207 65.074 64.892 65.077 65.697 66.244 66.552 65.592 65.869 65.484 66.642 65.577 65.437 65.552 67.577 66.009 66.809 66.032 65.542 65.807 65.884 66.672 66.194 67.129 66.219 65.787 65.634 65.562 65.794 66.132 65.642 65.742 66.302 66.757 65.712 65.972 66.027 66.007 66.169 71.679 66.154 71.727 66.044 66.469 66.559 66.852 66.807 66.687 66.714 66.759 66.592 67.387 67.689 67.254 66.782 66.944 67.014 67.029 67.009 67.102 69.159 70.669 67.417 68.427 69.004 71.084 68.899 68.147 68.689 68.444 68.097 67.779 68.329 68.154 67.967 67.987 68.902 68.017 67.894 67.974 67.999 68.042 68.054 68.097 68.167 68.179 68.237 68.259 68.274 68.334 68.419 68.484 68.557 68.587 68.622 68.569 68.594 68.667 68.777 68.909 68.997 69.002 69.007 69.037 69.039 69.017 68.989 68.967 68.982 68.974 69.044 69.209 69.294 69.394 69.414 69.489 69.537 69.614 69.697 69.704 69.712 69.739 69.782 69.849 69.939 70.009 70.072 70.097 70.177 70.269 70.227 70.397 70.894 70.369 70.382 70.429 70.517 70.549 70.622 70.704 70.762 70.927 71.067 71.147 71.202 71.284 71.322 71.342 71.389 71.442 71.452 71.469 71.439 71.417 71.387 71.444 71.399 73.359 73.914 73.907 74.179 72.854 71.357 72.004 71.927 71.982 71.772 71.412 71.392 71.544 71.642 71.757 71.849 71.884 71.969 72.029 72.112 72.204 72.249 72.334 72.404 72.512 72.644 72.857 73.482 75.072 75.279 74.814 74.387 74.889 74.549 74.592 74.752 74.989 75.157 75.327 75.567 75.772 75.892 75.949 76.032 76.222 76.409 76.572 76.739 76.867 76.994 77.092 77.207 77.332
72.259 72.229 72.192 72.142 72.129 72.084 72.037 71.997 72.712 73.182 71.774 71.819 71.799 71.729 71.707 71.647 71.547 71.467 71.377 71.302 71.237 71.132 71.052 70.954 70.867 70.792 70.754 70.699 70.662 70.647 70.622 70.599 70.592 70.594 70.589 70.554 70.532 70.482 70.444 70.404 70.384 70.352 70.319 70.362 70.672 71.007 70.877 70.687 70.179 69.539 68.914 68.459 68.292 68.339 68.524 68.912 69.552 69.929 70.287 69.017 68.617 68.452 67.989 67.919 67.857 67.822 67.787 67.744 67.724 67.682 67.634 67.639 67.607 67.584 67.529 67.469 67.477 67.474 67.482 67.464 67.409 67.372 67.364 67.782 68.247 67.507 67.567 68.559 75.882 73.952 67.902 66.952 67.559 67.177 67.132 67.172 67.159 67.129 67.097 67.062 67.022 66.974 66.909 66.887 66.867 66.832 66.542 66.104 66.279 66.554 66.652 66.607 66.637 66.594 66.559 66.554 66.589 66.582 66.517 66.414 66.297 66.114 66.017 66.219 66.549 65.929 65.827 65.497 66.239 63.932 64.007 64.079 64.402 65.799 64.459 64.527 64.629 64.637 67.524 63.924 64.139 64.272 64.172 66.232 68.229 65.497 64.504 64.442 64.407 64.467 64.679 64.989 64.917 64.949 64.784 64.972 65.689 65.632 66.877 65.904 64.852 65.762 69.974 66.122 64.552 65.939 64.612 65.264 65.459 64.802 65.102 65.222 65.412 65.524 65.779 65.739 65.712 65.619 65.489 65.819 66.059 66.252 65.379 65.734 65.049 65.007 65.122 65.477 65.279 65.927 65.677 66.579 65.537 66.009 65.489 65.294 65.439 66.107 66.762 65.759 65.814 66.194 66.472 66.264 66.414 66.799 66.319 66.144 65.567 65.564 65.619 65.849 68.374 66.234 67.547 66.792 65.922 66.032 67.004 66.242 69.224 66.267 66.804 66.267 66.437 66.594 66.604 66.647 66.647 66.672 66.722 66.759 66.784 66.852 66.917 66.987 67.062 67.164 67.237 66.999 66.532 68.392 68.979 68.937 69.789 68.694 67.662 67.769 67.732 67.764 67.692 67.707 67.787 68.142 68.439 68.059 67.914 68.692 68.552 68.024 68.134 68.169 68.169 68.229 68.287 68.329 68.362 68.417 68.449 68.464 68.499 68.574 68.564 68.654 68.724 68.769 68.759 68.829 68.862 68.979 69.099 69.152 69.144 69.212 69.284 69.274 69.259 69.167 69.154 69.117 69.162 69.314 69.477 69.544 69.612 69.639 69.707 69.757 69.877 69.972 69.922 69.947 69.989 70.004 70.062 70.169 70.242 70.294 70.317 70.339 70.402 70.464 70.494 70.737 70.542 70.584 70.652 70.697 70.722 70.792 70.884 70.937 71.007 71.109 71.249 71.292 71.352 71.417 71.454 71.507 71.539 71.579 71.589 71.587 71.562 71.524 71.467 71.702 73.747 74.052 74.589 74.997 74.344 72.859 71.499 71.489 71.824 71.667 71.549 71.517 71.582 71.727 71.807 71.892 71.977 72.064 72.124 72.219 72.257 72.334 72.387 72.464 72.562 72.724 73.639 75.629 75.097 75.024 75.372 74.282 74.132 74.287 74.472 74.769 75.044 75.204 75.429 75.639 75.829 75.964 76.037 76.142 76.334 76.534 76.697 76.827 76.934 77.057 77.169 77.277 77.394
72.522 72.502 72.489 72.434 72.432 72.392 72.347 72.327 73.099 73.339 72.072 72.149 72.147 72.094 72.052 71.982 71.927 71.812 71.749 71.684 71.629 71.544 71.467 71.382 71.277 71.239 71.137 71.104 71.079 71.049 71.014 70.982 70.932 70.899 70.924 70.904 70.882 70.857 70.822 70.787 70.752 70.689 70.649 70.599 70.564 70.529 70.584 70.737 70.939 71.014 70.622 69.942 69.254 68.834 68.577 68.507 68.564 68.832 69.374 70.054 70.332 69.804 69.279 68.882 68.399 68.322 68.232 68.217 68.169 68.117 68.127 68.112 68.109 68.079 68.022 67.982 67.959 67.932 67.927 67.922 67.869 67.864 67.822 68.419 69.072 68.739 68.669 68.344 71.899 76.087 70.977 67.702 67.672 67.519 67.524 67.577 67.574 67.524 67.519 67.509 67.452 67.424 67.342 67.244 67.229 67.249 67.159 66.717 66.524 66.859 67.054 67.024 66.999 66.959 66.864 66.857 66.852 66.857 66.819 66.757 66.634 66.484 66.329 66.179 66.242 66.334 66.589 66.662 66.847 64.794 64.904 63.924 64.042 65.824 64.452 64.407 64.477 64.314 64.169 65.304 64.174 64.519 64.589 65.252 66.584 65.874 64.624 64.602 64.544 64.677 64.602 64.594 64.554 65.572 64.747 64.912 65.167 65.397 66.179 67.029 66.334 66.887 65.002 65.664 64.492 64.707 64.944 65.867 66.469 65.084 65.289 65.542 65.464 65.419 65.447 65.682 65.569 65.672 65.462 65.679 65.502 65.619 65.587 65.577 65.319 65.489 65.637 65.699 65.769 66.022 65.699 65.884 65.904 66.137 65.729 65.527 65.974 66.047 67.212 66.037 67.027 66.027 66.282 66.577 66.474 66.919 66.769 66.687 66.124 65.724 65.989 66.414 67.979 66.314 66.212 66.627 68.502 67.679 67.064 67.007 66.417 66.537 66.617 66.534 66.524 66.587 66.647 66.689 66.724 66.782 66.832 66.859 66.927 66.967 67.037 67.084 67.109 67.214 67.334 67.224 68.472 66.594 68.154 69.222 67.667 67.874 67.744 67.714 67.777 67.814 67.874 67.912 67.887 67.989 68.464 68.299 68.004 68.199 69.157 68.402 68.224 68.344 68.392 68.454 68.484 68.519 68.557 68.607 68.647 68.649 68.677 68.722 68.764 68.817 68.847 68.919 68.954 69.047 69.099 69.207 69.309 69.342 69.369 69.462 69.492 69.479 69.494 69.477 69.384 69.354 69.449 69.592 69.772 69.832 69.849 69.832 69.912 69.979 70.117 70.174 70.159 70.184 70.207 70.239 70.287 70.384 70.439 70.507 70.542 70.584 70.587 70.614 70.659 70.762 70.822 70.807 70.849 70.904 70.919 70.969 71.052 71.082 71.114 71.217 71.302 71.397 71.442 71.524 71.574 71.619 71.654 71.714 71.694 71.682 71.669 71.602 71.537 71.537 73.002 73.792 73.274 74.162 73.542 72.454 71.809 72.074 71.589 71.842 71.557 71.672 71.672 71.767 71.899 71.962 72.052 72.119 72.199 72.267 72.354 72.424 72.469 72.572 72.972 73.839 74.379 74.629 74.819 74.504 74.452 73.942 74.107 74.509 74.604 74.849 75.087 75.262 75.552 75.687 75.874 76.039 76.177 76.299 76.442 76.634 76.757 76.867 76.962 77.127 77.247 77.349 77.414
72.852 72.812 72.782 72.732 72.699 72.689 72.627 72.592 73.237 73.622 72.402 72.469 72.459 72.409 72.384 72.344 72.279 72.204 72.149 72.072 71.982 71.929 71.867 71.769 71.727 71.647 71.597 71.537 71.494 71.469 71.427 71.379 71.339 71.312 71.297 71.254 71.207 71.187 71.187 71.144 71.114 71.049 71.014 70.957 70.894 70.829 70.802 70.789 70.752 70.762 71.019 71.347 71.174 70.507 69.974 69.569 68.992 68.679 68.677 68.854 69.244 69.767 70.347 70.502 69.977 69.482 68.879 68.727 68.724 68.614 68.564 68.542 68.539 68.534 68.512 68.454 68.442 68.424 68.369 68.327 68.287 68.297 68.267 68.987 70.259 70.122 68.554 69.689 68.819 69.349 68.817 68.297 67.962 67.959 67.964 67.999 67.989 67.954 67.937 67.937 67.897 67.832 67.744 67.697 67.634 67.622 67.632 67.399 66.869 67.062 67.427 67.414 67.409 67.317 67.224 67.192 67.172 67.144 67.127 67.029 66.957 66.839 66.722 66.559 66.342 66.354 66.559 66.244 65.887 65.122 66.039 63.982 63.794 64.447 65.462 64.249 64.412 64.582 68.609 67.949 64.562 64.632 64.619 64.469 64.827 65.437 64.667 64.612 64.639 64.507 64.592 64.874 64.842 64.974 64.974 64.819 65.094 65.112 65.362 66.024 65.524 65.517 66.874 64.537 65.012 65.017 64.924 64.857 64.882 65.234 65.259 65.449 65.352 65.434 65.312 65.729 65.639 65.572 65.387 65.787 65.424 65.542 65.667 65.569 65.647 65.502 65.572 65.809 65.717 65.657 65.772 65.924 65.797 65.922 65.679 66.147 66.154 66.319 67.182 66.372 66.267 66.157 66.074 66.259 66.469 66.564 66.617 66.784 66.367 67.487 66.542 66.544 66.459 66.512 66.592 66.624 67.047 70.082 70.289 66.904 66.634 66.592 66.614 66.622 66.704 66.744 66.802 66.864 66.912 66.977 67.024 67.084 67.149 67.189 67.272 67.314 67.359 67.387 67.437 67.509 67.544 67.429 67.594 67.777 67.762 67.812 67.889 67.922 67.994 68.029 68.072 68.112 68.114 68.124 68.267 68.899 68.119 68.102 68.824 69.314 68.497 68.457 68.592 68.639 68.677 68.704 68.777 68.819 68.889 68.909 68.922 68.942 68.972 69.004 69.062 69.129 69.192 69.249 69.327 69.427 69.527 69.579 69.612 69.639 69.667 69.689 69.702 69.667 69.689 69.712 69.774 69.889 69.987 70.087 70.139 70.094 70.094 70.232 70.337 70.362 70.399 70.392 70.404 70.474 70.522 70.609 70.657 70.649 70.654 70.709 70.744 70.752 70.944 72.029 71.514 70.977 71.084 71.092 71.139 71.157 71.189 71.257 71.284 71.327 71.437 71.464 71.537 71.622 71.679 71.742 71.792 71.789 71.799 71.772 71.732 71.659 71.619 71.584 71.777 72.219 71.617 71.709 74.254 74.114 73.224 74.212 72.722 72.217 72.727 72.224 71.652 71.792 71.924 72.027 72.119 72.284 72.292 72.412 72.432 72.629 72.774 73.274 74.014 74.244 74.109 73.924 73.352 73.357 73.882 74.924 75.669 75.157 75.144 75.022 75.192 75.469 75.604 75.747 75.907 76.082 76.239 76.384 76.504 76.697 76.819 76.937 77.052 77.192 77.312 77.369 77.429
73.114 73.102 73.072 73.039 72.987 72.969 72.959 72.927 73.714 73.462 72.737 72.774 72.779 72.774 72.702 72.644 72.602 72.569 72.489 72.427 72.387 72.347 72.269 72.202 72.162 72.082 72.027 71.977 71.934 71.892 71.879 71.844 71.789 71.719 71.707 71.639 71.619 71.572 71.514 71.474 71.427 71.409 71.389 71.309 71.262 71.217 71.192 71.122 71.052 70.992 70.949 70.909 70.997 71.207 71.359 71.364 70.739 70.154 69.454 69.022 68.894 68.912 69.107 69.647 70.412 70.784 70.602 69.934 69.484 69.169 69.029 69.064 68.957 68.937 68.932 68.952 68.942 68.934 68.919 68.777 68.892 68.724 68.687 69.139 69.394 69.042 69.182 70.599 68.572 68.304 70.082 68.352 68.324 68.349 68.352 68.402 68.419 68.424 68.357 68.337 68.304 68.249 68.129 68.052 68.027 67.962 68.032 67.964 67.442 67.257 67.752 67.867 67.794 67.724 67.609 67.562 67.492 67.474 67.437 67.342 67.274 67.204 67.079 66.919 66.742 66.529 66.472 66.729 66.649 65.917 68.014 66.924 66.009 65.919 65.767 66.082 65.777 66.749 65.689 66.224 65.072 64.669 64.649 64.552 64.674 65.142 64.887 64.812 64.824 64.594 64.647 64.907 64.914 64.947 64.907 64.822 64.907 64.962 65.027 65.342 65.297 64.904 66.357 64.922 66.529 64.982 64.899 65.012 65.094 65.347 65.199 65.157 65.389 65.274 65.344 65.329 65.632 65.687 65.517 65.792 65.522 65.597 65.734 65.687 65.667 65.697 65.739 65.707 65.794 66.069 65.667 65.814 66.099 66.074 65.759 66.142 66.447 66.274 66.474 66.322 66.299 66.414 66.029 65.937 66.294 66.229 67.117 66.624 66.367 68.904 66.492 67.229 66.944 66.507 66.577 66.709 66.617 66.557 68.169 67.147 66.694 66.642 66.717 66.809 66.847 66.912 66.964 67.009 67.084 67.139 67.207 67.252 67.332 67.382 67.462 67.524 67.592 67.642 67.702 67.744 67.807 67.844 67.834 67.917 67.974 68.037 68.074 68.119 68.179 68.224 68.267 68.329 68.392 68.334 68.334 68.874 68.972 68.269 68.444 68.867 69.427 68.737 68.677 68.822 68.887 68.922 68.989 69.074 69.127 69.207 69.222 69.272 69.214 69.267 69.279 69.334 69.409 69.492 69.537 69.637 69.767 69.757 69.819 69.809 69.852 69.899 69.979 69.899 69.914 70.004 70.064 70.189 70.317 70.302 70.349 70.399 70.374 70.402 70.519 70.487 70.547 70.597 70.642 70.684 70.739 70.807 70.844 70.812 70.817 70.862 70.824 70.912 72.367 72.602 71.622 71.284 71.247 71.339 71.344 71.354 71.382 71.467 71.479 71.539 71.572 71.619 71.657 71.697 71.789 71.832 71.892 71.907 71.909 71.907 71.862 71.807 71.739 71.677 71.669 71.649 71.719 71.704 72.327 73.937 73.102 73.947 71.779 71.542 71.937 73.354 72.354 72.884 72.794 72.917 73.447 73.622 73.437 73.547 73.489 73.757 73.907 73.969 73.779 73.684 73.214 72.929 73.159 73.847 74.794 75.422 76.332 76.277 76.594 76.389 75.742 75.497 75.684 75.872 75.954 76.122 76.274 76.409 76.554 76.722 76.912 76.994 77.114 77.237 77.349 77.439 77.509
73.427 73.407 73.384 73.342 73.327 73.284 73.267 73.237 73.962 73.937 73.047 73.129 73.099 73.052 73.052 72.987 72.949 72.899 72.849 72.817 72.792 72.739 72.682 72.634 72.589 72.529 72.469 72.404 72.384 72.367 72.332 72.299 72.239 72.174 72.122 72.069 72.002 71.954 71.892 71.849 71.807 71.772 71.714 71.684 71.632 71.587 71.564 71.492 71.412 71.334 71.279 71.232 71.134 71.119 71.067 71.197 71.432 71.489 71.167 70.652 70.209 69.612 69.247 69.147 69.227 69.657 69.862 70.444 70.877 71.002 71.894 70.102 69.529 69.342 69.312 69.302 69.309 69.299 69.312 69.247 69.404 69.129 69.102 70.139 71.822 71.699 69.342 68.982 68.562 69.987 69.372 68.719 68.729 68.744 68.754 68.804 68.804 68.779 68.782 68.749 68.704 68.652 68.582 68.479 68.409 68.312 68.344 68.367 68.087 67.692 68.007 68.239 68.149 68.084 68.019 67.974 67.912 67.822 67.764 67.687 67.627 67.524 67.482 67.312 67.142 66.977 66.777 66.747 66.794 66.624 67.422 66.972 66.917 67.239 66.247 66.329 66.374 66.252 66.347 65.872 65.167 65.022 64.837 64.824 65.234 65.387 65.064 65.032 65.007 65.014 65.534 64.884 64.887 64.949 66.854 65.187 65.059 64.964 64.997 65.019 65.129 66.152 71.887 66.704 65.834 65.077 65.164 68.639 72.042 69.467 65.522 65.407 65.459 67.137 67.557 65.914 65.442 65.604 65.779 65.772 65.907 66.032 66.434 67.779 65.939 65.949 65.862 67.394 67.272 66.074 65.909 66.174 66.029 66.044 65.982 66.214 66.417 66.377 66.222 66.469 66.357 66.442 66.469 66.607 66.407 66.432 66.762 66.719 66.384 66.309 66.312 66.377 66.657 66.467 66.474 66.534 66.517 66.842 69.779 67.662 66.734 66.827 66.929 66.979 67.029 67.107 67.147 67.207 67.307 67.367 67.427 67.499 67.549 67.639 67.694 67.759 67.804 67.887 67.937 67.989 68.037 68.072 68.127 68.169 68.187 68.217 68.244 68.292 68.339 68.407 68.464 68.517 68.564 68.574 68.544 68.559 69.037 69.312 68.507 68.419 68.934 69.769 69.074 68.984 69.119 69.174 69.242 69.297 69.379 69.432 69.489 69.539 69.537 69.544 69.504 69.552 69.617 69.709 69.747 69.844 69.889 69.997 70.002 70.007 70.047 70.097 70.104 70.187 70.184 70.232 70.282 70.387 70.429 70.467 70.547 70.522 70.592 70.619 70.692 70.767 70.804 70.819 70.857 70.894 70.957 70.992 71.014 71.067 71.047 71.094 71.059 71.124 71.642 71.784 71.802 71.649 71.502 71.617 71.649 71.642 71.644 71.712 71.727 71.742 71.762 71.777 71.769 71.837 71.874 71.947 72.012 72.032 72.037 72.014 71.957 71.917 71.877 71.779 71.719 71.722 71.699 71.772 71.534 72.052 72.164 73.099 72.142 72.362 73.172 72.974 72.989 73.367 73.182 73.147 72.994 72.889 72.757 72.759 72.752 72.919 72.877 72.824 72.809 72.707 72.702 72.859 73.802 76.489 76.529 75.349 75.277 75.652 76.084 77.527 77.242 75.899 76.142 76.032 75.992 76.164 76.357 76.489 76.637 76.774 76.944 77.104 77.184 77.274 77.369 77.492 77.582
73.707 73.704 73.679 73.659 73.629 73.597 73.594 73.582 74.474 73.852 73.409 73.444 73.424 73.387 73.372 73.337 73.304 73.274 73.224 73.209 73.207 73.142 73.089 73.062 73.002 72.962 72.902 72.862 72.847 72.799 72.779 72.734 72.689 72.644 72.569 72.514 72.454 72.374 72.297 72.242 72.189 72.129 72.079 72.049 71.994 71.904 71.874 71.832 71.794 71.714 71.649 71.577 71.512 71.437 71.347 71.274 71.204 71.242 71.299 71.574 71.742 71.359 70.889 70.117 69.769 69.469 69.397 69.499 69.769 70.237 70.889 71.524 71.152 70.769 70.254 69.804 69.704 69.667 69.637 69.639 69.574 69.537 69.524 70.557 70.889 70.044 69.547 69.089 69.057 70.152 69.219 69.144 69.127 69.132 69.149 69.162 69.159 69.174 69.149 69.109 69.084 69.049 68.959 68.894 68.817 68.754 68.689 68.742 68.579 68.024 68.134 68.567 68.512 68.452 68.412 68.359 68.284 68.209 68.134 68.039 67.962 67.897 67.814 67.712 67.564 67.439 67.252 67.069 67.004 67.027 66.794 66.779 66.722 66.787 66.627 67.069 68.114 68.349 67.597 68.637 66.832 66.099 65.564 65.277 65.359 67.327 66.887 65.914 65.457 66.629 65.579 65.479 65.932 67.124 69.572 67.587 66.894 66.419 65.422 65.617 67.159 68.522 72.717 68.372 66.757 66.682 66.684 69.457 71.449 72.602 67.274 66.502 66.269 69.889 69.027 66.259 66.034 66.257 69.022 69.224 66.702 67.062 66.522 66.387 66.254 66.142 67.439 68.742 69.512 66.084 66.097 66.364 66.102 66.049 65.932 66.319 66.364 66.127 66.027 66.399 66.344 66.132 66.427 66.929 66.849 66.334 66.592 66.492 66.284 66.279 66.427 66.404 66.384 66.279 66.327 66.439 67.622 68.079 68.877 67.629 66.959 67.037 67.124 67.189 67.259 67.322 67.392 67.432 67.502 67.584 67.647 67.719 67.814 67.887 67.969 68.012 68.054 68.097 68.174 68.207 68.264 68.314 68.352 68.369 68.379 68.377 68.414 68.457 68.494 68.579 68.634 68.692 68.727 68.807 68.834 68.852 68.817 69.162 69.444 68.647 68.592 69.209 69.882 69.347 69.264 69.424 69.532 69.559 69.604 69.672 69.719 69.807 69.792 69.804 69.784 69.799 69.832 69.949 70.017 70.024 70.097 70.179 70.212 70.292 70.362 70.324 70.322 70.389 70.379 70.447 70.532 70.559 70.627 70.674 70.694 70.727 70.779 70.887 70.947 70.989 71.034 71.047 71.149 71.222 71.249 71.209 71.249 71.254 71.307 71.352 71.334 71.344 71.497 71.702 71.764 71.664 71.742 71.844 71.892 71.869 71.914 71.902 71.939 71.959 71.934 71.917 71.917 71.954 71.984 72.044 72.087 72.124 72.114 72.049 72.007 71.979 71.924 71.839 71.782 71.714 71.722 71.664 71.417 72.679 72.639 72.562 73.612 73.479 73.344 72.679 72.547 72.362 72.222 72.229 72.224 72.267 72.312 72.379 72.407 72.489 72.514 72.582 72.664 72.804 72.839 72.892 73.747 74.594 75.687 75.327 75.817 75.677 75.619 75.762 77.359 76.517 77.079 76.617 76.134 76.377 76.614 76.674 76.684 76.857 77.009 77.177 77.227 77.307 77.389 77.542 77.632
74.019 74.004 73.992 73.994 73.972 73.934 73.889 73.892 74.884 73.972 73.742 73.772 73.734 73.712 73.729 73.679 73.644 73.597 73.604 73.592 73.579 73.562 73.529 73.472 73.424 73.382 73.339 73.302 73.269 73.254 73.207 73.164 73.117 73.062 73.014 72.929 72.849 72.809 72.694 72.637 72.589 72.517 72.482 72.419 72.352 72.294 72.234 72.162 72.117 72.057 71.982 71.937 71.849 71.784 71.704 71.607 71.539 71.457 71.384 71.324 71.327 71.504 71.807 71.857 71.504 70.912 70.297 69.867 69.742 69.687 69.802 69.997 70.504 70.769 71.817 71.304 70.792 70.294 70.079 70.039 69.964 69.899 69.909 70.252 70.817 69.929 69.549 69.319 70.047 69.892 69.557 69.514 69.522 69.532 69.542 69.557 69.557 69.547 69.517 69.499 69.447 69.369 69.319 69.229 69.154 69.124 69.092 69.042 69.009 68.489 68.327 68.837 68.884 68.787 68.762 68.749 68.652 68.589 68.487 68.392 68.319 68.237 68.184 68.109 67.987 67.852 67.754 67.582 67.414 67.292 67.174 67.069 67.047 66.999 67.034 66.989 67.029 67.029 67.164 67.849 67.517 67.839 67.402 66.522 68.134 69.029 66.392 66.399 66.914 66.462 66.537 66.844 66.799 66.384 66.419 66.634 68.044 68.437 66.304 66.504 68.229 67.447 67.532 68.169 67.669 66.847 67.039 67.642 70.394 68.394 66.804 68.574 66.722 68.397 68.139 67.272 67.789 67.567 67.809 68.524 67.394 67.317 67.204 67.059 67.447 67.364 70.847 72.369 69.699 67.347 66.322 66.329 66.524 66.189 65.939 65.894 66.014 65.992 65.959 66.307 66.332 66.222 66.619 66.442 66.719 66.189 66.267 66.157 66.399 66.219 66.279 66.314 67.042 66.612 67.017 67.164 69.814 69.619 68.569 67.732 67.177 67.257 67.342 67.429 67.517 67.539 67.599 67.677 67.754 67.814 67.892 67.984 68.062 68.129 68.222 68.257 68.327 68.394 68.432 68.474 68.469 68.502 68.542 68.569 68.587 68.629 68.644 68.682 68.727 68.807 68.854 68.912 68.954 68.992 69.057 69.144 69.177 69.139 69.379 69.609 68.839 68.734 69.314 70.302 69.972 69.584 69.749 69.859 69.907 69.962 69.962 70.009 70.047 70.052 70.059 70.074 70.089 70.182 70.182 70.264 70.287 70.369 70.389 70.499 70.507 70.552 70.564 70.634 70.672 70.727 70.797 70.849 70.929 70.984 71.037 71.019 71.007 71.219 71.259 71.279 71.327 71.359 71.389 71.427 71.457 71.477 71.499 71.517 71.529 71.554 71.579 71.619 71.649 71.874 71.932 71.897 71.959 72.077 72.109 72.134 72.122 72.117 72.134 72.152 72.089 72.092 72.114 72.109 72.109 72.142 72.167 72.219 72.197 72.122 72.092 72.059 72.037 71.957 71.867 71.822 71.812 71.797 71.702 71.982 73.199 72.602 72.527 72.369 72.264 72.174 72.139 72.184 72.254 72.327 72.294 72.539 72.792 73.234 73.394 73.592 73.529 73.387 73.357 73.409 72.992 73.084 73.317 73.592 74.074 74.699 74.987 75.482 75.819 75.819 75.974 76.267 76.909 77.172 76.637 76.599 76.634 76.739 76.812 76.967 77.069 77.197 77.289 77.379 77.494 77.607 77.764
74.329 74.317 74.344 74.309 74.289 74.287 74.214 74.262 75.369 74.382 74.072 74.084 74.067 74.074 74.039 73.999 73.982 73.987 73.987 73.972 73.977 73.967 73.937 73.874 73.829 73.789 73.744 73.692 73.652 73.634 73.622 73.564 73.544 73.509 73.439 73.364 73.284 73.234 73.147 73.062 73.002 72.944 72.874 72.787 72.732 72.654 72.579 72.509 72.482 72.442 72.312 72.239 72.187 72.124 72.052 71.957 71.879 71.819 71.724 71.642 71.572 71.542 71.509 71.574 71.774 72.062 72.162 71.419 71.057 70.577 70.152 69.997 69.952 70.079 70.457 71.517 71.607 71.839 71.597 71.094 70.557 70.309 70.284 71.572 71.907 70.034 69.814 69.827 70.459 70.057 69.932 69.892 69.892 69.854 69.892 69.907 69.927 69.892 69.877 69.882 69.814 69.737 69.642 69.562 69.512 69.462 69.417 69.399 69.392 69.027 68.597 69.044 69.244 69.152 69.107 69.079 69.024 68.934 68.827 68.759 68.699 68.597 68.537 68.477 68.407 68.319 68.194 68.064 67.914 67.822 67.707 67.612 67.567 67.494 67.492 67.442 67.387 67.312 67.282 67.264 67.292 67.542 67.839 68.462 68.694 70.424 67.159 66.654 66.789 67.327 67.652 67.067 67.204 67.402 67.014 67.162 68.214 67.392 67.557 68.092 67.129 67.442 68.477 68.642 67.167 67.222 67.389 67.369 68.069 67.277 67.109 67.337 67.517 67.299 67.262 67.737 67.272 67.432 68.434 68.969 68.202 67.477 67.459 67.712 67.317 67.209 67.857 68.887 70.667 69.394 67.224 67.344 68.619 66.294 66.062 66.042 66.167 66.047 66.357 68.849 66.277 66.009 66.687 66.392 66.739 66.487 66.137 66.132 66.169 66.189 66.204 66.274 68.439 69.187 69.312 67.884 68.262 69.624 69.379 67.912 67.384 67.484 67.579 67.692 67.769 67.797 67.869 67.967 68.049 68.124 68.204 68.269 68.359 68.449 68.472 68.507 68.592 68.627 68.669 68.727 68.759 68.784 68.777 68.794 68.797 68.859 68.889 68.889 68.954 68.997 69.047 69.099 69.177 69.227 69.282 69.394 69.429 69.459 69.467 69.672 69.819 69.179 68.914 69.284 70.187 70.657 70.117 70.047 70.172 70.227 70.239 70.222 70.269 70.307 70.324 70.312 70.299 70.419 70.447 70.507 70.479 70.549 70.617 70.689 70.757 70.859 70.884 70.974 70.984 71.047 71.134 71.257 71.362 71.422 71.469 71.512 71.527 71.619 71.622 71.649 71.667 71.697 71.759 71.782 71.769 71.774 71.749 71.774 71.782 71.799 71.827 71.847 71.892 71.917 72.074 72.209 72.232 72.294 72.344 72.374 72.382 72.369 72.392 72.362 72.344 72.319 72.319 72.284 72.279 72.289 72.304 72.309 72.289 72.252 72.219 72.189 72.164 72.102 72.002 71.997 72.124 72.479 72.544 72.689 72.037 72.237 72.179 72.164 72.249 73.389 73.314 73.094 72.607 73.017 73.004 73.537 73.682 73.474 73.359 73.889 73.862 73.522 73.954 74.562 74.282 73.689 73.459 73.634 73.789 73.912 74.529 75.054 75.777 76.152 76.312 76.302 76.259 76.797 77.192 77.774 76.897 78.169 77.049 77.167 77.029 77.219 77.357 77.437 77.587 77.724 77.884
74.629 74.647 74.632 74.609 74.617 74.597 74.542 74.617 75.632 74.629 74.389 74.422 74.414 74.409 74.384 74.362 74.319 74.339 74.327 74.357 74.359 74.384 74.324 74.299 74.249 74.184 74.117 74.084 74.037 74.024 73.999 73.959 73.942 73.909 73.844 73.782 73.714 73.637 73.554 73.489 73.427 73.344 73.252 73.179 73.102 73.019 72.952 72.894 72.817 72.754 72.667 72.579 72.507 72.464 72.369 72.267 72.217 72.137 72.087 71.994 71.907 71.829 71.784 71.732 71.707 71.704 71.864 72.124 72.562 72.314 71.809 71.184 70.734 70.404 70.217 70.279 70.342 70.709 71.542 71.984 71.772 71.424 70.814 71.397 72.024 70.394 70.194 70.339 70.417 70.357 70.354 70.279 70.262 70.232 70.254 70.267 70.284 70.252 70.254 70.222 70.139 70.077 69.997 69.897 69.832 69.762 69.727 69.704 69.747 69.517 68.969 69.244 69.569 69.554 69.497 69.457 69.399 69.322 69.209 69.137 69.089 68.997 68.929 68.882 68.814 68.692 68.612 68.524 68.424 68.309 68.202 68.129 68.069 67.999 67.964 67.939 67.864 67.787 67.714 67.647 67.639 67.652 67.727 67.829 68.147 68.729 68.242 67.757 67.397 67.697 67.854 67.359 67.449 67.242 68.022 67.287 67.689 67.159 67.359 68.379 68.579 68.712 69.202 69.484 67.942 68.379 68.224 69.162 68.854 68.332 67.879 68.519 68.674 68.789 67.947 68.997 68.294 68.337 68.879 68.932 69.137 69.419 69.917 69.352 68.999 68.044 67.169 70.719 72.329 68.759 67.082 67.204 67.662 66.392 66.474 66.512 67.372 66.739 68.439 71.197 69.422 66.409 66.352 66.752 66.559 68.132 66.584 67.224 66.914 66.837 68.104 69.762 68.147 69.254 71.552 69.102 68.862 69.412 69.149 69.049 67.704 67.772 67.892 67.982 68.072 68.119 68.169 68.289 68.377 68.447 68.529 68.609 68.674 68.772 68.794 68.857 68.909 68.939 68.979 69.002 69.019 69.029 69.049 69.039 69.064 69.114 69.137 69.164 69.207 69.252 69.299 69.354 69.439 69.509 69.542 69.594 69.689 69.752 69.812 69.817 69.919 70.232 69.914 69.249 69.304 70.047 70.954 70.852 70.432 70.424 70.509 70.532 70.559 70.607 70.662 70.634 70.637 70.674 70.757 70.807 70.817 70.842 70.874 70.884 70.987 71.114 71.197 71.309 71.357 71.392 71.607 71.742 71.849 71.937 71.994 72.004 72.059 72.064 72.079 72.089 72.084 72.119 72.154 72.197 72.184 72.139 72.132 72.092 72.064 72.072 72.119 72.129 72.174 72.229 72.317 72.479 72.534 72.544 72.624 72.647 72.637 72.584 72.602 72.614 72.594 72.579 72.574 72.549 72.509 72.459 72.474 72.442 72.429 72.442 72.437 72.369 72.352 72.502 72.777 73.179 73.167 72.729 72.364 72.137 72.104 72.199 72.324 72.514 74.107 77.567 76.132 73.077 73.332 73.187 73.059 73.147 73.202 73.274 73.489 73.862 73.802 73.677 73.719 74.854 74.089 74.504 74.707 74.359 74.112 74.149 74.304 74.384 75.114 75.704 76.294 76.667 77.109 76.394 76.729 77.364 77.824 78.022 78.219 78.874 79.492 77.754 77.349 77.517 77.674 77.829 77.987
74.964 74.972 74.967 74.934 74.904 74.884 74.859 75.232 76.114 75.042 74.764 74.767 74.757 74.732 74.732 74.704 74.692 74.689 74.714 74.732 74.737 74.739 74.714 74.682 74.622 74.567 74.507 74.447 74.414 74.384 74.369 74.352 74.329 74.269 74.229 74.187 74.129 74.039 73.977 73.887 73.839 73.727 73.669 73.612 73.504 73.409 73.334 73.227 73.177 73.104 73.009 72.942 72.852 72.809 72.714 72.664 72.534 72.457 72.362 72.302 72.242 72.162 72.127 72.044 72.004 71.952 71.892 71.869 71.954 72.139 72.397 72.474 72.414 71.704 71.234 71.049 70.734 70.477 70.537 70.634 70.839 71.317 71.582 72.027 70.962 70.664 70.602 71.399 70.889 70.707 70.767 70.634 70.632 70.599 70.589 70.637 70.607 70.587 70.577 70.534 70.497 70.414 70.339 70.234 70.167 70.094 70.052 70.009 70.042 69.947 69.367 69.429 69.874 69.867 69.829 69.832 69.802 69.704 69.624 69.537 69.449 69.382 69.319 69.259 69.172 69.069 69.017 68.924 68.854 68.772 68.684 68.607 68.547 68.512 68.454 68.427 68.357 68.287 68.207 68.109 68.032 68.019 68.057 68.107 68.082 68.522 68.897 67.984 68.794 70.934 69.417 68.287 68.064 67.724 67.612 67.594 67.652 67.562 67.662 68.239 68.047 68.234 68.294 68.249 68.312 68.249 68.269 68.397 68.152 68.162 68.317 68.682 68.274 68.229 68.127 68.129 68.244 68.167 68.364 68.302 68.262 68.604 68.827 68.512 68.302 68.734 67.812 67.584 67.742 67.797 67.187 66.824 67.114 66.749 67.309 67.409 67.877 68.792 69.767 73.452 71.162 67.552 67.974 67.792 68.159 70.157 69.044 68.867 67.542 67.642 69.369 71.472 69.357 69.247 69.872 69.067 69.069 69.239 69.924 70.129 68.149 68.102 68.222 68.319 68.424 68.464 68.544 68.652 68.742 68.787 68.909 68.972 69.047 69.124 69.172 69.217 69.227 69.252 69.304 69.339 69.319 69.332 69.347 69.354 69.377 69.374 69.434 69.467 69.517 69.547 69.609 69.664 69.697 69.747 69.839 69.882 69.927 70.007 70.107 70.174 70.212 70.252 70.507 70.417 69.789 69.487 69.814 70.612 71.477 71.302 70.924 70.822 70.824 70.899 70.969 70.967 70.999 71.072 71.132 71.162 71.184 71.274 71.244 71.279 71.314 71.402 71.489 71.642 71.779 71.894 72.069 72.217 72.297 72.372 72.429 72.447 72.464 72.494 72.484 72.484 72.512 72.547 72.579 72.607 72.609 72.604 72.592 72.522 72.509 72.462 72.457 72.492 72.522 72.602 72.639 72.762 72.952 72.902 72.822 72.904 72.872 72.807 72.784 72.809 72.802 72.809 72.787 72.759 72.694 72.639 72.619 72.614 72.614 72.647 72.587 72.967 73.327 73.102 72.764 72.312 72.089 72.039 72.037 72.237 72.412 72.507 72.577 72.887 74.687 73.214 74.944 73.372 73.379 72.639 73.577 73.042 73.247 73.522 75.047 73.672 73.724 74.052 74.514 73.799 74.722 74.067 74.227 74.447 74.727 74.882 74.992 74.672 74.719 74.947 75.439 76.282 76.614 76.809 77.852 77.334 77.154 77.577 77.947 78.674 79.642 78.879 77.954 77.532 77.727 77.849 78.037
75.314 75.309 75.269 75.269 75.227 75.219 75.184 75.452 76.329 75.082 75.102 75.114 75.084 75.067 75.062 75.034 75.049 75.037 75.067 75.074 75.107 75.089 75.089 75.032 74.982 74.932 74.859 74.812 74.782 74.757 74.719 74.694 74.697 74.644 74.622 74.584 74.514 74.452 74.377 74.299 74.219 74.162 74.064 73.972 73.884 73.774 73.702 73.617 73.522 73.449 73.349 73.292 73.197 73.149 73.054 72.969 72.882 72.802 72.734 72.624 72.544 72.499 72.437 72.394 72.339 72.267 72.222 72.152 72.134 72.104 72.099 72.114 72.319 72.737 72.619 72.432 72.014 71.502 71.129 70.844 70.772 70.812 70.889 70.949 70.992 70.944 71.122 72.324 72.472 73.519 72.032 71.049 70.987 70.974 70.969 70.987 70.977 70.947 70.917 70.897 70.849 70.767 70.659 70.582 70.527 70.469 70.409 70.382 70.384 70.309 69.792 69.679 70.202 70.212 70.152 70.152 70.129 70.077 69.994 69.909 69.839 69.762 69.707 69.682 69.579 69.499 69.427 69.337 69.269 69.187 69.149 69.064 69.034 68.959 68.917 68.884 68.832 68.737 68.692 68.624 68.529 68.437 68.484 68.524 68.419 69.284 70.262 68.562 70.422 70.232 70.582 69.084 69.204 68.319 68.172 68.142 68.134 68.199 68.212 68.927 68.579 68.369 68.397 68.464 68.529 68.589 68.654 68.689 68.669 68.657 68.697 68.819 68.552 68.549 68.502 68.512 68.549 68.564 68.664 68.644 68.537 68.484 68.352 68.164 67.944 67.807 67.547 67.337 67.279 67.107 67.189 67.112 67.092 67.262 67.357 68.812 69.457 69.012 68.887 71.084 69.079 67.862 69.244 69.027 68.577 69.887 68.959 68.519 69.457 69.532 69.727 69.917 69.532 69.442 69.627 69.904 68.742 68.902 68.597 70.267 68.649 68.469 68.557 68.684 68.797 68.854 68.932 69.042 69.124 69.204 69.272 69.354 69.432 69.479 69.534 69.572 69.584 69.652 69.664 69.674 69.657 69.692 69.687 69.667 69.707 69.714 69.757 69.809 69.837 69.887 69.947 69.994 70.014 70.059 70.122 70.167 70.242 70.299 70.354 70.449 70.522 70.582 70.639 70.722 70.897 70.717 70.107 69.869 70.064 70.904 71.927 72.059 71.667 71.182 71.079 71.189 71.322 71.374 71.514 71.597 71.689 71.692 71.727 71.757 71.814 71.927 71.964 72.107 72.247 72.372 72.494 72.624 72.689 72.757 72.769 72.819 72.819 72.847 72.854 72.842 72.874 72.907 72.932 72.967 72.969 72.969 72.954 72.952 72.957 72.962 72.954 72.987 73.039 73.097 73.142 73.194 73.344 73.397 73.232 73.104 73.077 73.057 73.014 73.039 73.029 73.052 73.022 72.972 72.902 72.827 72.794 72.812 72.827 73.099 73.517 73.412 72.662 72.374 72.189 72.122 72.269 72.629 72.887 73.019 72.917 72.624 72.339 72.389 72.632 76.114 76.427 75.627 73.604 73.172 72.947 73.119 73.187 73.777 73.784 73.897 73.759 74.139 74.204 74.147 74.137 74.179 74.399 74.524 74.689 75.084 75.502 75.737 77.949 81.572 76.744 75.387 75.812 76.474 77.167 77.262 77.417 77.152 77.484 77.737 78.222 78.614 79.657 77.639 77.764 78.692 78.364
75.657 75.612 75.617 75.597 75.562 75.554 75.494 75.904 76.819 75.452 75.469 75.469 75.439 75.432 75.402 75.389 75.394 75.407 75.419 75.429 75.449 75.479 75.434 75.402 75.344 75.309 75.242 75.177 75.132 75.094 75.072 75.054 75.037 75.032 74.994 74.949 74.864 74.809 74.739 74.672 74.624 74.517 74.457 74.357 74.264 74.167 74.084 73.964 73.882 73.804 73.709 73.657 73.554 73.504 73.409 73.322 73.234 73.152 73.082 72.984 72.934 72.819 72.764 72.699 72.634 72.589 72.567 72.497 72.432 72.394 72.367 72.322 72.332 72.362 72.412 72.579 72.802 73.044 72.604 72.052 71.522 71.239 71.054 71.039 71.087 71.134 71.252 71.369 71.629 72.212 72.759 72.762 74.264 71.854 71.824 71.344 71.289 71.282 71.259 71.237 71.217 71.132 71.022 70.962 70.869 70.824 70.737 70.714 70.729 70.684 70.249 70.019 70.512 70.579 70.492 70.474 70.497 70.437 70.357 70.292 70.234 70.184 70.162 70.094 70.017 69.939 69.829 69.779 69.699 69.637 69.569 69.492 69.457 69.392 69.399 69.387 69.292 69.222 69.179 69.107 69.014 68.909 68.919 68.934 69.147 71.197 70.044 68.602 69.739 71.042 69.642 70.742 69.684 68.807 68.734 68.707 68.729 68.767 68.764 69.022 68.937 68.904 68.902 68.989 68.992 69.044 69.097 69.139 69.174 69.094 69.124 69.097 69.067 69.039 68.984 69.067 69.039 69.067 69.064 69.022 68.922 68.752 68.659 68.422 68.237 68.037 67.764 67.692 67.517 67.279 67.224 67.777 68.274 68.147 67.924 68.882 69.572 69.469 69.329 69.139 69.449 68.407 68.534 68.787 68.919 68.892 68.619 68.809 69.794 69.137 69.929 69.799 69.172 69.437 69.472 69.677 69.317 68.772 68.809 70.602 69.232 68.832 68.952 69.059 69.177 69.279 69.344 69.414 69.522 69.607 69.697 69.762 69.799 69.879 69.932 69.964 70.017 70.017 70.057 70.034 70.054 70.052 70.062 70.059 70.079 70.094 70.119 70.157 70.182 70.252 70.287 70.337 70.362 70.394 70.429 70.464 70.517 70.597 70.649 70.702 70.779 70.894 70.994 71.029 71.074 71.254 71.402 71.134 70.612 70.269 70.454 71.022 71.857 72.342 72.362 71.989 71.707 71.619 71.654 71.802 71.917 72.014 72.114 72.122 72.479 72.499 72.537 72.839 72.984 72.907 73.069 73.074 73.122 73.139 73.162 73.199 73.229 73.239 73.199 73.204 73.249 73.264 73.289 73.332 73.339 73.329 73.349 73.384 73.372 73.417 73.424 73.494 73.559 73.612 73.664 73.709 73.704 73.744 73.712 73.434 73.342 73.327 73.299 73.244 73.284 73.297 73.254 73.227 73.157 73.084 73.039 73.189 73.802 73.734 72.992 72.517 72.389 72.337 72.554 72.999 73.292 73.264 72.987 72.514 72.154 72.084 72.112 72.157 72.192 76.119 77.039 76.137 74.957 73.184 73.257 73.159 73.319 73.834 73.584 74.049 74.094 74.084 74.207 74.422 74.657 74.662 74.489 74.862 74.929 75.152 75.094 75.902 79.849 78.662 76.482 76.247 75.804 75.797 76.114 77.047 77.562 77.879 78.307 78.444 78.702 78.602 78.812 79.202 78.287 78.189 79.162
75.967 75.959 75.954 75.914 75.917 75.859 75.809 76.144 76.912 75.717 75.804 75.807 75.804 75.774 75.759 75.747 75.747 75.779 75.772 75.772 75.812 75.817 75.782 75.727 75.699 75.642 75.597 75.544 75.502 75.477 75.467 75.434 75.397 75.379 75.349 75.284 75.252 75.177 75.114 75.034 74.992 74.909 74.814 74.729 74.609 74.524 74.442 74.334 74.257 74.187 74.099 74.029 73.967 73.867 73.764 73.704 73.587 73.534 73.449 73.364 73.287 73.209 73.134 73.097 73.004 72.937 72.869 72.839 72.772 72.717 72.677 72.639 72.624 72.584 72.589 72.597 72.599 72.697 72.962 73.209 73.264 73.089 72.397 71.912 71.747 71.437 71.344 71.387 71.484 71.562 71.644 71.954 72.462 73.034 73.494 73.292 73.102 71.969 71.612 71.534 71.507 71.484 71.404 71.319 71.304 71.244 71.152 71.064 71.077 71.104 70.697 70.319 70.822 70.977 70.844 70.824 70.839 70.754 70.694 70.657 70.582 70.487 70.527 70.482 70.422 70.339 70.274 70.197 70.089 70.024 69.982 69.937 69.897 69.844 69.804 69.754 69.744 69.672 69.632 69.537 69.474 69.382 69.374 69.387 69.447 71.299 71.029 69.392 70.119 71.134 70.819 70.592 69.284 69.267 69.254 69.287 69.302 69.267 69.297 69.369 69.472 69.389 69.449 69.412 69.459 69.479 69.544 69.612 69.589 69.577 69.609 69.609 69.572 69.539 69.504 69.467 69.482 69.527 69.519 69.394 69.289 69.117 68.947 68.742 68.587 68.342 68.117 67.917 67.764 67.579 67.432 68.192 67.489 67.952 68.589 69.387 69.522 69.227 69.019 68.784 68.987 69.262 69.157 68.967 68.989 69.054 69.627 69.292 69.624 69.242 69.597 69.179 70.072 69.182 69.894 69.499 69.632 69.149 69.514 71.359 69.794 69.262 69.387 69.507 69.612 69.694 69.777 69.859 69.982 70.044 70.127 70.169 70.222 70.297 70.344 70.359 70.387 70.409 70.444 70.442 70.464 70.447 70.444 70.452 70.447 70.474 70.497 70.549 70.582 70.622 70.664 70.722 70.744 70.767 70.809 70.809 70.814 70.897 70.952 70.987 71.057 71.182 71.284 71.364 71.439 71.499 71.579 71.779 72.004 72.022 71.462 70.932 70.802 70.929 71.492 71.874 72.387 72.824 72.789 72.622 72.504 72.359 72.402 72.589 72.827 72.832 72.819 73.112 73.397 73.337 73.427 73.479 73.507 73.532 73.549 73.564 73.582 73.612 73.587 73.574 73.602 73.609 73.619 73.659 73.689 73.684 73.734 73.777 73.782 73.844 73.889 73.949 74.024 74.084 74.107 74.147 74.124 74.059 74.054 73.819 73.587 73.597 73.537 73.517 73.532 73.509 73.442 73.369 73.287 73.279 73.842 74.112 73.444 72.734 72.549 72.509 72.892 73.474 73.762 73.274 72.657 72.239 72.104 72.129 72.144 72.109 72.167 72.187 72.242 72.837 75.207 75.444 74.779 72.499 73.437 73.304 73.422 73.549 73.829 73.867 73.999 74.077 74.212 74.412 74.857 74.774 74.594 74.932 74.927 75.182 75.154 76.007 80.674 76.527 76.782 77.857 77.339 76.814 76.379 76.262 76.479 76.952 78.284 79.469 79.659 78.179 78.262 78.787 78.932 79.279 79.619
76.319 76.317 76.284 76.264 76.239 76.194 76.142 76.684 76.954 76.049 76.122 76.134 76.132 76.109 76.097 76.084 76.107 76.119 76.107 76.124 76.142 76.117 76.094 76.082 76.039 75.992 75.949 75.887 75.859 75.844 75.822 75.812 75.762 75.722 75.687 75.657 75.602 75.504 75.459 75.414 75.317 75.222 75.182 75.094 74.979 74.892 74.807 74.729 74.647 74.559 74.467 74.394 74.329 74.259 74.164 74.067 73.999 73.929 73.834 73.752 73.699 73.604 73.549 73.479 73.409 73.329 73.282 73.192 73.104 73.042 73.007 72.967 72.942 72.907 72.889 72.852 72.819 72.809 72.814 72.857 73.092 73.392 73.637 73.697 73.137 72.699 72.429 71.959 71.627 71.627 71.682 71.734 71.754 71.844 72.384 73.317 73.682 73.707 74.117 72.709 72.737 72.212 71.794 71.689 71.702 71.647 71.524 71.472 71.424 71.407 71.099 70.677 71.149 71.349 71.232 71.172 71.164 71.089 71.029 71.014 70.967 70.884 70.874 70.822 70.792 70.732 70.667 70.612 70.509 70.479 70.384 70.334 70.282 70.227 70.199 70.162 70.142 70.089 70.042 69.987 69.914 69.814 69.804 69.799 69.887 71.249 71.432 70.277 70.614 69.849 69.717 69.704 69.862 69.832 69.787 69.744 69.734 69.684 69.732 69.827 69.897 69.842 69.862 69.879 69.902 69.924 69.977 70.009 70.027 70.019 70.034 70.002 69.954 69.964 69.967 69.969 69.957 69.947 69.934 69.847 69.704 69.604 69.379 69.209 69.002 68.792 68.497 68.254 68.029 67.824 67.679 67.682 67.714 68.454 68.977 69.489 69.747 69.297 69.042 68.787 68.882 69.204 69.429 69.342 69.262 69.357 69.504 69.304 69.369 69.382 69.342 70.539 69.519 69.437 69.639 69.502 69.532 69.632 69.729 70.977 70.367 69.702 69.852 69.942 70.074 70.172 70.212 70.319 70.414 70.489 70.554 70.609 70.662 70.724 70.759 70.789 70.817 70.827 70.869 70.857 70.887 70.877 70.859 70.897 70.889 70.914 70.909 70.944 70.974 71.027 71.064 71.117 71.134 71.152 71.174 71.182 71.199 71.209 71.274 71.314 71.379 71.447 71.534 71.629 71.742 71.809 71.892 71.959 72.067 72.229 72.474 72.624 72.177 71.839 71.384 71.314 71.469 71.659 72.122 72.582 73.034 72.984 73.274 73.429 74.302 74.099 74.314 74.184 74.322 74.024 73.807 73.829 73.882 73.902 73.914 73.917 73.952 73.957 73.972 73.982 73.962 73.994 73.997 73.994 74.037 74.077 74.079 74.107 74.174 74.184 74.249 74.289 74.359 74.442 74.484 74.487 74.477 74.399 74.364 74.139 73.879 73.827 73.809 73.762 73.719 73.682 73.609 73.484 73.372 73.634 73.979 73.267 72.752 72.644 72.869 73.659 74.059 73.844 73.042 72.624 72.449 72.347 72.269 72.254 72.224 72.207 72.209 72.212 72.259 72.754 74.777 75.267 73.892 72.694 73.742 73.477 73.549 73.602 73.707 73.982 73.959 74.214 74.924 74.669 74.837 74.874 74.959 74.767 74.984 75.114 77.602 79.462 76.002 76.794 78.702 78.552 78.322 78.389 78.087 77.649 76.852 76.574 76.702 77.034 77.557 78.507 79.394 79.959 78.922 79.844 79.472
76.699 76.667 76.629 76.602 76.577 76.522 76.479 77.179 77.327 76.374 76.477 76.462 76.409 76.432 76.424 76.424 76.462 76.474 76.482 76.494 76.502 76.472 76.469 76.417 76.364 76.322 76.282 76.249 76.217 76.214 76.169 76.147 76.107 76.069 76.039 75.997 75.934 75.859 75.817 75.767 75.699 75.599 75.517 75.444 75.347 75.267 75.172 75.084 75.009 74.944 74.849 74.784 74.739 74.652 74.574 74.472 74.422 74.342 74.257 74.184 74.097 74.042 73.972 73.882 73.827 73.734 73.664 73.602 73.514 73.437 73.364 73.307 73.267 73.247 73.227 73.167 73.129 73.094 73.044 73.024 73.057 73.097 73.137 73.479 73.937 73.934 73.729 72.814 72.097 71.904 71.787 71.802 71.822 71.869 71.877 71.907 72.212 72.632 73.164 74.224 73.644 73.667 74.239 73.922 73.024 72.154 71.894 71.824 71.789 71.759 71.417 71.014 71.499 71.754 71.622 71.549 71.527 71.497 71.424 71.397 71.299 71.192 71.197 71.189 71.154 71.057 71.022 70.979 70.912 70.899 70.819 70.764 70.697 70.652 70.627 70.612 70.537 70.472 70.447 70.404 70.369 70.262 70.254 70.282 70.447 72.497 71.839 70.824 70.317 70.282 70.792 70.457 70.244 70.512 70.447 70.212 70.214 70.209 70.182 70.272 70.349 70.244 70.247 70.279 70.277 70.434 70.399 70.404 70.419 70.387 70.419 70.482 70.407 70.382 70.414 70.339 70.392 70.367 70.327 70.192 70.094 69.964 69.809 69.612 69.387 69.157 68.869 68.622 68.349 68.127 67.972 67.864 68.414 68.077 68.792 69.144 69.219 69.049 69.137 69.172 69.367 69.642 69.642 69.719 69.689 69.752 69.779 69.819 69.879 69.939 69.894 69.837 70.892 69.942 69.949 70.029 70.099 70.169 70.299 72.237 71.347 70.184 70.312 70.419 70.542 70.649 70.702 70.772 70.869 70.932 70.992 71.059 71.134 71.174 71.194 71.232 71.257 71.279 71.269 71.294 71.304 71.324 71.337 71.319 71.327 71.349 71.379 71.394 71.414 71.444 71.487 71.492 71.512 71.539 71.567 71.569 71.572 71.587 71.627 71.677 71.702 71.794 71.849 71.937 72.029 72.119 72.217 72.307 72.392 72.449 72.557 72.734 72.894 73.062 73.154 72.774 72.582 72.327 72.252 72.147 72.174 72.392 72.574 72.827 73.177 73.674 73.444 73.992 74.364 75.474 74.979 74.084 74.199 74.249 74.272 74.269 74.287 74.304 74.342 74.307 74.304 74.332 74.362 74.364 74.399 74.444 74.449 74.487 74.532 74.544 74.569 74.597 74.652 74.712 74.777 74.762 74.704 74.602 74.634 74.557 74.292 74.129 74.094 74.009 73.914 73.857 73.874 74.274 73.767 73.242 73.024 72.927 72.909 73.559 74.147 74.092 73.562 73.042 72.887 72.739 72.637 72.492 72.399 72.462 72.354 72.362 72.319 72.267 72.284 72.387 72.754 73.047 74.482 72.807 72.739 73.124 73.549 73.639 73.669 73.904 74.177 74.062 74.439 74.547 74.837 74.729 74.792 74.984 74.924 75.114 75.962 77.867 76.012 76.627 76.792 77.669 78.302 78.159 77.957 77.724 77.012 76.777 76.832 76.957 77.122 77.357 77.594 78.609 78.629 78.932 79.319
77.037 77.027 76.987 76.964 76.949 76.874 76.812 77.817 77.639 76.687 76.784 76.742 76.757 76.764 76.757 76.787 76.784 76.779 76.829 76.822 76.839 76.794 76.802 76.747 76.709 76.684 76.652 76.597 76.577 76.559 76.542 76.507 76.472 76.417 76.362 76.324 76.269 76.209 76.157 76.104 76.027 75.962 75.867 75.764 75.687 75.609 75.507 75.444 75.377 75.319 75.257 75.192 75.112 75.042 74.932 74.879 74.812 74.729 74.654 74.612 74.529 74.482 74.397 74.327 74.269 74.159 74.082 73.992 73.907 73.824 73.787 73.709 73.644 73.619 73.572 73.512 73.469 73.424 73.384 73.332 73.282 73.287 73.299 73.347 73.377 73.324 73.419 72.687 72.469 73.369 73.499 73.064 72.677 72.374 72.144 72.024 72.009 72.009 72.084 72.299 72.674 73.267 73.807 74.232 75.354 74.954 73.639 73.112 72.162 72.059 71.787 71.517 71.839 72.084 71.992 71.914 71.857 71.804 71.774 71.697 71.612 71.509 71.542 71.519 71.429 71.387 71.344 71.302 71.249 71.239 71.189 71.134 71.092 71.082 71.107 71.017 71.002 70.932 70.879 70.832 70.772 70.722 70.709 70.702 70.722 71.769 73.199 71.559 70.619 70.752 70.787 72.239 70.799 70.927 70.849 70.679 70.629 70.627 70.654 70.642 70.757 70.642 70.657 70.627 70.649 70.694 70.744 70.759 70.772 70.769 70.927 70.864 70.814 70.787 70.802 70.737 70.747 70.772 70.737 70.634 70.544 70.427 70.242 70.047 69.837 69.552 69.289 68.997 68.704 68.452 68.237 68.074 68.132 68.322 68.754 68.829 68.977 69.144 69.389 69.654 69.864 70.199 70.494 70.274 70.304 70.357 70.402 70.429 70.462 70.642 70.489 70.444 70.459 70.559 70.579 70.619 70.639 70.759 70.939 72.732 72.199 70.757 70.782 70.902 70.992 71.099 71.192 71.259 71.347 71.394 71.449 71.519 71.589 71.597 71.662 71.679 71.709 71.739 71.729 71.752 71.764 71.752 71.744 71.759 71.779 71.804 71.819 71.837 71.867 71.899 71.907 71.957 71.937 71.959 71.949 71.969 71.959 71.972 72.019 72.037 72.052 72.089 72.189 72.269 72.324 72.417 72.532 72.624 72.712 72.782 72.887 72.977 73.062 73.159 73.302 73.429 73.549 73.659 73.722 73.574 73.524 73.669 73.839 73.907 73.922 74.004 73.847 73.549 73.764 74.542 75.612 74.514 74.512 74.574 74.599 74.597 74.617 74.644 74.644 74.659 74.652 74.664 74.669 74.672 74.727 74.774 74.779 74.802 74.832 74.862 74.837 74.884 74.907 74.942 75.004 75.024 74.982 74.984 74.967 74.932 74.749 74.524 74.409 74.274 74.129 74.077 74.592 74.429 73.549 73.154 73.047 73.299 74.307 74.429 73.992 73.442 73.239 73.132 72.969 72.802 72.684 72.559 72.519 72.462 72.379 72.364 72.304 72.369 72.329 72.452 72.739 73.982 72.914 73.087 72.792 73.127 73.567 73.819 73.742 74.067 74.449 74.357 74.229 74.502 75.974 74.719 75.032 75.039 75.099 75.679 75.784 75.529 76.002 76.424 76.824 78.379 78.024 78.057 77.382 77.029 77.219 77.537 77.664 77.909 78.362 78.277 78.049 77.839 77.837 78.034 78.332
77.384 77.362 77.342 77.309 77.259 77.197 77.152 78.104 77.794 77.024 77.057 77.074 77.107 77.099 77.082 77.079 77.114 77.097 77.137 77.137 77.172 77.167 77.127 77.082 77.069 77.024 76.982 76.967 76.922 76.902 76.867 76.847 76.817 76.759 76.707 76.667 76.612 76.557 76.479 76.427 76.357 76.299 76.182 76.134 76.044 75.954 75.879 75.829 75.777 75.689 75.612 75.564 75.494 75.409 75.334 75.259 75.184 75.122 75.072 75.004 74.952 74.902 74.809 74.757 74.687 74.604 74.492 74.437 74.324 74.282 74.207 74.127 74.044 74.012 73.944 73.859 73.802 73.757 73.724 73.687 73.652 73.569 73.532 73.519 73.499 73.392 73.094 73.017 73.599 74.192 74.619 73.979 73.847 73.879 73.302 72.892 72.477 72.292 72.174 72.124 72.169 72.214 72.477 72.899 73.807 74.634 74.362 74.104 75.269 74.109 72.044 72.822 72.227 72.344 72.302 72.247 72.224 72.197 72.122 72.017 71.864 71.792 71.802 71.809 71.772 71.714 71.674 71.622 71.592 71.597 71.557 71.497 71.472 71.457 71.477 71.409 71.424 71.389 71.342 71.299 71.244 71.172 71.162 71.134 71.172 72.684 73.644 72.222 71.082 71.984 72.449 71.552 71.372 71.364 71.209 71.239 71.079 71.099 71.047 71.062 71.187 71.052 71.059 71.044 71.042 71.132 71.142 71.184 71.509 71.112 71.179 71.177 71.174 71.159 71.157 71.157 71.182 71.154 71.097 71.042 70.964 70.859 70.699 70.497 70.244 69.959 69.689 69.377 69.032 68.742 68.487 68.332 68.309 68.464 68.684 68.912 69.239 69.517 69.822 70.129 70.357 70.804 70.897 70.814 70.874 70.972 71.014 71.017 71.077 71.074 71.034 71.042 71.044 71.074 71.109 71.144 71.197 71.274 71.874 72.729 73.034 71.312 71.259 71.382 71.469 71.589 71.644 71.737 71.832 71.864 71.939 71.974 72.024 72.079 72.082 72.134 72.159 72.197 72.212 72.222 72.229 72.224 72.247 72.262 72.267 72.254 72.274 72.302 72.322 72.332 72.354 72.347 72.332 72.359 72.379 72.369 72.382 72.374 72.407 72.447 72.469 72.489 72.547 72.587 72.654 72.749 72.839 72.912 73.004 73.084 73.177 73.262 73.352 73.462 73.589 73.677 73.757 73.867 73.969 74.139 74.317 74.447 74.592 74.742 74.964 75.144 75.172 74.462 73.897 74.139 75.662 75.182 74.794 74.897 74.912 74.904 74.934 74.964 74.982 74.987 74.957 74.977 75.007 75.019 75.049 75.092 75.099 75.104 75.142 75.159 75.157 75.157 75.182 75.192 75.209 75.227 75.217 75.242 75.262 75.297 75.199 74.944 74.742 74.564 74.384 74.812 74.842 73.789 73.402 73.269 73.224 73.834 74.627 73.897 73.517 73.429 73.334 73.209 73.062 72.962 72.852 72.739 72.672 72.567 72.489 72.427 72.397 72.404 72.372 72.522 72.452 72.939 73.309 73.392 73.117 73.697 73.439 73.809 73.862 73.954 73.907 74.939 74.402 74.487 74.844 74.822 74.967 76.412 75.094 76.477 75.464 75.624 75.852 76.567 76.579 78.399 77.419 77.462 77.072 77.262 78.229 78.264 78.644 78.639 78.907 79.164 79.279 79.282 79.019 79.114 78.734
77.759 77.727 77.684 77.657 77.589 77.559 77.529 78.622 78.197 77.354 77.382 77.399 77.427 77.439 77.417 77.437 77.437 77.462 77.454 77.464 77.492 77.474 77.452 77.419 77.367 77.342 77.287 77.274 77.257 77.247 77.204 77.174 77.142 77.104 77.047 77.017 76.957 76.879 76.819 76.744 76.672 76.607 76.554 76.477 76.404 76.307 76.232 76.169 76.112 76.044 76.017 75.909 75.879 75.797 75.719 75.644 75.582 75.532 75.444 75.389 75.369 75.282 75.252 75.179 75.119 75.027 74.922 74.864 74.754 74.699 74.589 74.522 74.472 74.404 74.347 74.267 74.199 74.139 74.099 74.057 74.014 73.959 73.907 73.824 73.802 73.729 73.694 73.839 73.899 74.414 74.962 73.759 73.647 73.982 74.279 74.297 74.122 73.574 73.062 72.669 72.462 72.304 72.287 72.277 72.317 72.632 73.007 73.524 73.832 74.529 74.549 74.432 74.367 74.234 72.969 72.569 72.557 72.569 72.522 72.332 72.127 72.089 72.089 72.082 72.079 72.027 72.022 71.954 71.942 71.932 71.902 71.877 71.867 71.817 71.822 71.782 71.842 71.759 71.754 71.714 71.687 71.624 71.604 71.574 71.614 72.312 73.469 73.574 71.299 74.222 74.599 72.312 71.217 71.569 72.177 72.799 73.224 72.612 71.884 71.472 71.484 71.507 71.512 71.474 71.524 71.527 71.509 71.612 73.534 71.567 71.552 71.592 71.557 71.552 71.559 71.519 71.564 71.514 71.472 71.424 71.332 71.237 71.117 70.929 70.652 70.369 70.087 69.724 69.392 69.009 68.727 68.582 68.514 68.652 68.892 69.179 69.547 69.822 70.204 70.559 70.837 71.099 71.272 71.364 71.464 71.569 71.524 71.589 71.622 71.634 71.909 71.857 71.622 71.837 71.747 71.742 71.762 71.932 72.137 73.117 73.659 71.967 71.779 71.857 71.944 72.067 72.137 72.202 72.284 72.329 72.397 72.427 72.464 72.554 72.574 72.594 72.634 72.647 72.692 72.694 72.702 72.717 72.724 72.722 72.747 72.727 72.749 72.747 72.752 72.752 72.769 72.762 72.759 72.774 72.772 72.787 72.789 72.814 72.837 72.849 72.887 72.922 72.934 72.964 72.994 73.084 73.147 73.222 73.307 73.374 73.459 73.544 73.642 73.757 73.842 73.934 74.054 74.149 74.267 74.377 74.524 74.597 74.694 74.812 74.932 75.102 75.179 75.357 74.687 74.174 75.017 75.739 75.084 75.202 75.234 75.219 75.244 75.279 75.259 75.302 75.287 75.287 75.314 75.349 75.354 75.389 75.377 75.389 75.437 75.459 75.429 75.417 75.414 75.394 75.399 75.439 75.454 75.467 75.514 75.549 75.572 75.314 75.024 74.849 75.032 75.379 74.167 73.699 73.574 73.952 73.807 73.797 73.867 73.739 73.644 73.524 73.404 73.307 73.229 73.157 73.079 73.027 72.877 72.822 72.687 72.614 72.542 72.487 72.472 72.519 72.554 72.674 73.752 73.334 72.999 73.542 73.654 73.654 73.749 73.844 74.184 74.312 74.512 74.432 74.682 74.944 75.712 75.282 75.299 75.649 76.157 76.159 76.529 77.232 76.754 77.359 76.907 76.887 77.107 77.402 77.684 77.687 77.832 77.942 78.154 78.404 78.827 78.902 79.594 79.869 80.312
78.112 78.077 78.039 77.994 77.957 77.889 77.862 79.192 78.122 77.664 77.732 77.724 77.744 77.747 77.754 77.754 77.767 77.789 77.797 77.812 77.837 77.772 77.757 77.732 77.714 77.657 77.652 77.607 77.572 77.584 77.527 77.502 77.462 77.409 77.374 77.329 77.269 77.204 77.162 77.067 76.992 76.929 76.867 76.794 76.734 76.659 76.594 76.549 76.472 76.424 76.369 76.282 76.222 76.162 76.087 76.014 75.957 75.904 75.844 75.799 75.762 75.717 75.662 75.597 75.507 75.419 75.357 75.267 75.202 75.107 75.024 74.967 74.864 74.782 74.724 74.649 74.584 74.562 74.494 74.459 74.369 74.334 74.272 74.207 74.172 74.132 74.162 74.189 74.252 74.679 75.437 74.024 73.897 73.894 73.969 73.979 74.077 74.232 74.327 74.172 73.797 73.474 72.987 72.699 72.479 72.417 72.439 72.524 72.719 73.097 73.662 74.232 75.602 75.264 74.314 73.597 73.307 73.102 72.814 72.584 72.469 72.367 72.382 72.389 72.359 72.299 72.304 72.252 72.252 72.264 72.269 72.227 72.214 72.179 72.164 72.174 72.202 72.174 72.169 72.109 72.054 72.014 71.999 72.004 72.022 72.607 73.994 73.372 71.462 73.824 74.694 72.694 71.577 71.209 71.432 71.609 71.789 71.952 72.322 71.972 71.917 71.969 71.899 72.017 71.987 71.859 71.832 71.922 72.072 71.872 71.919 71.982 71.987 71.867 71.867 71.842 71.894 71.899 71.862 71.824 71.729 71.564 71.404 71.232 71.022 70.699 70.387 69.997 69.587 69.232 68.982 68.769 68.762 68.899 69.152 69.477 69.809 70.217 70.564 70.967 71.354 71.622 71.872 71.929 72.039 72.114 72.157 72.169 72.272 72.254 72.317 72.219 72.332 72.462 72.329 72.344 72.394 72.467 72.919 74.274 74.544 72.659 72.249 72.362 72.447 72.557 72.632 72.694 72.747 72.804 72.854 72.907 72.942 72.992 73.029 73.069 73.087 73.137 73.149 73.167 73.187 73.197 73.209 73.202 73.207 73.227 73.217 73.202 73.209 73.199 73.197 73.174 73.192 73.179 73.184 73.207 73.209 73.229 73.252 73.264 73.304 73.349 73.352 73.404 73.417 73.449 73.477 73.549 73.639 73.689 73.744 73.847 73.929 73.999 74.114 74.227 74.337 74.437 74.534 74.684 74.804 74.929 75.047 75.139 75.162 75.227 75.314 75.434 75.552 74.477 74.632 76.277 75.422 75.494 75.552 75.579 75.589 75.592 75.602 75.587 75.607 75.644 75.637 75.654 75.662 75.667 75.669 75.722 75.697 75.729 75.714 75.649 75.619 75.604 75.594 75.634 75.694 75.707 75.702 75.764 75.774 75.572 75.349 75.179 75.847 74.949 74.024 73.827 74.454 75.462 74.707 74.009 73.919 73.864 73.719 73.597 73.509 73.449 73.414 73.309 73.262 73.234 73.147 73.069 72.952 72.819 72.729 72.637 72.577 72.547 72.639 72.674 72.832 73.044 73.099 72.972 73.684 74.267 73.672 73.979 74.202 74.329 74.439 74.609 74.879 75.009 75.072 75.529 75.417 75.549 75.442 75.742 76.472 76.604 76.659 77.272 76.927 76.892 77.077 77.344 77.529 77.672 77.819 77.997 78.169 78.344 78.534 78.772 79.094 79.287 79.742
