ncols 373
nrows 32
xllcorner    251102
yllcorner    138882
cellsize     2
NODATA_value -9999
119.798 119.693 119.651 119.568 119.463 119.388 119.288 119.248 119.168 119.143 119.113 119.073 119.033 118.991 118.943 118.878 118.831 118.803 118.748 118.746 118.716 118.713 118.718 118.718 118.721 118.706 118.716 118.713 118.738 118.756 118.793 118.788 118.803 118.831 118.838 118.878 118.911 118.946 118.943 118.936 118.966 118.943 119.011 119.098 119.116 119.121 119.158 119.196 119.241 119.291 119.316 119.348 119.396 119.428 119.468 119.493 119.546 119.591 119.623 119.676 119.671 119.678 119.641 119.651 119.573 119.551 119.533 119.376 119.671 121.071 123.538 120.723 120.541 120.513 120.476 120.471 120.468 120.513 120.603 120.671 120.746 120.876 121.021 121.211 121.413 121.563 121.688 121.763 121.863 121.943 122.033 122.136 122.241 122.356 122.461 122.571 122.711 122.843 122.986 123.068 123.121 123.166 123.213 123.231 123.311 124.226 126.228 126.113 125.091 124.666 124.591 124.526 124.576 124.628 124.531 124.461 124.333 124.263 124.188 124.096 124.353 126.901 126.733 127.943 128.341 128.568 128.791 129.026 129.263 129.533 129.736 129.771 126.971 124.813 124.731 124.668 124.618 124.553 124.461 124.368 124.406 124.711 124.533 124.356 124.546 125.338 125.258 125.223 125.301 125.366 125.993 127.391 125.478 124.351 124.321 124.738 126.588 127.161 126.241 126.598 126.566 126.451 126.566 126.663 126.758 126.838 126.871 126.966 127.188 127.268 127.398 127.586 129.948 131.956 131.898 131.841 131.783 131.721 131.636 131.596 131.518 130.703 127.588 127.688 127.716 127.736 127.828 127.941 128.053 128.181 128.436 128.586 128.741 129.028 129.181 129.263 129.336 129.421 129.473 129.638 129.728 129.828 129.953 130.063 130.168 130.281 130.381 130.473 130.546 130.646 130.778 130.858 130.996 131.101 131.211 131.283 131.366 131.401 131.478 131.608 131.766 131.893 132.041 132.131 132.241 132.296 132.371 132.438 132.576 132.691 132.846 132.948 133.066 133.156 133.221 133.286 133.356 133.423 133.476 134.418 134.286 133.946 134.051 134.093 134.158 134.263 134.308 134.428 134.521 134.593 134.708 134.791 134.893 134.981 135.068 135.128 135.218 135.301 135.413 135.486 135.588 135.668 135.773 135.898 136.006 136.121 136.213 136.323 136.413 136.518 136.621 136.708 136.808 136.896 137.008 137.083 137.131 137.238 137.316 137.428 137.516 137.591 137.698 137.781 137.913 138.016 138.116 138.181 138.273 138.366 138.438 138.541 138.638 138.743 138.856 138.971 139.093 139.176 139.286 139.371 139.478 139.603 139.731 139.888 139.968 140.066 140.153 140.238 140.303 140.408 140.478 140.588 140.663 140.776 140.893 141.026 141.136 141.238 141.351 141.478 141.568 141.666 141.766 141.868 141.958 142.066 142.173 142.301 142.398 142.508 142.608 142.711 142.808 142.906 142.986 143.063 143.153 143.221 143.293 143.391 143.466 143.538 143.623 143.713 143.773 143.886 143.978 144.053 144.111 144.111 144.161 144.233 144.313 144.383 144.458 145.501 145.183 144.806 144.893 144.958 145.016 145.116 145.201 145.301 145.363 145.426 145.491 145.558 145.631 145.701 145.761 145.793 145.856
119.661 119.558 119.473 119.366 119.258 119.168 119.093 118.998 118.943 118.888 118.881 118.808 118.776 118.738 118.691 118.668 118.606 118.571 118.513 118.506 118.493 118.483 118.466 118.461 118.468 118.478 118.476 118.481 118.488 118.523 118.541 118.553 118.566 118.586 118.603 118.636 118.671 118.688 118.708 118.718 118.718 118.721 118.713 118.803 118.863 118.878 118.891 118.921 118.966 119.036 119.078 119.128 119.181 119.258 119.278 119.306 119.331 119.388 119.441 119.496 119.538 119.536 119.521 119.491 119.446 119.386 119.361 119.228 119.418 119.928 122.668 120.863 120.341 120.321 120.383 120.283 120.226 120.213 120.266 120.313 120.388 120.491 120.656 120.863 121.048 121.248 121.401 121.498 121.596 121.671 121.756 121.863 121.956 122.058 122.153 122.278 122.396 122.536 122.668 122.763 122.836 122.858 122.916 122.968 123.053 123.226 124.661 126.428 125.521 124.501 124.608 124.456 124.463 124.598 124.458 124.428 124.231 124.143 124.081 123.968 123.933 125.828 127.693 127.931 128.163 128.413 128.656 128.863 129.141 128.538 126.753 124.651 124.696 124.711 124.703 124.588 124.681 125.233 124.466 124.148 124.148 124.073 124.111 124.111 124.098 124.898 125.106 125.043 125.066 125.091 125.286 126.466 126.466 124.183 124.196 124.488 126.338 127.301 126.331 126.241 126.316 126.431 126.566 126.636 126.686 126.736 126.821 126.903 127.066 127.221 127.381 127.563 129.301 131.543 131.513 131.453 131.388 131.348 131.268 131.228 131.118 129.476 127.528 127.631 127.736 127.808 127.896 128.106 128.468 128.701 128.788 128.911 129.033 129.056 129.148 129.251 129.351 129.443 129.568 129.686 129.753 129.851 129.966 130.071 130.178 130.286 130.378 130.468 130.591 130.663 130.783 130.876 130.971 131.078 131.203 131.291 131.363 131.421 131.491 131.601 131.756 131.906 132.023 132.148 132.221 132.273 132.333 132.441 132.543 132.676 132.793 132.931 133.038 133.108 133.178 133.246 133.293 133.373 133.383 133.993 134.678 133.983 134.028 134.086 134.151 134.238 134.303 134.418 134.543 134.613 134.713 134.808 134.876 134.966 135.036 135.136 135.201 135.306 135.403 135.483 135.586 135.671 135.788 135.903 136.031 136.143 136.223 136.323 136.436 136.536 136.641 136.738 136.831 136.906 137.033 137.096 137.163 137.248 137.338 137.443 137.531 137.616 137.726 137.803 137.931 138.023 138.131 138.208 138.291 138.373 138.478 138.563 138.686 138.766 138.901 138.998 139.106 139.218 139.311 139.393 139.513 139.636 139.771 139.916 140.016 140.096 140.198 140.268 140.338 140.426 140.533 140.611 140.706 140.803 140.918 141.046 141.161 141.276 141.391 141.511 141.611 141.716 141.811 141.903 142.013 142.108 142.201 142.308 142.451 142.538 142.621 142.728 142.833 142.933 143.026 143.071 143.176 143.241 143.311 143.388 143.463 143.553 143.653 143.721 143.796 143.903 143.978 144.066 144.106 144.158 144.178 144.248 144.326 144.408 144.431 144.981 145.633 144.833 144.898 144.973 145.021 145.106 145.171 145.266 145.346 145.408 145.488 145.546 145.613 145.683 145.728 145.786 145.826
119.581 119.461 119.293 119.141 119.048 118.956 118.856 118.771 118.691 118.658 118.586 118.543 118.501 118.486 118.448 118.441 118.376 118.331 118.301 118.258 118.231 118.241 118.221 118.226 118.236 118.241 118.223 118.258 118.256 118.278 118.303 118.336 118.361 118.358 118.386 118.401 118.393 118.418 118.456 118.471 118.473 118.496 118.521 118.511 118.616 118.708 118.711 118.731 118.776 118.826 118.891 118.921 118.991 119.031 119.058 119.108 119.171 119.206 119.258 119.311 119.378 119.406 119.373 119.358 119.343 119.308 119.291 119.236 119.123 119.123 119.031 119.786 120.258 120.118 120.313 120.131 120.026 120.033 119.988 119.998 120.073 120.206 120.348 120.551 120.736 120.948 121.116 121.221 121.321 121.426 121.511 121.606 121.691 121.771 121.876 121.986 122.083 122.253 122.381 122.476 122.531 122.608 122.678 122.736 122.811 122.988 124.028 125.556 126.158 125.101 124.393 124.411 124.361 124.441 124.443 124.298 124.128 123.993 123.953 123.816 123.758 123.983 127.288 127.753 127.996 128.266 128.523 126.911 125.883 124.461 124.508 124.723 124.841 124.998 124.373 124.303 126.663 126.848 124.821 124.008 123.871 123.871 123.943 124.321 123.941 124.313 125.023 124.901 124.888 125.001 125.016 125.381 126.368 124.203 124.063 124.156 125.118 127.173 126.688 126.233 126.296 126.381 126.511 126.673 126.703 126.673 126.733 126.861 127.036 127.186 127.316 127.463 128.456 131.176 130.721 130.568 129.893 129.006 128.518 127.966 127.846 127.541 127.601 127.681 127.783 127.903 128.023 128.141 128.336 128.586 128.698 128.791 128.891 129.048 129.196 129.318 129.461 129.533 129.603 129.701 129.783 129.878 129.963 130.106 130.178 130.273 130.381 130.468 130.556 130.636 130.748 130.856 130.921 131.068 131.191 131.296 131.363 131.433 131.506 131.601 131.726 131.876 132.018 132.133 132.213 132.291 132.351 132.473 132.533 132.676 132.781 132.908 133.038 133.096 133.161 133.223 133.283 133.353 133.378 133.678 135.001 134.066 134.008 134.098 134.163 134.238 134.326 134.431 134.536 134.628 134.738 134.826 134.891 134.986 135.066 135.146 135.221 135.303 135.398 135.496 135.613 135.708 135.803 135.923 136.038 136.136 136.276 136.353 136.478 136.566 136.671 136.766 136.836 136.948 137.046 137.111 137.176 137.253 137.373 137.453 137.541 137.631 137.741 137.841 137.923 138.056 138.136 138.226 138.321 138.411 138.533 138.596 138.713 138.831 138.918 139.046 139.148 139.253 139.351 139.428 139.546 139.671 139.801 139.931 140.053 140.163 140.241 140.323 140.386 140.471 140.566 140.646 140.738 140.836 140.943 141.073 141.198 141.321 141.426 141.541 141.653 141.758 141.856 141.946 142.026 142.136 142.228 142.331 142.448 142.561 142.648 142.761 142.858 142.958 143.043 143.108 143.193 143.273 143.336 143.416 143.481 143.576 143.678 143.746 143.816 143.903 143.993 144.088 144.153 144.188 144.198 144.271 144.348 144.413 144.478 144.608 145.681 145.096 144.883 144.988 145.008 145.063 145.166 145.256 145.313 145.393 145.461 145.526 145.623 145.661 145.706 145.766 145.796
119.488 119.286 119.123 118.968 118.816 118.716 118.618 118.543 118.463 118.396 118.343 118.278 118.273 118.206 118.186 118.163 118.136 118.096 118.058 118.036 118.003 117.991 117.998 117.966 117.993 117.971 117.983 118.016 118.041 118.041 118.048 118.066 118.123 118.121 118.131 118.143 118.143 118.171 118.193 118.241 118.276 118.298 118.298 118.308 118.366 118.463 118.538 118.533 118.571 118.621 118.648 118.701 118.758 118.828 118.891 118.938 118.993 119.036 119.118 119.173 119.206 119.241 119.238 119.253 119.261 119.293 118.921 118.711 118.568 118.708 118.868 118.866 119.701 120.753 120.373 119.938 119.908 119.728 119.781 119.761 119.826 119.946 120.078 120.253 120.448 120.628 120.821 120.953 121.078 121.163 121.256 121.336 121.448 121.531 121.623 121.708 121.791 121.948 122.078 122.196 122.283 122.351 122.443 122.516 122.588 122.678 123.153 124.988 125.313 126.128 125.081 124.423 124.316 124.241 124.281 124.241 124.036 123.841 123.796 123.686 123.593 123.671 125.851 127.033 126.633 125.183 125.163 124.313 124.336 124.621 126.461 125.143 122.741 123.411 123.378 123.163 126.606 127.328 125.801 123.851 123.598 123.603 124.073 124.461 123.676 124.118 124.846 124.818 124.768 124.813 124.811 124.856 126.756 124.516 123.898 124.001 124.368 126.313 126.256 126.191 126.286 126.363 126.443 126.596 126.698 126.706 126.746 126.913 127.056 127.108 127.111 127.208 127.796 128.143 127.351 127.413 127.413 127.471 127.571 127.613 127.673 127.733 127.793 127.843 127.911 128.101 128.231 128.343 128.513 128.638 128.751 128.883 129.078 129.181 129.256 129.366 129.458 129.558 129.631 129.678 129.776 129.868 129.956 130.073 130.176 130.238 130.343 130.463 130.541 130.646 130.751 130.863 130.951 131.061 131.216 131.273 131.361 131.421 131.478 131.551 131.703 131.843 131.986 132.103 132.218 132.323 132.403 132.491 132.576 132.633 132.748 132.898 133.051 133.106 133.163 133.221 133.306 133.356 133.396 133.513 135.003 134.466 133.996 134.103 134.188 134.266 134.356 134.461 134.546 134.643 134.746 134.833 134.931 134.996 135.066 135.158 135.253 135.336 135.431 135.536 135.626 135.753 135.831 135.968 136.066 136.166 136.291 136.383 136.493 136.571 136.676 136.776 136.891 136.968 137.043 137.131 137.196 137.308 137.398 137.478 137.556 137.646 137.768 137.863 137.951 138.058 138.158 138.258 138.363 138.463 138.556 138.626 138.738 138.838 138.966 139.078 139.191 139.291 139.381 139.483 139.606 139.726 139.831 139.966 140.093 140.188 140.306 140.371 140.446 140.533 140.631 140.703 140.776 140.898 140.996 141.111 141.216 141.363 141.451 141.581 141.691 141.788 141.888 141.983 142.063 142.158 142.263 142.361 142.463 142.583 142.686 142.788 142.883 142.991 143.056 143.126 143.216 143.271 143.353 143.431 143.511 143.586 143.671 143.763 143.831 143.906 144.006 144.103 144.183 144.206 144.251 144.301 144.358 144.438 144.508 144.523 145.311 145.506 144.868 144.991 145.031 145.086 145.156 145.221 145.316 145.396 145.446 145.506 145.601 145.626 145.681 145.741 145.786
119.238 119.076 118.921 118.776 118.611 118.478 118.376 118.306 118.206 118.161 118.071 118.011 117.983 117.933 117.923 117.891 117.858 117.833 117.811 117.791 117.773 117.741 117.738 117.753 117.723 117.726 117.748 117.758 117.798 117.796 117.813 117.818 117.806 117.846 117.866 117.913 117.928 117.981 117.993 118.036 118.076 118.101 118.111 118.136 118.138 118.201 118.318 118.338 118.353 118.396 118.453 118.513 118.598 118.658 118.723 118.788 118.853 118.911 118.958 118.993 119.038 119.061 119.173 119.176 118.968 118.398 118.213 118.513 118.748 119.071 119.073 118.888 118.816 119.531 120.508 119.981 119.778 119.633 119.591 119.693 119.716 119.718 119.823 119.993 120.183 120.388 120.561 120.713 120.828 120.933 121.031 121.096 121.196 121.296 121.368 121.448 121.561 121.658 121.793 121.933 122.041 122.166 122.261 122.318 122.398 122.498 122.573 123.693 124.296 125.881 125.446 124.231 124.143 124.108 124.138 124.086 123.991 123.828 123.661 123.578 123.466 123.513 123.953 124.416 123.821 123.983 124.178 124.488 125.483 127.828 128.428 125.836 122.541 122.753 122.538 122.573 124.641 127.251 126.833 124.353 123.348 123.266 123.406 123.461 124.061 124.541 125.048 124.691 124.656 124.711 124.631 124.746 125.581 124.646 123.768 123.908 124.006 125.061 126.553 126.088 126.216 126.311 126.396 126.526 126.631 126.708 126.791 126.916 127.033 127.021 126.933 126.941 127.076 127.158 127.196 127.308 127.393 127.528 127.628 127.683 127.766 127.831 127.891 127.993 128.018 128.131 128.323 128.463 128.631 128.743 128.866 128.991 129.123 129.208 129.266 129.378 129.478 129.558 129.633 129.718 129.786 129.868 129.963 130.071 130.173 130.243 130.361 130.463 130.548 130.631 130.728 130.861 130.956 131.043 131.173 131.273 131.361 131.403 131.473 131.546 131.701 131.848 131.968 132.101 132.206 132.303 132.421 132.483 132.573 132.638 132.761 132.918 133.038 133.123 133.191 133.273 133.308 133.406 133.441 133.458 134.486 134.756 134.001 134.098 134.196 134.311 134.396 134.498 134.573 134.681 134.773 134.866 134.936 135.018 135.126 135.193 135.283 135.356 135.478 135.563 135.661 135.768 135.856 135.963 136.086 136.188 136.301 136.408 136.516 136.603 136.703 136.816 136.896 136.986 137.086 137.178 137.233 137.343 137.428 137.516 137.588 137.698 137.806 137.903 137.998 138.073 138.188 138.308 138.401 138.516 138.591 138.688 138.796 138.881 138.998 139.101 139.238 139.343 139.438 139.528 139.671 139.771 139.888 140.008 140.141 140.243 140.338 140.443 140.521 140.593 140.691 140.748 140.851 140.933 141.048 141.148 141.246 141.401 141.506 141.613 141.723 141.841 141.928 142.006 142.116 142.198 142.298 142.403 142.511 142.611 142.716 142.803 142.913 143.008 143.093 143.153 143.218 143.296 143.371 143.476 143.531 143.603 143.671 143.791 143.856 143.926 144.021 144.103 144.171 144.246 144.286 144.321 144.361 144.443 144.528 144.551 144.848 145.843 144.973 144.958 145.026 145.093 145.153 145.218 145.311 145.383 145.436 145.508 145.588 145.633 145.673 145.723 145.748
118.961 118.788 118.676 118.586 118.456 118.298 118.133 118.068 117.963 117.856 117.803 117.716 117.683 117.661 117.638 117.598 117.588 117.583 117.566 117.553 117.518 117.511 117.488 117.466 117.466 117.473 117.486 117.496 117.513 117.538 117.581 117.581 117.596 117.611 117.656 117.656 117.713 117.743 117.758 117.783 117.851 117.876 117.903 117.938 117.953 117.953 118.046 118.113 118.128 118.183 118.286 118.378 118.463 118.533 118.596 118.651 118.701 118.741 118.808 118.883 119.003 118.988 118.283 118.098 118.078 118.468 119.238 119.678 119.528 119.476 119.326 119.701 119.106 118.661 118.786 119.983 119.781 119.696 119.526 119.456 119.626 119.586 119.576 119.768 119.941 120.126 120.321 120.476 120.603 120.698 120.831 120.901 120.978 121.071 121.138 121.223 121.303 121.391 121.521 121.666 121.801 121.936 122.031 122.111 122.196 122.293 122.363 122.728 122.803 124.003 125.811 124.896 123.951 124.038 124.048 123.991 123.903 123.786 123.648 123.431 123.318 123.328 123.378 123.496 123.646 123.953 124.723 125.708 126.158 127.273 128.356 128.068 124.528 122.861 122.866 122.436 123.263 126.676 126.978 123.961 123.036 123.066 123.078 123.158 123.256 123.173 123.933 124.743 124.621 124.556 124.528 124.483 125.013 123.991 123.643 123.796 124.281 124.811 126.686 126.171 126.083 126.221 126.321 126.398 126.513 126.626 126.736 126.836 126.893 126.908 126.901 126.936 127.011 127.078 127.188 127.258 127.353 127.488 127.601 127.691 127.801 127.886 127.963 128.023 128.026 128.148 128.303 128.433 128.618 128.773 128.891 129.003 129.121 129.213 129.323 129.388 129.481 129.588 129.641 129.736 129.803 129.886 129.968 130.078 130.181 130.263 130.356 130.466 130.558 130.623 130.706 130.856 130.933 131.051 131.181 131.306 131.371 131.436 131.488 131.558 131.716 131.843 131.968 132.126 132.233 132.323 132.433 132.513 132.568 132.663 132.773 132.896 133.036 133.186 133.228 133.303 133.373 133.458 133.526 133.548 133.998 135.303 134.018 134.108 134.233 134.328 134.421 134.543 134.626 134.728 134.813 134.906 134.983 135.076 135.171 135.231 135.308 135.396 135.496 135.578 135.703 135.783 135.893 135.981 136.113 136.198 136.323 136.441 136.536 136.638 136.733 136.831 136.926 137.033 137.118 137.196 137.301 137.386 137.468 137.568 137.641 137.766 137.846 137.943 138.031 138.126 138.251 138.346 138.448 138.553 138.653 138.753 138.838 138.933 139.056 139.173 139.266 139.398 139.486 139.581 139.718 139.828 139.936 140.063 140.166 140.293 140.408 140.486 140.563 140.653 140.731 140.821 140.911 140.998 141.108 141.193 141.316 141.441 141.566 141.691 141.763 141.873 141.983 142.056 142.163 142.226 142.333 142.441 142.543 142.638 142.736 142.846 142.941 143.031 143.116 143.171 143.246 143.336 143.393 143.476 143.551 143.626 143.696 143.808 143.888 143.966 144.036 144.116 144.191 144.258 144.331 144.333 144.406 144.466 144.566 144.591 144.663 145.711 145.411 144.946 145.038 145.083 145.141 145.216 145.296 145.378 145.451 145.516 145.591 145.638 145.676 145.733 145.746
118.718 118.613 118.466 118.338 118.221 118.091 117.913 117.796 117.666 117.581 117.541 117.441 117.398 117.378 117.333 117.303 117.326 117.318 117.313 117.306 117.263 117.248 117.246 117.208 117.216 117.208 117.213 117.261 117.296 117.278 117.356 117.358 117.386 117.363 117.381 117.426 117.461 117.466 117.503 117.521 117.581 117.618 117.661 117.731 117.736 117.776 117.823 117.848 117.911 117.971 118.083 118.226 118.298 118.351 118.408 118.448 118.476 118.608 118.841 118.621 118.383 117.681 117.981 118.601 119.378 119.333 119.851 120.108 118.563 118.466 118.381 120.026 119.543 119.276 118.648 118.856 121.481 122.203 123.241 119.361 119.618 119.391 119.441 119.533 119.686 119.858 120.066 120.268 120.391 120.513 120.598 120.698 120.773 120.848 120.938 120.991 121.068 121.151 121.268 121.396 121.533 121.696 121.811 121.908 122.003 122.091 122.173 122.286 122.426 122.748 124.363 125.206 123.968 123.878 123.923 123.896 123.786 123.706 123.458 123.393 123.306 123.196 123.201 123.333 123.876 124.963 125.396 125.648 125.973 126.488 127.776 128.521 126.741 122.613 122.511 122.318 122.363 123.526 122.526 122.621 122.751 122.853 122.941 122.931 122.993 123.058 123.186 124.571 124.558 124.333 124.346 124.408 124.591 123.506 123.528 123.671 123.776 124.728 125.833 126.916 126.071 126.138 126.238 126.308 126.448 126.523 126.598 126.648 126.771 126.821 126.833 126.886 126.986 127.046 127.146 127.221 127.368 127.498 127.653 127.736 127.826 127.908 127.983 128.078 128.088 128.203 128.361 128.431 128.591 128.778 128.908 129.041 129.156 129.261 129.333 129.433 129.493 129.603 129.671 129.731 129.801 129.878 129.973 130.058 130.146 130.261 130.356 130.478 130.566 130.638 130.726 130.858 130.968 131.061 131.206 131.331 131.413 131.501 131.558 131.601 131.726 131.853 131.983 132.128 132.248 132.323 132.438 132.513 132.601 132.683 132.796 132.928 133.073 133.221 133.278 133.356 133.418 133.491 133.598 133.621 133.773 135.106 134.356 134.108 134.256 134.356 134.461 134.578 134.681 134.773 134.863 134.961 135.041 135.116 135.231 135.301 135.361 135.466 135.538 135.633 135.716 135.813 135.916 136.013 136.128 136.253 136.356 136.453 136.546 136.661 136.751 136.863 136.956 137.071 137.158 137.243 137.348 137.433 137.516 137.613 137.716 137.796 137.903 137.998 138.098 138.181 138.296 138.406 138.493 138.613 138.698 138.801 138.908 139.011 139.113 139.226 139.316 139.456 139.533 139.648 139.758 139.856 139.991 140.103 140.236 140.361 140.458 140.568 140.631 140.718 140.788 140.878 140.973 141.041 141.178 141.236 141.353 141.493 141.613 141.716 141.813 141.923 142.008 142.113 142.181 142.291 142.363 142.486 142.586 142.671 142.791 142.876 142.973 143.058 143.141 143.213 143.286 143.363 143.431 143.513 143.566 143.656 143.738 143.803 143.908 143.978 144.056 144.128 144.246 144.311 144.363 144.388 144.433 144.483 144.588 144.636 144.636 145.298 145.846 145.008 145.008 145.093 145.168 145.206 145.278 145.363 145.431 145.506 145.581 145.656 145.676 145.731 145.723
118.481 118.391 118.251 118.071 117.898 117.803 117.673 117.538 117.393 117.318 117.228 117.183 117.106 117.068 117.038 117.033 117.031 117.011 117.028 117.008 117.008 117.006 116.963 116.963 116.966 116.993 116.986 117.023 117.028 117.096 117.096 117.121 117.121 117.143 117.143 117.181 117.221 117.231 117.273 117.293 117.306 117.391 117.426 117.478 117.541 117.606 117.611 117.608 117.676 117.801 117.923 118.028 118.061 118.121 118.331 118.301 118.098 117.943 117.661 117.686 119.346 120.278 119.378 118.921 120.011 120.568 120.403 120.451 118.983 118.233 118.133 118.453 118.906 119.556 119.128 122.081 123.691 126.658 123.196 119.328 119.311 119.283 119.286 119.336 119.438 119.593 119.793 120.003 120.166 120.306 120.408 120.498 120.546 120.661 120.716 120.778 120.833 120.936 120.996 121.111 121.291 121.436 121.586 121.703 121.786 121.868 121.958 122.046 122.163 122.263 123.396 125.101 123.713 123.651 123.748 123.718 123.606 123.641 123.493 123.418 123.393 123.213 123.086 123.011 123.141 124.646 125.206 125.513 125.828 126.133 127.023 128.001 125.531 122.476 122.183 122.226 122.273 122.361 122.443 122.548 123.001 123.073 123.336 122.803 122.813 122.888 124.068 124.798 124.541 124.261 124.371 124.921 123.468 123.291 123.401 123.531 123.591 123.736 125.121 126.891 126.068 126.076 126.161 126.228 126.376 126.468 126.541 126.593 126.676 126.803 126.816 126.933 127.038 127.118 127.206 127.298 127.431 127.576 127.708 127.811 127.851 127.971 128.048 128.088 128.151 128.253 128.418 128.566 128.686 128.798 128.943 129.066 129.188 129.291 129.388 129.451 129.526 129.616 129.696 129.741 129.806 129.893 129.993 130.073 130.188 130.298 130.383 130.526 130.628 130.698 130.786 130.911 131.053 131.133 131.256 131.378 131.488 131.566 131.611 131.673 131.778 131.906 132.031 132.163 132.268 132.358 132.471 132.546 132.608 132.721 132.816 132.948 133.096 133.228 133.341 133.413 133.471 133.581 133.641 133.683 133.741 134.931 134.853 134.148 134.288 134.403 134.501 134.613 134.726 134.813 134.923 135.003 135.098 135.161 135.238 135.336 135.428 135.488 135.578 135.671 135.771 135.858 135.958 136.076 136.156 136.296 136.396 136.488 136.598 136.688 136.788 136.901 137.001 137.126 137.213 137.316 137.393 137.481 137.561 137.673 137.758 137.858 137.963 138.056 138.143 138.268 138.343 138.468 138.561 138.651 138.751 138.841 138.961 139.051 139.161 139.288 139.396 139.523 139.618 139.716 139.823 139.923 140.038 140.158 140.293 140.406 140.518 140.628 140.706 140.773 140.863 140.938 141.031 141.128 141.233 141.313 141.398 141.541 141.656 141.756 141.858 141.966 142.076 142.168 142.241 142.316 142.426 142.501 142.621 142.703 142.838 142.931 143.003 143.101 143.181 143.251 143.323 143.396 143.463 143.536 143.608 143.693 143.766 143.856 143.923 144.023 144.088 144.168 144.276 144.371 144.383 144.453 144.463 144.536 144.583 144.648 144.693 144.856 145.921 145.388 145.001 145.098 145.181 145.203 145.273 145.343 145.423 145.488 145.541 145.638 145.658 145.746 145.743
118.248 118.143 117.971 117.808 117.633 117.481 117.371 117.261 117.123 117.041 116.936 116.883 116.836 116.728 116.736 116.751 116.758 116.728 116.726 116.736 116.738 116.766 116.748 116.761 116.746 116.751 116.756 116.776 116.778 116.831 116.853 116.873 116.891 116.911 116.928 116.948 116.956 116.991 117.023 117.066 117.098 117.141 117.221 117.271 117.376 117.403 117.416 117.398 117.476 117.678 117.801 117.996 118.033 118.133 117.776 117.196 118.308 118.198 118.333 118.546 118.728 118.463 118.866 118.168 119.361 120.693 120.631 118.633 118.056 118.006 118.133 118.291 118.413 118.888 119.861 119.071 118.896 120.013 121.116 119.461 119.213 119.101 119.093 119.101 119.188 119.343 119.571 119.773 119.961 120.096 120.211 120.298 120.373 120.441 120.533 120.578 120.666 120.693 120.756 120.858 120.996 121.153 121.336 121.476 121.581 121.668 121.753 121.816 121.928 122.048 122.146 123.558 124.931 123.963 123.518 123.526 123.466 123.558 123.461 123.336 123.226 123.228 123.126 122.783 122.693 123.538 125.073 125.366 125.661 126.001 126.351 126.563 126.696 123.268 122.126 122.183 122.246 122.308 122.701 123.411 124.953 124.368 124.498 122.686 122.668 123.241 123.256 124.131 124.318 124.931 125.173 123.533 123.228 123.211 123.321 123.396 123.468 123.588 123.783 125.246 126.131 125.931 126.108 126.221 126.351 126.473 126.566 126.588 126.688 126.816 126.873 126.926 127.058 127.216 127.288 127.371 127.506 127.643 127.753 127.848 127.966 128.058 128.093 128.148 128.251 128.326 128.461 128.596 128.713 128.831 128.963 129.086 129.203 129.313 129.423 129.483 129.571 129.663 129.733 129.813 129.883 129.963 130.041 130.111 130.256 130.346 130.436 130.588 130.678 130.763 130.843 130.951 131.093 131.188 131.303 131.433 131.548 131.628 131.706 131.768 131.828 131.976 132.098 132.226 132.303 132.396 132.496 132.598 132.658 132.773 132.858 132.991 133.141 133.281 133.421 133.478 133.533 133.633 133.723 133.776 133.793 134.621 135.336 134.231 134.338 134.468 134.558 134.681 134.773 134.886 134.943 135.066 135.138 135.216 135.288 135.376 135.473 135.536 135.631 135.713 135.813 135.908 136.013 136.121 136.208 136.318 136.423 136.538 136.626 136.718 136.838 136.936 137.053 137.143 137.253 137.336 137.436 137.518 137.608 137.706 137.806 137.893 138.008 138.101 138.218 138.306 138.413 138.523 138.611 138.718 138.803 138.918 139.023 139.108 139.226 139.351 139.476 139.556 139.676 139.791 139.873 139.993 140.103 140.216 140.351 140.478 140.571 140.726 140.763 140.853 140.933 141.011 141.093 141.163 141.283 141.373 141.466 141.601 141.698 141.803 141.931 142.023 142.136 142.196 142.298 142.378 142.446 142.551 142.641 142.743 142.866 142.953 143.048 143.143 143.228 143.278 143.363 143.453 143.498 143.576 143.636 143.716 143.798 143.873 143.946 144.036 144.131 144.208 144.263 144.366 144.428 144.486 144.513 144.541 144.583 144.678 144.718 144.768 145.521 145.796 145.046 145.066 145.178 145.216 145.266 145.346 145.423 145.468 145.546 145.606 145.676 145.711 145.738
118.041 117.898 117.706 117.491 117.353 117.198 117.046 116.973 116.883 116.758 116.671 116.581 116.543 116.448 116.421 116.421 116.461 116.436 116.421 116.443 116.493 116.516 116.533 116.523 116.531 116.503 116.491 116.508 116.516 116.546 116.576 116.623 116.636 116.661 116.693 116.728 116.718 116.728 116.801 116.833 116.896 116.968 117.038 117.088 117.141 117.181 117.208 117.238 117.348 117.771 117.976 117.833 117.351 117.101 117.333 117.956 118.611 118.353 117.923 117.573 117.608 118.238 119.916 118.371 118.253 119.448 120.551 119.278 117.976 117.846 117.868 118.106 118.256 118.283 118.603 120.496 119.976 118.623 118.958 119.341 119.201 118.951 118.898 118.928 118.981 119.103 119.286 119.498 119.721 119.886 120.013 120.123 120.186 120.256 120.301 120.373 120.423 120.456 120.513 120.626 120.721 120.913 121.073 121.221 121.353 121.461 121.538 121.623 121.731 121.783 121.896 122.558 124.536 124.378 123.306 123.406 123.331 123.328 123.273 123.181 123.166 123.128 123.018 122.736 122.376 122.398 124.351 125.201 125.538 125.813 126.058 126.343 126.633 124.123 122.108 122.126 122.836 124.423 124.108 124.073 126.611 125.726 126.178 124.061 122.546 122.531 122.536 122.816 124.011 128.868 127.913 122.956 123.068 123.138 123.238 123.321 123.461 123.573 123.733 123.986 125.268 126.083 126.043 126.233 126.368 126.431 126.548 126.593 126.688 126.838 126.923 126.978 127.073 127.236 127.353 127.458 127.576 127.696 127.806 127.901 128.033 128.128 128.128 128.221 128.318 128.416 128.503 128.593 128.728 128.868 128.993 129.123 129.248 129.376 129.476 129.563 129.656 129.733 129.811 129.886 129.933 130.026 130.111 130.206 130.296 130.418 130.516 130.641 130.743 130.853 130.941 131.026 131.178 131.303 131.388 131.513 131.641 131.718 131.801 131.831 131.891 132.003 132.156 132.231 132.323 132.398 132.503 132.603 132.716 132.821 132.911 133.033 133.163 133.298 133.466 133.533 133.611 133.693 133.783 133.858 133.891 134.286 135.491 134.418 134.386 134.533 134.611 134.716 134.828 134.931 135.008 135.106 135.188 135.293 135.361 135.443 135.501 135.586 135.686 135.778 135.868 135.991 136.046 136.161 136.281 136.371 136.481 136.578 136.661 136.788 136.881 136.991 137.116 137.203 137.301 137.401 137.496 137.588 137.686 137.783 137.858 137.963 138.051 138.161 138.278 138.366 138.466 138.553 138.686 138.766 138.898 138.986 139.078 139.208 139.303 139.418 139.518 139.636 139.741 139.856 139.948 140.056 140.178 140.291 140.406 140.528 140.636 140.736 140.833 140.918 140.996 141.086 141.138 141.236 141.333 141.438 141.518 141.643 141.758 141.856 141.971 142.076 142.173 142.268 142.353 142.438 142.526 142.613 142.683 142.786 142.901 143.003 143.083 143.171 143.261 143.346 143.426 143.481 143.566 143.628 143.686 143.736 143.846 143.921 143.986 144.058 144.153 144.238 144.316 144.383 144.463 144.506 144.551 144.581 144.608 144.701 144.771 144.786 145.068 146.021 145.291 145.073 145.183 145.208 145.246 145.373 145.423 145.488 145.543 145.606 145.673 145.706 145.738
117.726 117.578 117.401 117.221 117.086 116.968 116.798 116.648 116.571 116.508 116.378 116.316 116.226 116.196 116.116 116.116 116.126 116.136 116.173 116.211 116.223 116.236 116.258 116.251 116.261 116.291 116.288 116.288 116.283 116.273 116.323 116.346 116.401 116.433 116.453 116.483 116.511 116.526 116.566 116.633 116.686 116.783 116.851 116.888 116.946 116.971 117.033 117.246 117.403 117.108 116.941 117.038 117.916 120.981 117.766 119.618 119.401 117.943 117.961 119.056 120.521 119.298 119.621 118.993 117.791 118.151 119.943 118.726 117.878 117.788 117.781 117.823 117.991 118.233 118.268 118.801 119.308 118.573 118.343 118.531 119.203 118.943 118.748 118.753 118.798 118.898 119.061 119.253 119.491 119.701 119.838 119.946 120.016 120.068 120.116 120.161 120.208 120.236 120.316 120.416 120.526 120.688 120.876 121.018 121.173 121.301 121.448 121.538 121.661 121.746 121.751 122.106 124.066 125.266 123.343 123.373 123.196 123.183 122.996 122.973 123.051 123.021 122.848 122.751 122.286 121.933 122.218 122.431 122.536 125.636 125.903 126.183 126.478 126.606 122.241 122.091 123.091 126.333 127.301 127.696 127.886 126.901 127.336 126.501 122.571 122.368 122.408 122.516 122.776 122.911 122.983 122.998 123.021 123.113 123.156 123.326 123.523 123.723 123.868 124.003 124.053 125.081 126.353 126.198 126.326 126.436 126.576 126.661 126.751 126.906 126.973 127.096 127.178 127.266 127.426 127.536 127.626 127.741 127.843 127.963 128.073 128.196 128.216 128.276 128.368 128.471 128.576 128.661 128.773 128.921 129.071 129.198 129.313 129.473 129.546 129.638 129.708 129.763 129.883 129.951 129.998 130.098 130.173 130.263 130.361 130.493 130.601 130.703 130.843 130.918 130.993 131.086 131.243 131.351 131.446 131.591 131.676 131.786 131.851 131.906 131.961 132.048 132.198 132.278 132.371 132.406 132.491 132.623 132.743 132.863 132.988 133.086 133.186 133.353 133.506 133.613 133.698 133.766 133.848 133.936 133.988 134.076 135.301 134.693 134.443 134.563 134.671 134.766 134.886 134.978 135.078 135.173 135.268 135.336 135.433 135.483 135.553 135.661 135.738 135.813 135.911 136.013 136.108 136.203 136.298 136.421 136.526 136.636 136.736 136.836 136.933 137.051 137.163 137.266 137.351 137.436 137.556 137.648 137.741 137.831 137.908 138.028 138.116 138.238 138.328 138.436 138.528 138.633 138.753 138.851 138.963 139.056 139.151 139.256 139.363 139.471 139.596 139.691 139.803 139.918 140.016 140.136 140.253 140.356 140.473 140.601 140.716 140.821 140.903 140.981 141.068 141.161 141.228 141.323 141.413 141.511 141.588 141.691 141.813 141.921 142.013 142.133 142.221 142.306 142.426 142.501 142.596 142.651 142.748 142.848 142.953 143.053 143.141 143.231 143.326 143.403 143.461 143.523 143.596 143.676 143.746 143.813 143.848 143.953 144.023 144.106 144.173 144.273 144.338 144.411 144.511 144.571 144.593 144.616 144.646 144.716 144.791 144.823 144.858 145.696 145.833 145.063 145.146 145.213 145.271 145.333 145.413 145.493 145.533 145.593 145.666 145.698 145.736
117.443 117.293 117.151 116.986 116.861 116.711 116.556 116.401 116.286 116.178 116.098 116.028 115.906 115.846 115.821 115.838 115.876 115.896 115.933 115.926 115.931 115.991 116.003 116.001 116.008 116.021 116.048 116.043 116.078 116.081 116.086 116.096 116.146 116.193 116.228 116.241 116.303 116.323 116.373 116.438 116.498 116.591 116.666 116.713 116.778 117.053 118.716 116.678 116.643 117.053 118.128 117.651 117.768 118.168 117.373 117.371 117.638 117.698 119.466 120.853 121.001 120.338 118.763 118.446 117.798 117.723 117.761 117.773 117.736 117.703 117.668 117.668 117.731 117.906 118.036 118.163 119.738 118.481 118.453 118.316 118.378 118.871 119.641 119.996 118.708 118.736 118.881 119.058 119.268 119.481 119.666 119.778 119.826 119.866 119.898 119.948 119.988 120.043 120.101 120.176 120.328 120.913 121.621 121.281 121.388 121.656 121.903 121.856 122.013 122.421 122.483 122.628 124.023 124.823 123.298 123.226 122.983 122.848 122.761 122.736 122.751 122.778 122.608 122.811 122.303 121.738 121.701 121.671 121.678 124.718 125.748 126.033 125.076 122.991 121.996 122.063 122.216 126.956 127.956 128.111 128.291 128.203 128.386 128.601 123.843 122.203 122.238 122.361 122.528 122.773 123.046 123.446 122.948 123.028 123.198 123.361 123.806 124.116 124.893 127.361 125.123 124.296 125.211 126.548 126.376 126.453 126.586 126.696 126.826 126.993 127.093 127.171 127.316 127.413 127.471 127.621 127.751 127.833 127.918 128.033 128.118 128.218 128.306 128.348 128.446 128.553 128.663 128.761 128.868 129.003 129.121 129.253 129.381 129.508 129.601 129.711 129.796 129.848 129.938 130.008 130.061 130.143 130.233 130.328 130.433 130.546 130.651 130.746 130.878 130.981 131.083 131.156 131.298 131.418 131.521 131.626 131.738 131.858 131.896 131.973 132.011 132.093 132.203 132.311 132.403 132.481 132.541 132.681 132.811 132.918 133.021 133.106 133.248 133.393 133.566 133.686 133.748 133.856 133.931 134.023 134.061 134.128 135.366 135.316 134.511 134.626 134.721 134.821 134.933 135.026 135.138 135.228 135.306 135.391 135.481 135.531 135.616 135.731 135.788 135.861 135.986 136.078 136.151 136.273 136.366 136.483 136.558 136.696 136.768 136.883 136.986 137.081 137.211 137.318 137.413 137.513 137.626 137.726 137.808 137.906 137.993 138.101 138.206 138.263 138.401 138.508 138.581 138.693 138.803 138.926 139.046 139.131 139.233 139.341 139.451 139.536 139.656 139.771 139.891 140.006 140.098 140.218 140.296 140.431 140.558 140.663 140.783 140.886 140.991 141.048 141.143 141.208 141.298 141.403 141.471 141.586 141.638 141.751 141.876 141.976 142.088 142.178 142.286 142.371 142.468 142.548 142.633 142.701 142.808 142.911 143.031 143.096 143.191 143.253 143.346 143.448 143.523 143.578 143.646 143.716 143.796 143.841 143.916 143.996 144.076 144.143 144.206 144.316 144.368 144.466 144.533 144.596 144.646 144.661 144.693 144.726 144.821 144.878 144.888 145.188 146.211 145.276 145.118 145.228 145.283 145.351 145.446 145.496 145.551 145.613 145.646 145.698 145.751
117.191 117.016 116.891 116.768 116.653 116.483 116.318 116.171 116.033 115.906 115.818 115.703 115.593 115.538 115.556 115.576 115.581 115.581 115.636 115.661 115.681 115.676 115.711 115.733 115.776 115.786 115.808 115.853 115.853 115.871 115.853 115.883 115.923 115.976 116.021 116.073 116.123 116.131 116.196 116.278 116.328 116.383 116.436 116.523 116.663 116.583 116.951 117.851 119.566 120.863 118.348 117.186 117.263 117.313 117.248 117.363 117.361 117.608 117.751 120.548 120.998 120.723 118.831 117.803 117.451 117.528 117.533 117.533 117.553 117.563 117.546 117.548 117.566 117.806 117.593 117.681 117.658 117.961 118.856 118.788 118.273 118.251 119.526 123.003 122.911 119.078 118.731 118.916 119.063 119.278 119.443 119.578 119.646 119.671 119.706 119.723 119.763 119.846 119.833 119.876 120.013 120.821 120.978 120.921 121.016 121.043 121.373 121.643 121.763 121.851 122.138 122.141 122.838 123.866 123.421 123.153 122.883 122.736 122.531 122.518 123.123 123.701 122.791 122.383 121.876 121.676 121.633 121.593 121.588 121.956 125.018 123.428 121.826 121.931 122.718 123.466 125.253 127.556 128.393 128.558 128.556 128.298 127.908 126.138 123.341 122.121 122.273 122.381 122.486 122.678 123.301 123.356 123.453 123.283 123.541 124.071 123.856 126.966 130.928 131.176 127.066 124.493 124.508 125.616 126.551 126.476 126.643 126.756 126.883 127.071 127.228 127.248 127.426 127.531 127.616 127.673 127.816 127.931 128.013 128.121 128.228 128.273 128.388 128.431 128.548 128.628 128.726 128.861 128.946 129.053 129.186 129.316 129.421 129.556 129.681 129.776 129.843 129.921 130.001 130.073 130.138 130.211 130.301 130.396 130.486 130.608 130.713 130.806 130.923 131.023 131.126 131.238 131.323 131.483 131.586 131.658 131.803 131.893 131.943 132.018 132.076 132.126 132.246 132.353 132.443 132.541 132.611 132.741 132.861 132.973 133.098 133.181 133.306 133.448 133.608 133.768 133.833 133.923 134.001 134.086 134.146 134.191 135.211 135.776 134.658 134.663 134.786 134.888 134.981 135.096 135.201 135.296 135.381 135.481 135.548 135.633 135.683 135.778 135.846 135.933 136.038 136.133 136.246 136.333 136.423 136.531 136.643 136.748 136.838 136.933 137.041 137.148 137.268 137.403 137.476 137.593 137.681 137.791 137.876 138.006 138.073 138.158 138.263 138.336 138.466 138.566 138.663 138.768 138.888 139.003 139.101 139.208 139.308 139.411 139.513 139.606 139.721 139.831 139.961 140.061 140.161 140.278 140.383 140.491 140.611 140.728 140.838 140.973 141.061 141.141 141.211 141.286 141.381 141.466 141.536 141.611 141.711 141.811 141.923 142.053 142.146 142.256 142.351 142.433 142.543 142.651 142.683 142.788 142.876 142.971 143.073 143.168 143.248 143.338 143.403 143.508 143.578 143.643 143.706 143.788 143.843 143.913 143.973 144.048 144.131 144.191 144.278 144.348 144.421 144.478 144.573 144.651 144.671 144.733 144.741 144.776 144.856 144.926 144.958 145.006 145.833 145.773 145.116 145.226 145.266 145.361 145.431 145.496 145.566 145.601 145.648 145.713 145.738
116.868 116.783 116.673 116.548 116.421 116.248 116.063 115.918 115.778 115.668 115.503 115.438 115.361 115.296 115.286 115.253 115.288 115.328 115.353 115.368 115.391 115.361 115.441 115.486 115.501 115.563 115.576 115.606 115.636 115.638 115.663 115.683 115.743 115.778 115.803 115.858 115.888 115.956 116.023 116.076 116.243 116.146 115.918 116.028 116.041 117.726 120.801 118.568 118.688 118.836 117.728 117.223 117.208 116.973 117.018 117.713 117.148 117.406 117.248 119.693 120.868 120.961 119.711 118.461 117.693 117.488 117.393 117.353 117.391 117.468 117.443 117.578 117.696 118.361 117.696 117.526 117.633 118.128 118.088 118.981 118.821 118.333 118.866 121.518 123.033 118.763 118.838 119.531 118.971 119.063 119.246 119.348 119.428 119.463 119.483 119.471 119.503 119.498 119.516 119.553 119.721 119.826 119.913 120.118 120.111 119.943 120.303 120.403 120.581 120.533 120.843 121.286 122.001 123.688 123.633 122.923 122.776 122.463 122.578 122.296 122.883 123.663 122.411 121.813 121.361 121.463 121.523 121.546 121.553 121.553 121.613 121.861 123.543 125.096 126.153 126.648 127.096 127.951 128.458 128.151 127.638 125.971 122.988 122.288 122.066 122.138 122.471 123.288 124.053 124.163 124.301 125.756 125.798 123.746 123.761 124.481 124.463 127.811 130.901 131.628 130.528 126.201 124.658 124.703 126.306 126.563 126.758 126.863 126.961 127.138 127.296 127.391 127.528 127.651 127.711 127.806 127.901 128.008 128.141 128.228 128.311 128.361 128.468 128.518 128.618 128.691 128.798 128.918 129.011 129.106 129.238 129.396 129.486 129.631 129.746 129.843 129.938 129.996 130.078 130.146 130.213 130.276 130.381 130.478 130.568 130.666 130.773 130.851 130.963 131.086 131.178 131.281 131.371 131.531 131.643 131.751 131.866 131.961 132.023 132.076 132.141 132.171 132.288 132.376 132.493 132.603 132.683 132.798 132.926 133.046 133.171 133.238 133.351 133.503 133.666 133.836 133.906 133.988 134.071 134.133 134.228 134.276 134.736 135.758 135.211 134.721 134.838 134.961 135.066 135.158 135.263 135.353 135.466 135.541 135.621 135.676 135.768 135.858 135.938 136.031 136.093 136.196 136.301 136.376 136.483 136.603 136.713 136.793 136.913 137.001 137.111 137.213 137.333 137.446 137.536 137.668 137.753 137.866 137.948 138.031 138.151 138.251 138.328 138.418 138.533 138.641 138.748 138.826 138.946 139.063 139.173 139.268 139.371 139.501 139.586 139.716 139.793 139.908 140.018 140.123 140.251 140.343 140.458 140.578 140.681 140.801 140.928 141.041 141.136 141.246 141.291 141.376 141.483 141.543 141.623 141.698 141.783 141.868 142.001 142.128 142.226 142.316 142.418 142.516 142.623 142.701 142.793 142.866 142.943 143.031 143.131 143.236 143.311 143.396 143.496 143.546 143.633 143.711 143.776 143.848 143.911 143.973 144.038 144.096 144.176 144.243 144.308 144.378 144.451 144.538 144.603 144.678 144.753 144.798 144.811 144.818 144.871 144.953 145.011 145.031 145.393 146.193 145.328 145.191 145.276 145.338 145.411 145.491 145.553 145.601 145.656 145.716 145.741
116.606 116.523 116.416 116.251 116.088 115.961 115.808 115.668 115.518 115.403 115.286 115.211 115.161 115.071 115.011 114.958 114.963 115.021 115.033 115.056 115.091 115.091 115.128 115.198 115.198 115.271 115.323 115.356 115.411 115.471 115.496 115.518 115.543 115.548 115.598 115.618 115.636 115.756 116.346 116.266 115.868 116.011 116.261 116.388 117.391 117.748 120.268 116.963 116.856 116.988 116.831 116.998 117.066 118.443 120.306 120.576 118.183 117.201 117.198 118.578 120.633 121.071 120.651 117.801 117.253 117.266 117.248 117.301 117.373 117.403 117.353 117.466 117.706 118.446 119.941 118.796 117.593 117.883 118.048 117.848 118.643 118.931 120.198 120.853 121.656 119.513 119.651 120.008 119.048 119.096 119.036 119.151 119.206 119.241 119.251 119.263 119.213 119.178 119.186 119.301 119.466 119.578 119.623 119.813 119.756 119.843 120.046 120.126 120.258 120.268 120.388 120.613 121.918 122.676 122.216 122.396 122.383 122.253 122.571 122.251 122.658 122.726 122.208 121.548 121.318 121.323 121.481 121.496 121.473 121.453 122.711 124.206 125.073 126.966 127.358 127.523 127.246 126.736 126.468 124.998 122.681 121.848 121.878 121.941 122.046 122.938 125.426 124.971 124.648 124.143 128.731 131.336 129.671 124.848 123.996 124.213 124.688 125.406 130.423 131.498 131.093 127.998 124.876 124.743 125.488 126.791 126.843 126.963 127.076 127.201 127.378 127.533 127.623 127.736 127.816 127.911 127.991 128.121 128.218 128.333 128.428 128.441 128.508 128.606 128.693 128.778 128.878 128.996 129.093 129.186 129.303 129.458 129.553 129.686 129.791 129.901 129.996 130.058 130.133 130.203 130.303 130.358 130.426 130.538 130.621 130.733 130.858 130.923 131.013 131.151 131.258 131.321 131.458 131.583 131.698 131.808 131.923 132.023 132.096 132.171 132.216 132.271 132.358 132.466 132.586 132.681 132.776 132.878 133.046 133.136 133.191 133.293 133.406 133.556 133.701 133.876 133.973 134.071 134.138 134.231 134.311 134.358 134.431 135.818 135.783 134.791 134.908 135.016 135.118 135.216 135.316 135.393 135.513 135.576 135.683 135.771 135.838 135.923 136.016 136.086 136.166 136.268 136.348 136.456 136.556 136.663 136.761 136.858 136.988 137.066 137.176 137.276 137.391 137.511 137.608 137.726 137.846 137.931 138.013 138.108 138.211 138.306 138.406 138.511 138.591 138.703 138.816 138.921 139.021 139.121 139.246 139.333 139.478 139.541 139.668 139.773 139.873 139.981 140.088 140.211 140.313 140.428 140.543 140.641 140.761 140.866 141.008 141.096 141.216 141.311 141.373 141.478 141.558 141.633 141.708 141.788 141.876 141.943 142.081 142.171 142.293 142.386 142.493 142.598 142.688 142.781 142.866 142.938 143.041 143.118 143.201 143.293 143.391 143.458 143.541 143.616 143.696 143.778 143.828 143.901 143.981 144.051 144.086 144.156 144.231 144.298 144.373 144.426 144.513 144.586 144.668 144.716 144.796 144.831 144.861 144.876 144.901 144.978 145.051 145.086 145.141 146.046 145.741 145.218 145.286 145.353 145.436 145.483 145.571 145.633 145.671 145.708 145.748
116.323 116.253 116.106 115.928 115.801 115.676 115.576 115.438 115.301 115.201 115.131 114.991 114.903 114.833 114.776 114.713 114.736 114.736 114.736 114.768 114.801 114.808 114.811 114.853 114.918 114.981 115.081 115.163 115.221 115.271 115.316 115.346 115.353 115.346 115.363 115.486 116.046 117.551 115.603 116.228 117.846 119.343 121.381 117.433 117.443 116.661 116.523 116.621 116.643 116.786 116.711 116.763 117.103 120.246 120.996 120.946 119.096 117.136 117.263 117.568 120.266 120.926 120.906 119.026 117.176 117.191 117.226 117.278 117.283 117.358 117.676 119.531 120.551 120.873 121.031 119.838 117.528 117.628 118.033 118.023 117.918 118.506 119.148 118.563 118.383 118.696 119.398 119.381 118.963 119.188 119.026 118.968 118.983 119.008 119.008 119.036 118.993 118.983 119.036 119.163 119.338 119.406 119.486 119.593 119.631 119.821 120.016 120.036 120.073 120.138 120.241 120.386 122.198 122.633 122.123 122.183 122.106 122.038 122.021 121.936 122.213 122.386 122.278 121.546 121.371 121.331 121.378 121.471 121.461 121.436 121.836 123.946 124.828 127.108 126.918 126.258 125.208 123.583 121.631 121.653 121.703 121.733 121.991 123.081 124.413 125.096 124.601 125.313 127.763 127.021 130.126 131.363 129.976 125.763 124.396 124.306 125.298 125.151 129.331 131.056 131.546 130.321 125.953 124.848 125.016 126.666 126.956 127.071 127.193 127.303 127.476 127.623 127.748 127.833 127.941 128.011 128.106 128.223 128.318 128.413 128.528 128.511 128.596 128.688 128.753 128.846 128.961 129.068 129.166 129.246 129.383 129.488 129.631 129.743 129.833 129.956 130.053 130.136 130.203 130.286 130.373 130.406 130.488 130.593 130.708 130.801 130.923 131.003 131.081 131.208 131.316 131.418 131.571 131.666 131.816 131.903 132.001 132.133 132.211 132.286 132.311 132.373 132.413 132.553 132.643 132.751 132.833 132.963 133.068 133.198 133.273 133.371 133.486 133.608 133.768 133.943 134.078 134.138 134.213 134.283 134.353 134.453 134.478 135.518 135.906 135.141 134.951 135.103 135.186 135.303 135.388 135.476 135.576 135.663 135.761 135.828 135.911 135.996 136.081 136.133 136.253 136.323 136.433 136.503 136.611 136.728 136.836 136.926 137.041 137.136 137.256 137.361 137.461 137.593 137.698 137.806 137.926 138.013 138.123 138.196 138.311 138.391 138.453 138.576 138.696 138.766 138.883 139.003 139.086 139.196 139.326 139.416 139.526 139.633 139.748 139.853 139.946 140.061 140.173 140.281 140.403 140.521 140.623 140.718 140.816 140.966 141.098 141.193 141.316 141.376 141.473 141.546 141.638 141.718 141.773 141.868 141.958 142.056 142.156 142.223 142.363 142.446 142.561 142.691 142.771 142.873 142.941 143.023 143.118 143.196 143.268 143.358 143.451 143.521 143.616 143.683 143.791 143.863 143.916 143.981 144.071 144.101 144.156 144.228 144.298 144.371 144.438 144.491 144.571 144.646 144.706 144.771 144.836 144.916 144.931 144.936 144.938 145.008 145.096 145.171 145.148 145.578 146.188 145.328 145.288 145.371 145.443 145.486 145.561 145.621 145.658 145.708 145.761
116.046 115.921 115.761 115.648 115.536 115.393 115.293 115.233 115.128 115.016 114.941 114.786 114.678 114.601 114.561 114.536 114.458 114.478 114.456 114.451 114.461 114.483 114.473 114.501 114.663 114.793 114.903 114.958 115.011 115.053 115.076 115.108 115.193 115.451 116.223 115.193 115.106 115.288 115.421 118.461 119.953 119.071 122.911 118.503 116.481 116.406 116.458 116.583 116.683 116.541 116.578 116.703 116.746 118.926 120.743 121.101 120.636 117.206 117.076 117.123 118.921 120.276 118.588 117.566 117.123 117.146 117.181 117.246 117.306 118.496 120.771 120.938 121.078 121.118 120.991 120.836 117.698 117.638 117.918 118.818 119.103 117.983 119.556 118.868 119.288 118.471 118.406 118.728 118.751 119.056 119.328 118.881 118.793 118.798 118.816 118.861 118.908 118.936 119.018 119.141 119.371 119.398 119.493 119.511 119.638 119.766 119.913 119.956 120.031 120.068 120.108 120.323 121.136 122.696 122.906 122.443 122.031 122.006 121.893 121.893 121.796 121.821 121.716 121.518 121.351 121.348 121.363 121.368 121.396 121.388 121.291 123.308 123.368 123.753 124.038 121.881 121.416 121.458 121.533 121.588 122.396 123.071 124.478 125.126 125.016 124.296 125.268 129.911 130.428 130.758 130.988 131.403 130.918 128.381 124.648 124.506 124.863 124.853 125.471 130.533 131.586 130.638 128.951 125.623 124.971 125.868 127.023 127.158 127.293 127.401 127.568 127.728 127.821 127.928 128.018 128.088 128.196 128.273 128.366 128.491 128.573 128.641 128.681 128.763 128.823 128.923 129.018 129.128 129.228 129.311 129.411 129.548 129.688 129.801 129.916 130.051 130.121 130.221 130.283 130.353 130.433 130.493 130.573 130.671 130.781 130.858 131.001 131.108 131.191 131.331 131.436 131.543 131.663 131.776 131.931 132.003 132.103 132.226 132.301 132.368 132.423 132.458 132.511 132.646 132.738 132.836 132.916 133.021 133.113 133.258 133.323 133.418 133.541 133.638 133.821 133.993 134.143 134.203 134.283 134.353 134.453 134.556 134.586 135.071 136.076 135.408 135.011 135.136 135.246 135.353 135.446 135.543 135.641 135.756 135.816 135.901 135.971 136.063 136.148 136.213 136.316 136.423 136.508 136.568 136.693 136.801 136.908 136.998 137.116 137.221 137.313 137.431 137.541 137.661 137.783 137.873 138.003 138.111 138.188 138.288 138.386 138.476 138.553 138.656 138.768 138.863 138.971 139.061 139.178 139.306 139.388 139.518 139.588 139.713 139.816 139.926 140.021 140.148 140.248 140.371 140.468 140.581 140.703 140.798 140.918 141.036 141.163 141.286 141.361 141.476 141.561 141.628 141.738 141.813 141.896 141.948 142.043 142.138 142.216 142.303 142.441 142.538 142.646 142.746 142.846 142.958 143.056 143.108 143.206 143.278 143.346 143.456 143.541 143.616 143.678 143.756 143.846 143.916 144.003 144.063 144.136 144.178 144.241 144.301 144.376 144.438 144.501 144.568 144.651 144.716 144.776 144.838 144.911 144.971 145.006 144.983 145.031 145.046 145.106 145.198 145.226 145.328 146.248 145.678 145.313 145.383 145.461 145.516 145.561 145.643 145.683 145.721 145.763
115.673 115.553 115.463 115.346 115.191 115.138 115.103 115.043 114.953 114.851 114.736 114.598 114.501 114.386 114.361 114.401 114.538 114.161 114.151 114.201 114.131 114.106 114.123 114.183 114.471 114.488 114.591 114.691 114.826 115.103 115.241 115.408 114.676 114.308 114.551 114.526 115.453 116.173 116.501 117.351 116.976 116.266 118.418 116.416 116.656 116.333 116.266 116.286 116.388 116.446 116.496 116.586 116.696 117.173 120.051 121.008 120.916 119.121 117.056 117.008 116.983 117.008 116.986 117.066 117.078 117.133 117.193 117.238 117.331 117.843 121.108 121.036 120.901 120.636 119.741 118.121 117.383 117.526 118.988 119.736 118.641 117.913 118.221 117.768 119.066 118.523 118.211 118.233 118.678 118.751 118.943 118.701 118.631 118.656 118.671 118.751 118.863 118.953 119.018 119.108 119.298 119.333 119.401 119.498 119.648 119.848 119.856 119.943 119.911 120.001 120.081 120.196 120.901 122.068 122.571 122.258 122.146 122.183 121.898 121.746 121.711 121.438 121.301 121.261 121.233 121.358 121.336 121.291 121.331 121.318 121.231 121.166 121.168 121.241 121.218 121.276 121.338 121.486 122.816 125.076 126.303 125.366 124.678 124.071 124.186 126.076 127.398 130.168 131.551 131.721 131.743 131.626 131.171 128.758 125.016 124.696 124.978 125.411 126.266 128.876 129.573 129.368 128.911 126.773 125.066 125.371 127.076 127.268 127.363 127.496 127.648 127.783 127.911 128.028 128.091 128.198 128.271 128.371 128.436 128.563 128.668 128.746 128.793 128.846 128.908 128.998 129.088 129.191 129.323 129.388 129.468 129.618 129.753 129.871 129.998 130.106 130.201 130.291 130.373 130.453 130.513 130.603 130.658 130.768 130.891 130.983 131.106 131.226 131.313 131.423 131.556 131.646 131.743 131.863 132.006 132.121 132.203 132.316 132.398 132.473 132.521 132.571 132.626 132.698 132.843 132.926 133.023 133.098 133.213 133.323 133.406 133.496 133.628 133.773 133.886 134.056 134.211 134.311 134.361 134.438 134.523 134.621 134.676 134.706 135.788 135.636 135.091 135.208 135.303 135.413 135.538 135.628 135.706 135.826 135.918 135.986 136.081 136.141 136.221 136.293 136.388 136.491 136.568 136.663 136.748 136.873 136.978 137.083 137.176 137.288 137.418 137.511 137.603 137.731 137.856 137.976 138.098 138.188 138.301 138.368 138.466 138.561 138.633 138.736 138.833 138.936 139.073 139.143 139.253 139.371 139.473 139.593 139.676 139.806 139.903 140.006 140.081 140.238 140.333 140.436 140.553 140.678 140.783 140.898 141.006 141.103 141.248 141.361 141.461 141.573 141.646 141.738 141.808 141.933 141.976 142.058 142.143 142.223 142.321 142.391 142.521 142.636 142.733 142.833 142.946 143.043 143.113 143.211 143.296 143.371 143.431 143.543 143.633 143.726 143.781 143.863 143.946 144.016 144.078 144.148 144.201 144.288 144.326 144.376 144.438 144.516 144.576 144.638 144.721 144.786 144.848 144.921 144.966 145.023 145.078 145.086 145.081 145.108 145.153 145.233 145.276 145.296 145.831 146.181 145.381 145.378 145.481 145.536 145.573 145.648 145.671 145.706 145.783
115.386 115.231 115.136 115.018 114.963 114.926 114.888 114.838 114.788 114.678 114.596 114.443 114.316 114.188 114.146 114.221 115.311 114.253 114.053 113.893 113.856 113.873 113.918 114.251 114.361 114.563 114.693 114.743 114.833 114.668 114.218 114.108 114.501 116.123 115.923 116.123 116.646 116.606 116.396 116.088 116.063 116.116 116.183 116.301 116.311 116.188 116.106 116.213 116.323 116.441 116.478 116.543 116.643 116.691 118.803 120.518 118.833 117.386 117.003 116.983 116.968 116.968 116.971 117.081 117.143 117.233 117.291 117.318 117.303 117.338 120.088 120.653 118.873 117.908 117.391 117.423 117.833 118.273 118.951 120.361 120.773 119.741 118.556 117.993 117.933 117.921 118.343 118.166 118.326 119.056 118.786 118.651 118.578 118.686 118.728 118.711 118.838 118.966 119.058 119.103 119.116 119.206 119.278 119.371 119.581 119.686 119.816 119.828 119.873 119.998 120.218 120.383 120.741 121.958 122.463 122.418 122.106 121.966 121.738 121.661 121.643 121.678 121.541 121.143 121.203 121.293 121.296 121.543 122.051 121.501 121.023 121.041 121.101 121.166 121.188 121.593 122.878 125.361 127.601 128.086 128.396 126.146 124.201 124.201 124.308 125.526 126.871 128.163 131.353 131.123 130.851 130.661 131.286 128.893 125.283 124.806 125.908 128.191 128.973 129.616 129.883 129.756 129.236 127.723 125.191 125.271 126.826 127.446 127.538 127.576 127.721 127.876 128.018 128.123 128.208 128.286 128.378 128.441 128.531 128.628 128.768 128.858 128.918 128.921 128.998 129.053 129.161 129.268 129.396 129.478 129.548 129.676 129.836 129.948 130.086 130.201 130.276 130.401 130.503 130.558 130.661 130.723 130.806 130.866 130.991 131.101 131.201 131.353 131.431 131.518 131.638 131.766 131.881 131.976 132.103 132.248 132.311 132.423 132.518 132.591 132.618 132.688 132.726 132.788 132.913 133.011 133.098 133.176 133.291 133.391 133.511 133.603 133.716 133.841 133.956 134.108 134.276 134.408 134.451 134.526 134.611 134.716 134.761 134.803 135.468 136.026 135.261 135.258 135.401 135.493 135.608 135.698 135.796 135.883 135.988 136.086 136.158 136.226 136.321 136.396 136.478 136.551 136.648 136.743 136.828 136.968 137.063 137.188 137.263 137.396 137.481 137.601 137.703 137.813 137.941 138.066 138.163 138.271 138.381 138.456 138.546 138.638 138.738 138.821 138.931 139.028 139.133 139.223 139.346 139.463 139.581 139.661 139.771 139.883 139.983 140.096 140.191 140.311 140.423 140.523 140.631 140.758 140.893 140.993 141.088 141.206 141.328 141.433 141.566 141.666 141.741 141.821 141.893 142.001 142.088 142.153 142.241 142.306 142.423 142.478 142.603 142.721 142.806 142.896 143.028 143.123 143.213 143.303 143.426 143.466 143.528 143.611 143.696 143.783 143.871 143.953 144.041 144.081 144.171 144.228 144.296 144.348 144.431 144.466 144.518 144.586 144.663 144.726 144.793 144.848 144.921 144.976 145.051 145.088 145.151 145.158 145.178 145.188 145.193 145.276 145.318 145.333 145.438 146.336 145.691 145.403 145.518 145.558 145.593 145.658 145.693 145.733 145.778
115.071 114.946 114.836 114.751 114.726 114.678 114.618 114.613 114.591 114.473 114.348 114.236 114.128 113.996 113.921 113.808 113.816 113.921 113.726 113.673 113.636 113.643 113.611 114.508 114.881 114.831 114.531 113.943 114.053 114.198 114.583 116.178 117.391 116.353 116.608 116.418 116.958 117.061 116.698 116.238 116.038 116.071 116.126 116.198 116.131 116.041 116.046 116.231 116.321 116.391 116.413 116.451 116.578 116.631 116.676 116.668 116.986 117.001 117.013 116.971 116.961 116.951 117.113 117.193 117.286 117.353 117.331 117.358 117.318 117.286 117.836 118.403 117.683 117.398 117.463 117.551 117.953 117.926 120.213 121.386 121.513 120.793 118.091 117.811 117.888 117.786 117.876 118.398 118.138 118.471 119.118 118.911 118.713 118.726 118.751 118.723 118.968 118.966 119.058 119.146 119.151 119.103 119.188 119.361 119.488 119.593 119.708 119.841 119.896 120.078 120.751 120.893 121.128 121.918 122.481 122.203 121.868 121.733 121.611 121.563 121.513 121.543 121.721 121.186 121.376 121.608 122.038 121.751 121.393 120.993 120.996 121.043 121.336 122.466 123.431 124.171 124.778 124.873 124.226 125.693 126.953 127.511 124.756 124.346 124.466 124.646 124.578 125.241 130.293 129.818 129.423 128.393 126.673 125.776 125.306 124.988 125.171 127.716 129.441 129.948 128.841 128.368 129.301 128.546 126.183 125.571 126.886 127.638 127.616 127.691 127.811 127.958 128.091 128.228 128.318 128.383 128.448 128.538 128.603 128.693 128.831 128.938 129.006 129.056 129.088 129.148 129.261 129.361 129.468 129.573 129.661 129.768 129.908 130.068 130.168 130.273 130.391 130.518 130.588 130.673 130.746 130.838 130.883 130.983 131.086 131.183 131.301 131.431 131.551 131.648 131.768 131.903 132.003 132.093 132.203 132.348 132.418 132.496 132.611 132.668 132.716 132.761 132.806 132.861 132.978 133.096 133.176 133.268 133.338 133.496 133.601 133.666 133.806 133.931 134.038 134.163 134.331 134.463 134.533 134.606 134.691 134.776 134.868 134.911 135.396 136.393 135.416 135.328 135.456 135.568 135.678 135.783 135.886 135.971 136.078 136.166 136.248 136.316 136.403 136.506 136.561 136.646 136.758 136.841 136.918 137.033 137.141 137.248 137.346 137.476 137.568 137.686 137.778 137.916 138.028 138.143 138.261 138.366 138.466 138.553 138.636 138.721 138.836 138.901 138.998 139.108 139.211 139.306 139.418 139.526 139.638 139.733 139.838 139.946 140.076 140.183 140.276 140.393 140.498 140.608 140.721 140.853 140.961 141.113 141.201 141.308 141.406 141.538 141.661 141.771 141.868 141.931 142.001 142.113 142.178 142.271 142.343 142.421 142.506 142.583 142.706 142.793 142.906 143.023 143.108 143.216 143.308 143.406 143.501 143.571 143.628 143.711 143.801 143.878 143.973 144.048 144.121 144.183 144.256 144.336 144.386 144.458 144.521 144.563 144.621 144.673 144.736 144.821 144.888 144.931 144.983 145.056 145.113 145.181 145.208 145.238 145.256 145.251 145.276 145.308 145.353 145.398 145.406 146.021 146.168 145.448 145.518 145.583 145.608 145.661 145.718 145.741 145.786
114.788 114.656 114.573 114.498 114.451 114.366 114.338 114.311 114.288 114.221 114.088 113.991 113.881 113.766 113.668 113.588 113.493 113.551 113.498 113.433 113.403 113.426 113.561 113.998 114.026 113.888 113.933 114.346 115.028 115.631 116.811 116.368 116.941 117.943 116.761 116.701 117.068 117.146 116.851 116.583 116.083 116.043 116.086 116.111 116.111 116.043 116.051 116.198 116.233 116.321 116.311 116.378 116.466 116.541 116.548 116.563 116.783 117.371 117.331 116.978 116.946 116.946 117.143 117.263 117.336 117.596 117.443 117.401 117.306 117.273 117.363 117.808 117.421 117.358 117.431 117.511 117.568 117.601 118.548 121.158 121.591 121.281 118.413 117.656 117.688 117.673 117.721 117.998 118.506 118.091 118.533 119.268 118.971 118.708 118.711 118.856 119.011 118.988 119.038 119.113 119.128 118.926 118.956 119.403 119.626 119.698 119.766 119.808 119.888 120.203 120.833 120.843 121.576 121.826 122.493 121.868 121.608 121.568 121.443 121.541 121.618 121.833 121.978 121.151 121.163 121.016 120.793 120.788 120.863 120.948 121.493 122.821 123.676 124.753 124.586 124.831 125.266 123.493 123.631 125.298 127.353 127.808 127.188 124.503 124.618 124.786 124.588 124.808 127.481 127.501 127.368 127.206 125.113 125.148 125.003 125.231 125.286 126.936 128.263 127.093 126.043 127.051 128.951 129.008 127.066 125.603 126.116 127.913 127.676 127.771 127.901 128.071 128.173 128.296 128.398 128.486 128.536 128.643 128.706 128.786 128.918 129.026 129.148 129.186 129.208 129.223 129.328 129.468 129.571 129.688 129.778 129.868 130.003 130.146 130.258 130.388 130.511 130.611 130.696 130.806 130.851 130.926 130.998 131.056 131.183 131.288 131.403 131.533 131.656 131.743 131.861 131.993 132.081 132.181 132.278 132.396 132.481 132.561 132.676 132.733 132.806 132.838 132.886 132.933 133.068 133.168 133.268 133.363 133.403 133.566 133.668 133.768 133.868 133.981 134.086 134.238 134.396 134.561 134.633 134.706 134.796 134.871 134.981 135.013 135.168 136.481 136.086 135.413 135.541 135.646 135.751 135.868 135.956 136.063 136.153 136.228 136.316 136.421 136.523 136.603 136.653 136.756 136.831 136.916 137.043 137.128 137.248 137.346 137.456 137.556 137.663 137.778 137.861 137.991 138.121 138.211 138.333 138.456 138.563 138.653 138.716 138.813 138.903 139.008 139.093 139.173 139.288 139.406 139.521 139.633 139.736 139.841 139.941 140.026 140.163 140.256 140.366 140.473 140.581 140.681 140.823 140.931 141.093 141.171 141.296 141.388 141.498 141.631 141.766 141.871 141.948 142.048 142.118 142.196 142.266 142.348 142.428 142.516 142.603 142.696 142.791 142.893 142.993 143.126 143.198 143.313 143.411 143.496 143.581 143.658 143.726 143.821 143.893 143.966 144.071 144.143 144.206 144.291 144.348 144.431 144.488 144.563 144.618 144.673 144.706 144.758 144.831 144.891 144.981 145.023 145.088 145.136 145.186 145.238 145.271 145.326 145.346 145.323 145.326 145.351 145.406 145.443 145.463 145.698 146.456 145.671 145.548 145.591 145.636 145.671 145.743 145.776 145.821
114.481 114.393 114.353 114.253 114.178 114.118 114.101 114.038 113.961 113.868 113.741 113.623 113.538 113.481 113.391 113.318 113.261 113.263 113.271 113.278 113.306 113.413 113.733 113.906 114.031 114.386 114.936 115.591 115.841 117.368 115.971 116.521 117.006 116.963 116.783 116.656 116.736 116.641 116.658 116.723 116.308 115.971 116.036 116.036 116.053 116.046 116.081 116.103 116.178 116.208 116.241 116.256 116.253 116.401 116.368 116.491 116.743 117.371 117.306 116.966 116.941 116.926 116.958 117.188 117.298 117.388 117.366 117.326 117.316 117.288 117.286 117.288 117.303 117.331 117.423 117.668 117.468 117.626 117.893 120.503 121.391 121.501 120.933 118.003 117.621 117.641 117.693 117.758 118.468 118.738 117.991 119.088 119.588 119.286 119.523 119.671 120.111 119.981 119.933 119.568 119.651 118.786 118.906 119.883 120.056 120.213 120.196 120.168 120.136 120.306 120.611 120.256 121.306 121.566 122.296 122.086 121.943 122.131 121.946 121.731 121.313 120.883 120.496 120.541 120.511 120.591 120.686 120.796 120.986 122.296 124.343 124.228 124.706 124.591 124.363 124.071 123.661 123.431 123.626 123.811 124.396 128.063 128.108 125.208 124.718 124.863 125.246 124.956 126.026 127.518 127.516 127.453 125.563 125.053 125.541 125.648 125.581 125.788 125.268 125.153 125.116 126.286 128.483 128.068 126.086 125.773 125.836 127.726 127.758 127.853 128.011 128.106 128.248 128.398 128.501 128.581 128.636 128.716 128.811 128.893 129.031 129.126 129.266 129.328 129.353 129.351 129.441 129.553 129.671 129.803 129.886 129.961 130.096 130.221 130.331 130.493 130.616 130.688 130.808 130.876 130.966 131.021 131.106 131.153 131.281 131.381 131.486 131.601 131.736 131.816 131.923 132.043 132.163 132.253 132.356 132.461 132.586 132.651 132.728 132.833 132.896 132.943 133.001 133.053 133.136 133.258 133.373 133.451 133.523 133.643 133.768 133.883 133.961 134.043 134.141 134.321 134.451 134.631 134.731 134.811 134.876 134.956 135.056 135.113 135.166 136.413 136.208 135.501 135.638 135.728 135.846 135.943 136.046 136.156 136.263 136.341 136.436 136.501 136.601 136.711 136.771 136.861 136.936 137.028 137.116 137.228 137.323 137.431 137.531 137.623 137.763 137.883 137.978 138.101 138.196 138.323 138.438 138.538 138.641 138.738 138.831 138.923 139.006 139.091 139.163 139.273 139.386 139.476 139.606 139.701 139.821 139.926 140.018 140.121 140.218 140.343 140.448 140.561 140.661 140.793 140.908 141.013 141.151 141.268 141.388 141.501 141.593 141.736 141.848 141.946 142.061 142.163 142.241 142.316 142.371 142.463 142.546 142.621 142.716 142.798 142.898 142.998 143.131 143.221 143.308 143.406 143.486 143.583 143.673 143.751 143.838 143.906 143.981 144.066 144.163 144.241 144.321 144.383 144.456 144.543 144.588 144.658 144.701 144.771 144.816 144.853 144.926 144.976 145.073 145.106 145.171 145.203 145.263 145.308 145.376 145.396 145.426 145.433 145.421 145.398 145.446 145.511 145.553 145.603 146.136 146.211 145.586 145.616 145.653 145.691 145.756 145.771 145.826
114.233 114.146 114.056 113.966 113.881 113.836 113.783 113.703 113.613 113.503 113.403 113.301 113.208 113.126 113.116 113.091 113.128 113.198 113.231 113.288 113.626 115.366 114.618 114.913 115.608 115.176 115.483 115.458 115.533 115.691 116.298 116.651 116.856 116.623 116.453 116.386 116.336 116.498 116.576 116.836 116.501 116.006 115.958 115.981 115.981 116.003 116.013 115.996 116.013 116.043 116.028 116.038 116.083 116.293 116.286 116.363 116.551 116.683 116.911 116.931 116.953 116.911 116.891 116.988 117.141 117.228 117.256 117.246 117.238 117.236 117.253 117.263 118.366 120.148 117.763 118.301 118.586 119.146 117.591 118.926 121.163 120.931 119.433 117.633 117.578 117.581 117.653 118.308 118.883 119.716 118.556 117.951 118.666 118.876 118.941 118.941 118.656 118.583 118.643 118.618 118.598 118.596 118.663 118.831 118.888 119.348 119.448 119.818 120.323 120.463 120.486 120.718 120.963 121.021 120.926 120.836 120.566 120.303 119.978 120.026 120.261 120.361 120.471 120.546 120.518 120.598 120.728 121.626 122.238 123.406 123.533 123.211 123.298 123.456 123.316 123.393 123.506 123.646 123.826 124.113 124.786 125.573 125.898 125.093 124.791 125.083 125.228 125.186 125.476 126.571 125.986 125.308 124.791 125.243 126.231 126.218 125.906 126.258 126.008 125.043 125.133 125.363 125.598 125.113 125.123 125.856 125.861 127.673 127.828 127.963 128.096 128.191 128.348 128.473 128.591 128.686 128.751 128.821 128.888 129.018 129.106 129.213 129.363 129.396 129.436 129.471 129.541 129.636 129.763 129.873 129.968 130.066 130.183 130.313 130.428 130.571 130.671 130.778 130.878 130.971 131.033 131.131 131.193 131.251 131.336 131.446 131.548 131.676 131.801 131.906 132.008 132.141 132.238 132.353 132.468 132.561 132.698 132.753 132.813 132.931 132.991 133.046 133.088 133.151 133.193 133.346 133.436 133.536 133.628 133.738 133.861 133.963 134.043 134.128 134.226 134.366 134.523 134.701 134.816 134.921 134.981 135.068 135.143 135.226 135.268 136.223 136.798 135.791 135.703 135.818 135.943 136.041 136.128 136.258 136.358 136.443 136.548 136.641 136.721 136.806 136.893 136.958 137.048 137.121 137.233 137.313 137.426 137.533 137.631 137.746 137.861 137.958 138.068 138.196 138.303 138.436 138.528 138.618 138.741 138.843 138.928 139.023 139.101 139.183 139.281 139.373 139.461 139.563 139.686 139.803 139.911 140.003 140.103 140.201 140.318 140.451 140.518 140.651 140.743 140.893 141.001 141.128 141.246 141.356 141.503 141.591 141.711 141.826 141.961 142.063 142.176 142.261 142.343 142.453 142.503 142.583 142.653 142.721 142.821 142.913 142.998 143.101 143.213 143.311 143.406 143.513 143.601 143.696 143.778 143.876 143.931 144.011 144.098 144.186 144.253 144.336 144.406 144.471 144.553 144.656 144.716 144.761 144.831 144.878 144.943 144.973 145.021 145.078 145.136 145.213 145.248 145.316 145.353 145.398 145.451 145.471 145.501 145.503 145.481 145.493 145.493 145.571 145.596 145.613 145.783 146.578 145.896 145.633 145.691 145.738 145.748 145.833 145.861
113.896 113.816 113.741 113.648 113.553 113.488 113.408 113.311 113.208 113.123 113.038 112.958 112.936 112.956 112.986 113.066 113.121 113.293 113.628 114.136 114.971 115.113 115.061 115.911 116.331 115.288 115.393 115.351 115.466 115.711 116.011 116.171 116.131 116.131 116.001 116.091 116.223 116.358 116.221 116.248 116.313 116.083 115.906 115.911 115.843 115.886 115.883 115.711 115.733 115.833 115.918 116.011 116.073 116.236 116.286 116.348 116.171 116.341 116.831 116.888 116.901 116.893 116.891 116.878 116.986 117.106 117.153 117.146 117.208 117.281 117.973 118.848 120.623 121.003 120.321 117.638 117.653 119.361 118.648 117.596 118.561 117.733 117.496 117.506 117.666 119.296 121.361 120.726 119.051 118.611 117.838 117.913 117.981 118.051 118.143 118.193 118.306 118.386 118.483 118.521 118.586 118.646 118.696 118.796 118.818 118.861 118.918 118.971 119.063 119.146 119.221 119.336 119.378 119.476 119.566 119.646 119.721 119.813 119.873 120.133 120.341 120.726 121.096 121.613 121.293 120.806 121.193 122.838 123.271 123.138 123.118 123.218 123.311 123.393 123.488 123.546 123.691 123.856 124.276 125.086 127.491 125.108 126.488 125.821 124.901 125.468 125.801 125.466 125.566 125.413 124.761 124.706 124.951 125.403 126.143 126.933 126.353 126.378 126.486 126.611 125.158 125.193 125.121 125.143 125.138 125.738 125.981 127.033 127.966 128.043 128.166 128.286 128.428 128.558 128.676 128.783 128.851 128.921 128.991 129.086 129.156 129.306 129.411 129.496 129.538 129.596 129.631 129.741 129.861 129.958 130.086 130.168 130.243 130.368 130.506 130.626 130.736 130.856 130.963 131.041 131.121 131.191 131.276 131.351 131.431 131.538 131.663 131.758 131.901 132.033 132.116 132.223 132.348 132.478 132.553 132.656 132.786 132.836 132.908 133.001 133.091 133.133 133.186 133.233 133.283 133.403 133.521 133.616 133.711 133.826 133.978 134.056 134.126 134.218 134.318 134.436 134.608 134.773 134.926 135.008 135.093 135.171 135.248 135.343 135.378 135.803 136.531 136.373 135.791 135.926 136.026 136.123 136.241 136.353 136.426 136.548 136.643 136.758 136.823 136.911 136.993 137.068 137.166 137.246 137.323 137.416 137.541 137.626 137.741 137.848 137.946 138.071 138.173 138.278 138.391 138.508 138.628 138.738 138.828 138.926 139.041 139.121 139.201 139.298 139.383 139.486 139.543 139.668 139.776 139.901 140.013 140.121 140.201 140.311 140.423 140.523 140.638 140.731 140.883 140.983 141.106 141.216 141.348 141.458 141.586 141.688 141.811 141.921 142.043 142.176 142.286 142.381 142.468 142.533 142.621 142.723 142.803 142.866 142.936 143.021 143.096 143.238 143.306 143.423 143.523 143.626 143.721 143.796 143.876 143.981 144.043 144.121 144.203 144.288 144.353 144.466 144.523 144.606 144.681 144.763 144.806 144.851 144.931 144.978 145.056 145.098 145.141 145.188 145.253 145.303 145.351 145.401 145.431 145.473 145.533 145.561 145.581 145.578 145.563 145.538 145.568 145.616 145.658 145.686 145.746 146.381 146.368 145.648 145.733 145.766 145.798 145.843 145.866
113.611 113.533 113.438 113.276 113.166 113.038 112.896 112.836 112.771 112.748 112.763 112.761 112.926 113.741 113.088 113.368 113.783 114.311 114.786 114.838 115.241 115.831 116.028 115.751 116.496 115.168 115.211 115.306 115.388 115.476 115.668 115.518 115.603 115.698 115.658 115.713 115.733 115.778 115.901 115.893 115.996 116.081 115.813 115.736 115.703 115.716 115.683 115.626 115.608 115.736 115.966 116.393 116.951 116.483 116.153 116.211 116.358 117.023 117.866 116.868 116.873 116.906 116.881 116.876 116.871 116.951 117.058 117.171 117.536 118.776 120.661 120.948 121.141 121.066 120.858 118.223 117.363 118.496 119.068 117.611 118.126 118.471 118.313 118.473 119.603 119.068 118.978 118.226 117.558 117.651 117.758 117.861 117.946 118.033 118.131 118.213 118.276 118.366 118.461 118.568 118.611 118.653 118.718 118.776 118.846 118.898 118.973 119.043 119.103 119.158 119.216 119.303 119.373 119.466 119.578 119.651 119.728 119.938 120.271 120.858 121.638 124.621 124.523 123.446 122.776 121.226 121.241 122.363 123.998 123.413 123.163 124.026 124.118 123.423 123.558 123.651 123.858 124.011 125.136 125.761 124.853 129.923 128.951 126.571 125.486 125.511 125.903 125.691 125.746 125.806 125.158 124.891 125.518 126.203 126.768 126.683 126.533 127.813 126.926 126.006 125.096 125.193 125.196 125.186 125.141 125.268 126.186 126.778 128.138 128.111 128.246 128.396 128.523 128.636 128.758 128.886 128.958 129.031 129.106 129.168 129.261 129.383 129.501 129.616 129.666 129.698 129.743 129.821 129.931 130.028 130.166 130.236 130.311 130.441 130.576 130.686 130.818 130.951 131.056 131.168 131.238 131.296 131.396 131.476 131.538 131.636 131.791 131.866 132.013 132.148 132.216 132.316 132.461 132.556 132.646 132.738 132.858 132.943 133.006 133.083 133.188 133.238 133.311 133.336 133.411 133.486 133.628 133.728 133.823 133.911 134.053 134.141 134.226 134.338 134.398 134.528 134.698 134.871 135.011 135.111 135.181 135.273 135.363 135.448 135.503 135.643 137.193 136.568 135.888 136.018 136.116 136.233 136.346 136.446 136.548 136.661 136.751 136.868 136.943 137.031 137.103 137.208 137.258 137.341 137.441 137.548 137.638 137.733 137.826 137.936 138.048 138.171 138.286 138.388 138.513 138.608 138.733 138.826 138.928 139.036 139.138 139.208 139.286 139.383 139.496 139.548 139.668 139.771 139.878 139.983 140.093 140.203 140.306 140.418 140.511 140.603 140.723 140.831 140.956 141.086 141.188 141.313 141.436 141.586 141.698 141.818 141.903 142.046 142.166 142.293 142.401 142.506 142.586 142.656 142.758 142.836 142.913 142.991 143.066 143.153 143.233 143.321 143.408 143.531 143.623 143.728 143.836 143.896 143.991 144.083 144.171 144.221 144.311 144.383 144.466 144.571 144.628 144.703 144.786 144.863 144.931 144.988 145.053 145.096 145.158 145.201 145.246 145.291 145.346 145.381 145.453 145.496 145.511 145.556 145.606 145.636 145.661 145.651 145.636 145.611 145.626 145.631 145.696 145.748 145.758 146.088 146.803 145.831 145.723 145.803 145.816 145.861 145.888
113.278 113.156 113.026 112.823 112.688 112.691 112.636 112.663 112.691 112.706 113.383 113.198 114.683 116.226 114.091 114.736 115.563 114.886 114.936 115.056 115.101 115.011 115.016 115.243 115.208 115.101 115.151 115.213 115.263 115.331 115.376 115.406 115.481 115.526 115.563 115.591 115.643 115.708 115.751 115.746 115.783 115.753 115.643 115.676 115.701 115.663 115.648 115.653 115.783 116.343 116.948 117.283 117.241 116.366 116.073 116.621 116.606 117.738 119.386 117.566 116.858 116.978 116.893 116.873 116.846 116.868 116.943 118.081 120.718 120.886 121.161 121.143 120.911 120.448 118.726 117.708 117.331 117.551 117.838 118.351 118.313 118.166 118.663 118.908 117.526 117.441 117.276 117.393 117.508 117.606 117.698 117.886 118.061 118.173 118.228 118.563 119.166 119.273 119.333 119.163 118.746 118.698 118.778 118.813 118.866 118.933 119.326 119.083 119.278 119.236 119.488 119.853 120.068 119.871 119.658 119.748 120.053 121.468 122.068 122.461 122.703 123.261 124.368 124.361 123.076 121.861 121.568 122.156 123.128 123.216 123.118 123.643 124.433 123.868 123.746 123.731 123.968 124.441 125.923 124.493 124.116 125.706 125.418 126.503 125.788 125.613 125.671 125.711 125.876 125.953 126.011 125.963 126.441 127.906 127.433 127.968 126.788 127.323 127.023 126.748 125.563 125.206 125.248 125.223 125.198 125.118 126.388 126.588 128.203 128.218 128.361 128.448 128.598 128.721 128.868 128.986 129.061 129.131 129.211 129.281 129.373 129.461 129.596 129.721 129.781 129.823 129.861 129.921 130.013 130.111 130.238 130.346 130.421 130.551 130.676 130.803 130.918 131.053 131.158 131.276 131.343 131.423 131.493 131.606 131.663 131.768 131.876 131.991 132.128 132.258 132.316 132.418 132.556 132.656 132.758 132.841 132.933 133.053 133.118 133.211 133.281 133.391 133.418 133.476 133.523 133.593 133.726 133.846 133.918 134.028 134.153 134.248 134.358 134.456 134.508 134.628 134.788 134.938 135.091 135.238 135.291 135.373 135.461 135.551 135.623 135.676 136.761 137.011 135.991 136.101 136.211 136.341 136.453 136.556 136.668 136.796 136.866 136.963 137.078 137.151 137.218 137.316 137.373 137.476 137.566 137.673 137.758 137.868 137.953 138.061 138.158 138.276 138.391 138.498 138.611 138.721 138.826 138.948 139.051 139.141 139.246 139.323 139.408 139.496 139.598 139.661 139.758 139.876 139.998 140.096 140.193 140.298 140.418 140.516 140.611 140.716 140.841 140.951 141.051 141.188 141.321 141.426 141.561 141.678 141.818 141.921 142.043 142.166 142.278 142.411 142.518 142.638 142.703 142.786 142.891 142.966 143.051 143.111 143.176 143.253 143.361 143.436 143.561 143.643 143.743 143.836 143.951 144.031 144.118 144.201 144.273 144.338 144.411 144.478 144.568 144.663 144.741 144.833 144.893 144.966 145.046 145.083 145.158 145.226 145.273 145.303 145.328 145.398 145.426 145.491 145.548 145.571 145.606 145.653 145.678 145.721 145.713 145.733 145.743 145.726 145.711 145.713 145.741 145.791 145.823 145.916 146.631 146.176 145.718 145.833 145.846 145.871 145.916
112.916 112.716 112.558 112.481 112.558 112.976 112.751 113.081 113.041 113.101 113.506 114.093 116.271 115.358 114.523 114.298 114.296 114.443 114.356 114.511 114.583 114.586 114.663 114.811 114.923 115.066 115.126 115.178 115.253 115.253 115.261 115.336 115.418 115.438 115.461 115.538 115.588 115.638 115.628 115.588 115.541 115.523 115.578 115.598 115.638 115.661 115.771 116.233 116.846 117.296 117.241 116.973 116.683 116.053 116.033 116.323 116.886 116.876 118.686 117.708 116.833 117.106 117.241 116.896 116.823 116.811 116.878 117.493 120.761 121.166 120.961 120.491 119.401 117.313 117.433 117.481 117.331 118.523 120.636 119.396 116.756 116.551 116.796 116.873 116.958 117.051 117.176 117.321 117.646 118.178 118.463 119.768 120.123 121.351 121.773 121.871 122.226 121.178 122.273 121.958 119.691 119.011 119.163 119.416 119.231 120.861 122.613 122.648 122.343 122.211 122.408 122.583 122.626 121.493 119.918 119.976 120.996 122.611 123.706 122.008 122.008 122.128 123.773 123.213 122.731 122.638 121.941 122.271 122.906 123.001 123.168 124.191 124.586 125.116 123.641 123.871 124.018 124.301 124.791 124.736 124.681 125.063 125.566 126.698 127.271 125.768 125.838 125.901 125.991 126.088 126.188 126.316 127.018 127.163 126.926 127.638 126.823 128.321 128.446 127.506 126.208 125.183 125.221 125.246 125.238 125.223 126.218 126.528 127.913 128.336 128.428 128.576 128.691 128.813 128.941 129.081 129.163 129.263 129.316 129.393 129.471 129.551 129.668 129.783 129.861 129.946 129.991 130.046 130.126 130.236 130.326 130.438 130.528 130.643 130.771 130.906 131.026 131.146 131.261 131.366 131.458 131.521 131.596 131.701 131.776 131.861 131.968 132.098 132.211 132.326 132.431 132.531 132.651 132.766 132.853 132.948 133.053 133.151 133.221 133.298 133.408 133.498 133.533 133.578 133.643 133.716 133.828 133.941 134.026 134.153 134.253 134.346 134.468 134.558 134.658 134.741 134.861 135.018 135.196 135.341 135.413 135.496 135.573 135.671 135.776 135.821 136.331 137.283 136.188 136.191 136.348 136.448 136.583 136.681 136.783 136.881 136.978 137.071 137.183 137.263 137.361 137.441 137.513 137.608 137.686 137.776 137.873 137.976 138.066 138.173 138.286 138.383 138.503 138.613 138.703 138.821 138.948 139.071 139.156 139.251 139.343 139.431 139.503 139.616 139.688 139.783 139.868 139.976 140.071 140.198 140.296 140.411 140.511 140.611 140.698 140.828 140.941 141.036 141.201 141.291 141.421 141.533 141.658 141.798 141.898 142.036 142.153 142.278 142.396 142.513 142.638 142.741 142.833 142.916 143.011 143.103 143.156 143.228 143.301 143.383 143.473 143.551 143.656 143.748 143.851 143.958 144.061 144.151 144.226 144.316 144.383 144.461 144.511 144.586 144.673 144.758 144.848 144.926 144.996 145.073 145.143 145.203 145.258 145.316 145.363 145.403 145.443 145.471 145.533 145.563 145.638 145.663 145.698 145.721 145.761 145.781 145.793 145.803 145.826 145.808 145.771 145.773 145.808 145.833 145.876 145.886 146.338 146.558 145.791 145.826 145.871 145.898 145.943
112.583 112.401 112.313 113.158 113.781 113.083 113.061 113.366 113.393 113.866 114.706 114.491 114.766 114.543 114.338 114.218 114.126 114.178 114.213 114.278 114.373 114.563 114.731 114.716 114.831 115.183 115.188 115.566 115.721 115.728 115.263 115.263 115.366 115.408 115.401 115.403 115.451 115.458 115.428 115.396 115.278 115.373 115.518 115.558 115.608 115.986 116.676 117.188 117.178 116.803 116.448 116.013 115.743 115.981 116.021 116.191 117.733 116.893 116.956 116.693 116.738 116.981 117.226 116.963 116.833 116.756 116.861 117.333 119.536 120.643 119.738 117.888 117.323 117.351 117.266 117.858 118.791 118.298 118.008 117.058 116.633 116.653 116.686 116.766 116.851 117.063 117.746 119.118 119.473 121.201 121.431 122.151 122.441 122.528 122.553 122.503 122.386 122.356 120.818 121.686 119.581 119.181 119.473 119.813 119.443 122.138 123.433 123.186 122.566 122.811 122.828 122.843 122.866 122.641 120.108 120.178 121.368 122.021 122.401 122.073 121.758 121.776 121.891 122.128 125.036 127.011 123.681 122.473 122.853 123.028 123.178 124.838 125.688 125.548 124.051 124.303 124.081 124.323 124.713 125.423 125.083 126.456 125.891 127.678 128.481 126.258 125.973 126.146 126.111 126.203 126.313 126.408 126.543 126.648 126.908 127.398 130.191 130.811 129.503 127.656 126.741 125.186 125.243 125.358 125.553 125.861 126.578 126.726 127.688 128.501 128.516 128.678 128.791 128.906 129.038 129.176 129.286 129.361 129.431 129.516 129.578 129.633 129.761 129.896 129.991 130.036 130.101 130.143 130.228 130.333 130.446 130.553 130.641 130.726 130.876 131.001 131.118 131.248 131.378 131.458 131.538 131.623 131.691 131.798 131.901 131.966 132.091 132.191 132.313 132.448 132.563 132.666 132.758 132.883 132.976 133.043 133.148 133.261 133.338 133.391 133.513 133.603 133.666 133.701 133.786 133.833 133.938 134.051 134.148 134.231 134.358 134.466 134.571 134.666 134.761 134.873 134.966 135.116 135.301 135.456 135.546 135.618 135.696 135.783 135.891 135.941 136.198 137.461 136.556 136.298 136.443 136.571 136.678 136.793 136.898 137.008 137.103 137.201 137.298 137.396 137.468 137.561 137.648 137.718 137.788 137.906 138.011 138.093 138.193 138.298 138.396 138.498 138.626 138.736 138.841 138.933 139.058 139.168 139.278 139.358 139.453 139.551 139.648 139.733 139.803 139.878 139.988 140.078 140.178 140.291 140.416 140.513 140.623 140.721 140.821 140.936 141.038 141.148 141.276 141.383 141.511 141.633 141.763 141.911 142.021 142.141 142.251 142.383 142.503 142.618 142.741 142.846 142.951 143.031 143.123 143.236 143.281 143.368 143.441 143.523 143.613 143.683 143.768 143.863 143.961 144.076 144.153 144.253 144.333 144.426 144.506 144.563 144.658 144.708 144.773 144.853 144.953 145.023 145.096 145.191 145.248 145.308 145.346 145.413 145.461 145.528 145.548 145.583 145.628 145.658 145.716 145.761 145.796 145.798 145.836 145.853 145.861 145.878 145.881 145.883 145.858 145.851 145.846 145.883 145.931 145.918 146.046 146.916 145.988 145.826 145.928 145.953 145.941
112.363 112.213 112.428 113.288 113.043 112.568 112.456 113.323 113.768 113.913 114.453 114.593 114.386 114.221 114.108 114.026 114.063 114.138 114.278 114.408 114.653 114.921 115.161 115.113 114.918 114.943 115.051 115.056 115.313 115.416 115.468 115.386 115.476 115.403 115.331 115.231 115.246 115.298 115.328 115.288 115.271 115.336 115.483 115.653 116.071 116.706 117.003 116.913 116.378 115.801 115.516 115.633 116.173 116.438 116.068 115.913 117.006 117.348 116.668 116.553 116.816 117.246 117.033 116.731 116.703 116.668 116.651 117.108 117.211 117.848 117.333 117.266 117.348 117.728 117.671 117.826 117.318 116.341 116.423 116.516 116.513 116.526 116.603 116.866 117.351 117.666 118.333 121.461 121.561 121.421 121.788 122.103 121.316 120.753 120.916 120.203 120.241 120.083 119.586 119.661 119.403 119.371 119.461 120.038 120.636 122.433 123.193 123.158 122.788 123.043 123.071 123.048 123.071 121.593 120.258 120.356 121.021 122.111 121.806 121.796 121.886 121.751 121.793 121.928 127.686 129.821 128.421 122.998 122.918 123.056 123.196 124.451 126.191 126.143 124.161 123.773 124.048 124.393 124.708 125.451 125.351 125.766 127.473 131.423 130.331 126.511 126.073 126.153 126.236 126.338 126.453 126.543 126.591 126.698 126.918 128.428 130.206 130.993 130.333 128.568 127.178 125.931 125.726 126.016 126.168 126.373 126.858 126.921 127.336 128.678 128.613 128.746 128.888 129.008 129.133 129.276 129.411 129.481 129.548 129.633 129.718 129.771 129.846 129.988 130.116 130.161 130.243 130.306 130.361 130.431 130.548 130.666 130.728 130.818 130.936 131.086 131.211 131.331 131.433 131.531 131.658 131.733 131.813 131.926 132.036 132.096 132.198 132.316 132.418 132.561 132.693 132.788 132.868 132.998 133.083 133.181 133.251 133.371 133.468 133.536 133.618 133.728 133.783 133.841 133.903 133.953 134.028 134.158 134.258 134.348 134.468 134.583 134.673 134.783 134.881 134.988 135.083 135.221 135.383 135.553 135.681 135.711 135.816 135.898 136.008 136.063 136.151 137.468 137.316 136.416 136.553 136.683 136.796 136.916 137.028 137.118 137.238 137.341 137.436 137.516 137.598 137.691 137.781 137.868 137.921 138.036 138.123 138.221 138.326 138.408 138.511 138.628 138.761 138.856 138.956 139.043 139.183 139.273 139.381 139.486 139.583 139.656 139.756 139.831 139.921 140.003 140.093 140.206 140.291 140.383 140.511 140.616 140.723 140.831 140.928 141.038 141.138 141.251 141.403 141.503 141.638 141.738 141.861 141.991 142.133 142.258 142.388 142.481 142.628 142.743 142.851 142.956 143.076 143.141 143.263 143.341 143.413 143.498 143.591 143.648 143.731 143.808 143.893 143.976 144.091 144.166 144.278 144.371 144.443 144.553 144.618 144.673 144.758 144.838 144.883 144.986 145.056 145.128 145.198 145.283 145.358 145.403 145.466 145.526 145.581 145.611 145.638 145.691 145.711 145.771 145.801 145.843 145.846 145.893 145.948 145.938 145.941 145.958 145.976 145.961 145.951 145.921 145.903 145.931 145.978 146.021 146.033 146.706 146.536 145.861 145.946 145.956 145.978
112.201 112.071 112.088 113.118 112.613 112.296 112.426 113.518 113.756 113.938 114.178 114.001 113.896 113.921 114.128 114.158 114.118 114.173 114.301 114.463 114.751 115.103 115.276 115.053 115.073 115.036 115.068 115.233 115.273 115.063 115.028 115.023 115.108 115.031 114.916 114.988 115.153 115.228 115.241 115.271 115.318 115.468 115.878 116.436 116.806 116.741 116.391 115.933 115.428 115.323 115.616 116.361 116.908 116.556 116.231 115.978 115.958 116.383 116.353 116.433 116.841 116.791 116.751 116.543 116.576 116.598 116.601 116.613 116.758 117.026 117.031 117.151 117.678 118.771 119.201 118.763 116.143 116.381 116.391 116.398 116.423 116.513 117.531 119.451 118.361 118.281 118.446 120.356 121.461 121.391 120.818 119.841 119.458 118.993 118.978 119.006 119.073 119.191 119.293 119.428 119.498 119.583 119.663 119.813 119.973 120.726 121.148 121.311 121.061 121.851 120.978 120.866 120.946 120.421 120.433 120.563 120.768 121.758 121.746 121.756 121.718 121.738 121.781 121.916 124.948 127.851 125.783 124.573 126.546 126.711 127.821 127.891 128.866 126.371 124.233 123.551 124.071 124.408 125.201 125.036 125.333 128.301 134.203 135.873 134.868 130.463 126.351 126.241 126.363 126.456 126.528 126.573 126.646 126.763 126.963 127.423 129.398 130.656 130.846 129.816 127.631 126.971 126.311 126.433 126.596 126.973 127.396 127.376 127.216 128.801 128.711 128.851 128.986 129.123 129.251 129.398 129.498 129.591 129.668 129.751 129.836 129.901 129.973 130.063 130.198 130.273 130.373 130.401 130.446 130.531 130.623 130.728 130.821 130.911 131.021 131.156 131.278 131.416 131.533 131.653 131.763 131.841 131.918 132.021 132.123 132.201 132.306 132.441 132.551 132.676 132.806 132.918 133.018 133.111 133.198 133.298 133.358 133.458 133.583 133.638 133.731 133.843 133.916 133.981 134.046 134.081 134.131 134.293 134.398 134.468 134.588 134.688 134.806 134.921 134.986 135.076 135.213 135.318 135.486 135.666 135.778 135.851 135.943 136.046 136.136 136.216 136.258 137.391 137.666 136.536 136.658 136.811 136.943 137.048 137.116 137.258 137.373 137.466 137.586 137.668 137.746 137.816 137.906 137.998 138.076 138.158 138.253 138.343 138.446 138.541 138.643 138.763 138.878 138.961 139.086 139.198 139.293 139.406 139.511 139.621 139.693 139.783 139.878 139.946 140.036 140.133 140.218 140.321 140.416 140.518 140.618 140.741 140.826 140.953 141.048 141.146 141.258 141.363 141.478 141.608 141.741 141.843 141.993 142.098 142.233 142.371 142.496 142.618 142.721 142.846 142.968 143.086 143.203 143.276 143.363 143.466 143.523 143.608 143.688 143.766 143.843 143.921 144.008 144.091 144.183 144.281 144.393 144.481 144.576 144.666 144.731 144.788 144.868 144.913 145.008 145.081 145.148 145.216 145.303 145.363 145.443 145.506 145.571 145.616 145.656 145.708 145.726 145.773 145.813 145.856 145.883 145.896 145.948 145.976 146.021 146.001 146.038 146.051 146.038 146.051 146.046 146.001 145.983 145.981 146.026 146.076 146.053 146.396 147.013 146.016 145.918 145.983 146.003
111.983 111.858 111.551 112.296 112.231 112.666 113.716 113.478 113.811 114.218 114.246 113.966 114.081 114.353 114.453 114.476 114.573 114.413 114.288 114.326 114.408 114.618 114.701 114.796 114.926 115.006 115.086 114.823 114.791 114.891 115.043 115.058 115.106 115.073 114.978 115.013 115.113 115.168 115.183 115.278 115.666 116.148 116.663 116.676 116.301 115.881 115.573 115.293 115.453 115.508 115.473 116.516 116.536 116.113 115.691 115.853 116.053 116.158 116.296 116.423 116.513 116.571 116.453 116.436 116.478 116.508 116.493 116.476 116.458 116.866 117.298 117.938 117.793 117.963 116.778 116.081 116.246 116.251 116.291 116.308 116.641 119.676 122.481 122.991 120.383 118.938 119.133 119.593 121.071 119.938 119.003 118.973 118.978 119.003 119.038 119.083 119.426 119.411 119.756 119.843 119.586 119.673 119.808 119.923 120.058 120.283 120.671 121.046 120.698 121.646 120.483 120.476 120.441 120.473 120.981 121.876 121.163 121.188 121.583 121.726 121.748 121.763 121.906 122.153 122.463 123.243 123.736 125.306 129.396 129.521 129.636 129.671 129.676 126.646 124.743 123.573 124.118 124.786 126.788 128.158 127.176 128.476 133.756 135.716 135.756 132.803 126.496 126.326 126.403 126.506 126.553 126.601 126.728 126.841 127.021 127.071 128.188 130.103 129.403 127.658 128.373 126.828 126.506 127.183 127.501 127.628 127.776 128.131 127.216 128.673 128.906 128.946 129.098 129.216 129.353 129.476 129.631 129.723 129.796 129.888 129.966 130.031 130.123 130.188 130.323 130.426 130.516 130.538 130.531 130.606 130.723 130.826 130.943 131.048 131.118 131.243 131.391 131.518 131.628 131.758 131.873 131.941 132.063 132.143 132.268 132.338 132.443 132.551 132.696 132.788 132.928 133.038 133.108 133.213 133.338 133.401 133.478 133.576 133.698 133.761 133.861 133.976 134.048 134.093 134.158 134.231 134.288 134.406 134.513 134.598 134.698 134.811 134.936 135.051 135.156 135.231 135.323 135.431 135.608 135.768 135.896 135.993 136.068 136.168 136.251 136.363 136.396 136.853 137.871 137.036 136.791 136.931 137.063 137.173 137.268 137.396 137.498 137.621 137.723 137.828 137.883 137.946 138.063 138.138 138.228 138.301 138.376 138.478 138.568 138.678 138.786 138.881 139.006 139.096 139.201 139.306 139.426 139.531 139.623 139.736 139.818 139.923 140.021 140.083 140.153 140.231 140.328 140.446 140.523 140.623 140.736 140.833 140.951 141.051 141.151 141.248 141.371 141.478 141.586 141.726 141.818 141.961 142.088 142.223 142.356 142.478 142.608 142.726 142.863 142.956 143.093 143.213 143.316 143.406 143.476 143.581 143.648 143.746 143.798 143.893 143.956 144.053 144.121 144.206 144.306 144.388 144.501 144.603 144.686 144.758 144.846 144.913 144.983 145.028 145.108 145.178 145.241 145.306 145.403 145.463 145.556 145.603 145.653 145.711 145.756 145.818 145.836 145.866 145.896 145.941 145.973 145.981 146.013 146.023 146.066 146.088 146.116 146.103 146.108 146.123 146.126 146.101 146.096 146.056 146.076 146.128 146.143 146.183 147.033 146.336 145.921 146.026 146.043
111.646 111.621 111.428 111.468 112.956 112.431 113.626 113.236 113.631 113.973 114.093 114.228 114.611 114.261 114.743 114.266 114.618 114.563 114.396 114.328 114.371 114.448 114.526 114.601 114.633 114.688 114.686 114.876 114.886 114.878 114.961 115.021 115.081 115.083 114.996 115.048 115.108 115.316 115.618 115.836 116.326 116.523 116.231 115.841 115.438 115.311 115.443 115.776 116.526 116.663 115.753 115.713 115.746 115.676 115.863 115.903 115.983 116.096 116.201 116.286 116.443 116.471 116.388 116.416 116.421 116.398 116.408 116.351 116.333 116.756 118.076 117.866 116.848 116.106 116.113 116.146 116.131 116.153 116.313 117.286 120.221 122.916 123.558 122.021 119.826 121.316 119.501 119.326 121.386 120.226 119.156 119.071 119.046 119.101 119.121 119.196 123.023 124.701 125.606 124.138 120.333 119.876 119.918 120.041 120.186 120.403 121.181 121.871 121.356 122.098 120.598 120.598 120.551 120.591 120.933 122.571 122.201 121.393 121.678 121.998 122.198 122.388 122.581 122.753 122.796 122.871 124.341 124.541 129.436 129.226 129.126 128.943 128.778 127.353 125.306 123.648 124.308 127.026 132.673 133.171 131.646 126.838 131.721 134.751 134.823 130.668 127.016 126.396 126.471 126.541 126.641 126.726 126.831 126.956 127.083 127.191 127.443 127.898 127.866 128.666 128.826 127.588 127.556 127.736 127.786 127.913 128.506 128.538 127.288 128.438 129.356 129.081 129.193 129.346 129.471 129.598 129.733 129.846 129.921 130.003 130.088 130.148 130.228 130.308 130.451 130.568 130.651 130.658 130.671 130.726 130.846 130.931 131.073 131.161 131.211 131.363 131.503 131.628 131.768 131.886 131.993 132.103 132.188 132.268 132.378 132.488 132.556 132.686 132.816 132.931 133.056 133.158 133.243 133.358 133.473 133.558 133.631 133.721 133.818 133.911 134.008 134.111 134.218 134.266 134.313 134.388 134.443 134.523 134.668 134.738 134.828 134.921 135.031 135.158 135.268 135.371 135.446 135.573 135.721 135.871 136.028 136.128 136.211 136.313 136.396 136.498 136.543 136.641 137.858 137.518 136.926 137.048 137.198 137.306 137.428 137.553 137.621 137.766 137.866 137.963 138.028 138.121 138.201 138.283 138.368 138.433 138.536 138.628 138.731 138.798 138.936 139.016 139.108 139.238 139.338 139.443 139.556 139.663 139.778 139.846 139.956 140.048 140.153 140.223 140.276 140.371 140.468 140.543 140.651 140.756 140.863 140.956 141.068 141.171 141.271 141.381 141.488 141.578 141.706 141.828 141.931 142.073 142.183 142.313 142.433 142.591 142.726 142.846 142.963 143.086 143.208 143.311 143.433 143.518 143.598 143.696 143.786 143.858 143.928 144.026 144.111 144.153 144.241 144.326 144.431 144.503 144.613 144.721 144.793 144.868 144.968 145.023 145.061 145.141 145.201 145.266 145.331 145.418 145.491 145.586 145.633 145.696 145.768 145.818 145.826 145.891 145.943 145.948 145.998 146.013 146.028 146.078 146.106 146.113 146.131 146.171 146.188 146.201 146.193 146.211 146.193 146.196 146.143 146.143 146.146 146.181 146.208 146.236 146.733 146.841 146.026 146.031 146.051
