ncols 375
nrows 31
xllcorner    251012
yllcorner    137568
cellsize     2
NODATA_value -9999
114.317 114.402 114.472 114.549 114.637 114.714 114.799 114.864 114.942 115.024 115.104 115.172 115.234 115.297 115.379 115.427 115.489 115.552 115.622 115.704 115.777 115.859 115.944 116.019 116.087 116.162 116.214 116.244 116.262 116.272 116.229 116.199 116.212 116.414 117.592 117.782 116.649 116.614 116.604 116.622 116.649 116.657 116.667 116.672 116.692 116.699 116.687 116.722 116.709 116.724 116.722 116.732 116.759 116.767 116.774 116.757 116.754 116.744 116.749 116.749 116.749 116.752 116.757 116.747 116.762 116.779 116.774 116.764 116.792 116.804 116.819 116.814 116.822 116.837 116.872 116.867 116.877 116.889 116.914 116.919 116.942 116.942 116.934 116.947 116.952 116.939 116.952 116.972 116.969 116.944 116.932 116.927 116.927 116.919 116.892 116.879 116.864 116.839 116.834 116.832 116.807 116.774 116.712 116.667 116.624 116.624 116.592 116.572 116.534 116.502 116.449 116.389 116.302 116.234 116.197 117.062 117.369 116.972 116.904 116.794 116.704 116.659 116.607 116.519 116.482 116.452 116.422 116.367 116.314 116.257 116.187 116.127 116.074 116.057 116.019 115.969 115.914 115.894 115.829 115.797 115.727 115.687 115.614 115.524 115.452 115.374 115.279 115.172 115.054 114.932 114.829 114.664 114.544 114.444 114.297 114.142 113.994 113.844 113.739 113.582 113.459 113.394 113.299 113.174 113.089 112.969 112.864 112.747 112.622 112.519 112.984 113.407 112.342 112.212 112.169 112.347 112.369 112.592 113.434 114.507 115.014 114.519 114.549 114.612 114.889 115.174 115.364 115.557 115.782 115.967 116.229 116.429 116.637 116.867 117.044 117.211 117.379 117.539 117.701 117.831 117.981 118.124 118.241 118.364 118.491 118.614 118.709 118.846 118.954 119.041 119.149 119.259 119.371 119.481 119.594 119.746 119.891 120.056 120.219 120.411 120.586 120.786 121.014 121.229 121.466 121.706 121.956 122.224 122.494 122.761 123.059 123.306 123.589 123.856 124.144 124.419 124.661 124.916 125.179 125.429 125.661 125.894 126.099 126.309 126.504 126.701 126.909 127.089 127.299 127.469 127.629 127.786 127.966 128.159 128.776 129.956 129.829 129.466 129.646 129.796 129.951 130.069 130.196 130.274 130.454 130.576 130.671 130.829 130.919 131.074 131.194 131.314 131.439 131.554 131.621 131.744 131.829 131.949 132.044 132.151 132.226 132.316 132.419 132.466 132.541 132.624 132.666 132.731 132.814 132.846 132.901 132.989 133.026 133.076 133.079 133.079 133.091 133.104 133.089 133.086 133.099 133.079 133.069 133.069 133.064 133.059 133.026 133.004 132.971 132.946 132.926 132.894 132.851 132.794 132.759 132.674 132.651 132.624 132.554 132.491 132.424 132.396 132.339 132.291 132.216 132.156 132.081 132.054 131.999 132.459 132.561 131.294 131.284 131.351 131.366 131.291 131.244 131.164 131.074 130.956 130.839 130.734 130.624 130.546 130.414 130.346 130.221 130.136 130.034 129.954 129.859 129.776 129.659 129.541 129.449 129.331 129.209 129.099 128.969 128.836 128.691 128.566 128.456 128.291 128.179 128.014 127.901 127.744 127.596 127.466 127.299 127.166 127.004 126.846 126.716
114.029 114.112 114.169 114.267 114.352 114.437 114.519 114.602 114.677 114.767 114.814 114.882 114.959 115.019 115.084 115.139 115.217 115.259 115.337 115.409 115.502 115.579 115.674 115.719 115.804 115.869 115.932 115.969 115.969 115.979 115.952 115.917 115.902 116.004 117.094 117.392 116.359 116.332 116.292 116.312 116.322 116.344 116.342 116.357 116.369 116.377 116.377 116.407 116.407 116.417 116.407 116.424 116.432 116.444 116.442 116.432 116.407 116.422 116.439 116.409 116.399 116.407 116.414 116.394 116.412 116.427 116.429 116.427 116.449 116.447 116.462 116.454 116.464 116.484 116.507 116.524 116.514 116.532 116.562 116.554 116.599 116.609 116.597 116.617 116.617 116.627 116.644 116.634 116.649 116.614 116.602 116.597 116.582 116.599 116.582 116.554 116.529 116.517 116.477 116.512 116.469 116.457 116.412 116.364 116.334 116.312 116.299 116.269 116.244 116.234 116.214 116.179 116.142 116.022 115.959 116.054 116.239 116.299 116.502 116.584 116.459 116.392 116.322 116.252 116.227 116.204 116.174 116.112 116.069 115.994 115.939 115.904 115.854 115.794 115.757 115.737 115.664 115.642 115.582 115.534 115.477 115.429 115.349 115.267 115.209 115.114 115.027 114.912 114.807 114.672 114.542 114.417 114.299 114.154 114.049 113.909 113.764 113.629 113.524 113.379 113.287 113.204 113.084 112.994 112.897 112.799 112.677 112.554 112.449 112.579 114.122 112.697 112.089 113.387 112.227 112.229 112.254 113.199 113.919 114.534 114.672 114.312 114.469 114.602 114.864 115.122 115.324 115.537 115.737 115.944 116.189 116.422 116.609 116.812 117.001 117.169 117.346 117.511 117.676 117.806 117.931 118.086 118.214 118.321 118.456 118.579 118.676 118.826 118.929 119.024 119.134 119.241 119.364 119.456 119.574 119.749 119.894 120.054 120.209 120.389 120.564 120.766 120.986 121.216 121.459 121.709 121.941 122.206 122.484 122.749 122.999 123.279 123.551 123.824 124.094 124.361 124.646 124.886 125.131 125.364 125.601 125.816 126.056 126.246 126.446 126.666 126.861 127.061 127.239 127.419 127.564 127.759 127.936 128.279 129.496 129.906 129.416 129.459 129.626 129.836 129.964 130.064 130.166 130.329 130.449 130.574 130.674 130.834 130.959 131.101 131.216 131.334 131.451 131.544 131.654 131.764 131.874 131.989 132.086 132.196 132.274 132.361 132.454 132.506 132.576 132.646 132.721 132.794 132.861 132.926 132.961 133.039 133.086 133.081 133.116 133.141 133.141 133.159 133.139 133.131 133.131 133.136 133.139 133.141 133.121 133.116 133.089 133.071 133.029 133.036 132.976 132.934 132.901 132.861 132.801 132.751 132.726 132.656 132.579 132.531 132.469 132.419 132.371 132.316 132.246 132.151 132.106 132.076 132.029 132.544 132.266 131.286 131.289 131.404 131.361 131.281 131.209 131.146 131.044 130.931 130.776 130.691 130.611 130.486 130.399 130.316 130.201 130.119 130.024 129.954 129.841 129.719 129.641 129.524 129.401 129.294 129.174 129.051 128.939 128.799 128.651 128.531 128.391 128.264 128.119 127.961 127.834 127.679 127.544 127.384 127.234 127.074 126.936 126.786 126.639
113.727 113.822 113.889 113.982 114.064 114.149 114.217 114.302 114.374 114.467 114.532 114.599 114.674 114.737 114.797 114.854 114.932 114.969 115.057 115.124 115.214 115.299 115.362 115.434 115.532 115.569 115.652 115.687 115.684 115.702 115.697 115.644 115.592 115.659 116.437 116.962 116.124 116.004 115.964 115.984 115.999 116.019 116.019 116.019 116.042 116.054 116.029 116.064 116.082 116.089 116.092 116.082 116.079 116.082 116.082 116.094 116.059 116.074 116.059 116.067 116.039 116.064 116.064 116.052 116.077 116.072 116.069 116.082 116.097 116.082 116.099 116.107 116.117 116.122 116.139 116.154 116.177 116.192 116.189 116.197 116.217 116.247 116.242 116.259 116.259 116.282 116.292 116.282 116.269 116.257 116.254 116.267 116.252 116.254 116.237 116.219 116.214 116.192 116.142 116.152 116.144 116.137 116.127 116.067 116.044 116.014 115.999 115.984 115.959 115.974 115.992 115.949 115.917 115.852 115.747 115.717 115.762 115.967 116.764 116.459 116.247 116.104 116.027 115.994 115.967 115.939 115.909 115.854 115.802 115.757 115.692 115.637 115.589 115.552 115.532 115.484 115.419 115.374 115.312 115.262 115.209 115.142 115.079 115.014 114.962 114.839 114.749 114.659 114.514 114.397 114.289 114.177 114.042 113.919 113.797 113.664 113.542 113.442 113.302 113.187 113.097 112.994 112.894 112.824 112.729 112.637 112.512 112.354 112.414 113.494 114.689 112.637 112.454 111.984 112.139 112.232 112.424 113.604 114.012 114.807 114.229 114.204 114.367 114.602 114.869 115.107 115.289 115.512 115.709 115.934 116.164 116.372 116.604 116.799 116.971 117.156 117.304 117.491 117.619 117.766 117.904 118.034 118.166 118.314 118.434 118.546 118.674 118.796 118.901 119.036 119.124 119.241 119.329 119.441 119.586 119.746 119.889 120.026 120.196 120.379 120.551 120.751 120.974 121.199 121.461 121.679 121.929 122.196 122.449 122.729 122.974 123.236 123.504 123.781 124.029 124.316 124.599 124.839 125.101 125.329 125.531 125.776 125.989 126.209 126.409 126.601 126.806 126.991 127.176 127.361 127.541 127.699 127.971 128.961 129.871 129.369 129.284 129.456 129.654 129.836 129.941 130.049 130.166 130.299 130.441 130.566 130.699 130.856 130.989 131.139 131.236 131.349 131.474 131.554 131.684 131.771 131.911 132.006 132.106 132.211 132.296 132.389 132.481 132.539 132.651 132.709 132.761 132.861 132.914 132.981 133.021 133.079 133.114 133.139 133.164 133.191 133.209 133.194 133.199 133.191 133.189 133.191 133.204 133.184 133.189 133.176 133.151 133.121 133.086 133.086 133.034 133.004 132.961 132.911 132.849 132.794 132.761 132.704 132.646 132.569 132.511 132.461 132.399 132.331 132.254 132.151 132.114 132.086 132.061 132.636 132.199 131.314 131.354 131.406 131.374 131.296 131.211 131.131 131.039 130.924 130.781 130.681 130.579 130.471 130.366 130.274 130.181 130.116 130.004 129.909 129.811 129.724 129.616 129.499 129.391 129.286 129.149 129.034 128.896 128.766 128.611 128.484 128.354 128.209 128.079 127.909 127.784 127.626 127.484 127.336 127.159 127.019 126.899 126.734 126.571
113.472 113.552 113.619 113.692 113.782 113.839 113.954 114.034 114.094 114.169 114.257 114.322 114.384 114.477 114.534 114.569 114.647 114.707 114.772 114.842 114.914 115.014 115.077 115.137 115.212 115.274 115.327 115.392 115.404 115.407 115.389 115.357 115.299 115.309 115.927 116.907 116.099 115.684 115.637 115.654 115.682 115.712 115.694 115.704 115.689 115.729 115.712 115.719 115.732 115.714 115.744 115.759 115.749 115.757 115.732 115.747 115.737 115.724 115.732 115.722 115.689 115.702 115.717 115.694 115.694 115.707 115.722 115.717 115.717 115.724 115.729 115.752 115.739 115.742 115.789 115.784 115.799 115.812 115.827 115.832 115.844 115.864 115.884 115.867 115.889 115.917 115.909 115.909 115.902 115.899 115.894 115.917 115.932 115.912 115.882 115.884 115.892 115.867 115.832 115.817 115.839 115.799 115.784 115.762 115.752 115.722 115.702 115.702 115.722 115.687 115.689 115.697 115.617 115.604 115.534 115.467 115.472 115.554 116.557 116.714 116.077 115.887 115.747 115.662 115.619 115.607 115.579 115.562 115.512 115.464 115.417 115.364 115.289 115.247 115.229 115.179 115.129 115.062 115.032 114.972 114.914 114.862 114.814 114.729 114.679 114.584 114.497 114.404 114.267 114.177 114.047 113.944 113.809 113.682 113.572 113.454 113.349 113.229 113.114 113.014 112.897 112.807 112.719 112.659 112.572 112.459 112.307 112.234 112.622 114.454 112.894 112.544 112.047 112.324 112.217 112.257 112.329 114.762 114.827 114.652 113.924 114.197 114.334 114.604 114.854 115.029 115.259 115.442 115.654 115.912 116.137 116.357 116.544 116.754 116.936 117.111 117.279 117.434 117.576 117.721 117.876 118.016 118.144 118.266 118.391 118.506 118.651 118.749 118.899 119.001 119.104 119.226 119.326 119.456 119.589 119.719 119.869 120.026 120.181 120.371 120.529 120.749 120.979 121.209 121.414 121.644 121.906 122.161 122.434 122.694 122.946 123.199 123.456 123.719 123.991 124.256 124.536 124.771 125.014 125.269 125.474 125.724 125.924 126.154 126.339 126.551 126.751 126.934 127.131 127.319 127.489 127.689 128.374 129.601 129.559 129.126 129.309 129.491 129.664 129.786 129.934 130.026 130.174 130.306 130.454 130.576 130.711 130.856 130.986 131.116 131.254 131.384 131.481 131.601 131.701 131.839 131.946 132.044 132.149 132.236 132.334 132.419 132.491 132.589 132.674 132.744 132.799 132.894 132.969 133.021 133.064 133.121 133.166 133.206 133.221 133.244 133.279 133.276 133.254 133.264 133.274 133.269 133.261 133.274 133.254 133.239 133.204 133.181 133.176 133.141 133.104 133.049 133.014 132.969 132.911 132.871 132.819 132.761 132.671 132.589 132.531 132.491 132.409 132.354 132.266 132.184 132.141 132.119 132.086 132.654 132.036 131.374 131.386 131.431 131.371 131.266 131.189 131.104 130.984 130.874 130.769 130.661 130.564 130.451 130.349 130.254 130.161 130.069 129.981 129.889 129.804 129.676 129.569 129.474 129.359 129.236 129.106 128.986 128.844 128.721 128.576 128.434 128.304 128.169 128.044 127.874 127.749 127.594 127.441 127.294 127.124 126.964 126.819 126.674 126.511
113.187 113.267 113.349 113.434 113.507 113.582 113.684 113.759 113.829 113.902 113.989 114.039 114.112 114.159 114.229 114.287 114.364 114.432 114.494 114.554 114.632 114.692 114.779 114.847 114.917 114.992 115.032 115.082 115.119 115.109 115.124 115.067 114.997 114.997 115.387 116.567 116.232 115.364 115.309 115.317 115.344 115.377 115.377 115.354 115.354 115.377 115.384 115.384 115.402 115.399 115.399 115.402 115.417 115.419 115.394 115.404 115.399 115.379 115.369 115.369 115.344 115.342 115.349 115.332 115.347 115.344 115.347 115.364 115.367 115.344 115.354 115.357 115.372 115.392 115.407 115.397 115.407 115.434 115.437 115.454 115.457 115.472 115.497 115.499 115.509 115.527 115.532 115.529 115.542 115.552 115.522 115.554 115.552 115.557 115.547 115.559 115.557 115.532 115.507 115.502 115.512 115.522 115.477 115.484 115.482 115.459 115.434 115.434 115.424 115.417 115.419 115.389 115.387 115.352 115.297 115.259 115.202 115.164 115.782 117.922 116.344 116.212 115.542 115.414 115.314 115.267 115.262 115.207 115.179 115.117 115.084 115.049 114.997 114.947 114.897 114.869 114.817 114.757 114.707 114.674 114.619 114.539 114.504 114.414 114.342 114.264 114.199 114.097 113.994 113.914 113.797 113.704 113.592 113.464 113.352 113.244 113.159 113.062 112.947 112.844 112.742 112.662 112.562 112.472 112.409 112.297 112.199 112.192 113.267 113.797 112.912 112.892 112.117 112.774 112.252 112.367 113.424 113.342 115.679 114.272 113.987 114.142 114.344 114.592 114.819 114.999 115.209 115.422 115.609 115.862 116.092 116.327 116.512 116.699 116.889 117.059 117.229 117.376 117.529 117.676 117.821 117.954 118.109 118.231 118.344 118.486 118.601 118.736 118.864 118.981 119.101 119.206 119.324 119.454 119.574 119.731 119.856 120.004 120.171 120.331 120.511 120.739 120.961 121.181 121.386 121.634 121.894 122.154 122.411 122.651 122.906 123.171 123.424 123.686 123.931 124.194 124.456 124.699 124.954 125.186 125.419 125.629 125.859 126.086 126.296 126.509 126.694 126.899 127.064 127.251 127.459 127.911 129.091 129.621 129.024 129.119 129.286 129.474 129.621 129.754 129.879 130.049 130.184 130.309 130.454 130.576 130.729 130.861 130.994 131.114 131.236 131.379 131.511 131.616 131.741 131.849 131.974 132.079 132.164 132.271 132.361 132.476 132.529 132.611 132.706 132.781 132.839 132.936 133.011 133.049 133.119 133.176 133.221 133.234 133.269 133.306 133.326 133.314 133.326 133.336 133.339 133.311 133.344 133.304 133.311 133.291 133.244 133.226 133.239 133.209 133.156 133.104 133.064 133.024 132.979 132.906 132.846 132.781 132.716 132.664 132.574 132.499 132.436 132.366 132.291 132.209 132.156 132.104 132.149 132.794 131.989 131.401 131.421 131.449 131.364 131.261 131.171 131.066 130.931 130.809 130.711 130.606 130.481 130.414 130.306 130.216 130.124 130.049 129.946 129.856 129.759 129.666 129.529 129.424 129.314 129.189 129.086 128.956 128.814 128.671 128.554 128.406 128.284 128.111 127.974 127.834 127.684 127.524 127.391 127.231 127.076 126.911 126.774 126.606 126.459
112.909 112.989 113.069 113.157 113.229 113.307 113.369 113.464 113.549 113.612 113.689 113.759 113.834 113.882 113.949 114.027 114.099 114.154 114.194 114.277 114.324 114.412 114.479 114.552 114.619 114.664 114.729 114.767 114.799 114.802 114.809 114.752 114.719 114.679 114.802 116.062 116.262 115.147 114.992 114.992 115.002 115.047 115.037 115.009 115.017 115.037 115.047 115.044 115.052 115.062 115.037 115.062 115.059 115.054 115.047 115.039 114.992 115.017 114.994 114.999 114.992 114.969 114.994 114.972 114.982 114.982 114.994 114.997 114.974 114.979 114.974 114.992 114.992 115.009 115.032 115.004 115.002 115.029 115.044 115.069 115.089 115.092 115.122 115.122 115.127 115.152 115.154 115.139 115.172 115.179 115.164 115.179 115.187 115.192 115.199 115.232 115.229 115.247 115.232 115.212 115.232 115.232 115.207 115.192 115.187 115.162 115.154 115.147 115.159 115.159 115.157 115.149 115.147 115.102 115.024 114.967 114.869 114.874 114.909 116.194 116.714 117.462 115.567 115.182 115.037 114.934 114.894 114.842 114.812 114.749 114.712 114.654 114.617 114.579 114.552 114.497 114.434 114.404 114.362 114.342 114.262 114.199 114.159 114.082 114.012 113.947 113.877 113.804 113.722 113.614 113.499 113.419 113.332 113.229 113.132 113.042 112.942 112.854 112.759 112.679 112.594 112.517 112.417 112.334 112.272 112.159 112.154 112.327 114.189 112.482 112.334 112.517 112.762 113.482 112.937 113.617 113.022 114.457 115.002 114.044 114.002 114.102 114.377 114.602 114.759 114.982 115.174 115.394 115.592 115.852 116.067 116.272 116.474 116.649 116.849 117.014 117.176 117.321 117.461 117.621 117.774 117.921 118.046 118.179 118.314 118.456 118.589 118.704 118.841 118.946 119.069 119.171 119.319 119.446 119.561 119.696 119.854 119.981 120.151 120.341 120.541 120.734 120.956 121.149 121.386 121.636 121.889 122.124 122.349 122.606 122.861 123.119 123.376 123.639 123.911 124.164 124.391 124.654 124.891 125.141 125.351 125.584 125.814 126.029 126.246 126.449 126.621 126.836 127.014 127.206 127.506 128.544 129.494 129.096 128.931 129.129 129.291 129.436 129.589 129.716 129.874 130.021 130.169 130.296 130.431 130.589 130.749 130.866 131.009 131.131 131.269 131.391 131.511 131.629 131.759 131.876 131.999 132.094 132.221 132.291 132.401 132.509 132.579 132.666 132.744 132.801 132.889 132.991 133.051 133.086 133.186 133.216 133.281 133.294 133.319 133.359 133.371 133.369 133.354 133.391 133.386 133.404 133.411 133.381 133.366 133.351 133.326 133.334 133.306 133.269 133.224 133.189 133.131 133.069 133.031 132.946 132.896 132.824 132.774 132.704 132.626 132.536 132.469 132.399 132.314 132.256 132.184 132.139 132.194 132.676 131.594 131.424 131.446 131.494 131.391 131.291 131.186 131.081 130.941 130.809 130.674 130.569 130.464 130.361 130.251 130.166 130.091 130.049 129.954 129.824 129.736 129.606 129.514 129.409 129.284 129.164 129.039 128.881 128.781 128.644 128.506 128.359 128.239 128.084 127.946 127.806 127.651 127.496 127.364 127.169 127.024 126.864 126.704 126.556 126.406
112.639 112.734 112.789 112.857 112.969 113.029 113.097 113.187 113.264 113.337 113.412 113.492 113.564 113.612 113.674 113.747 113.797 113.872 113.924 113.987 114.042 114.132 114.174 114.269 114.322 114.389 114.432 114.467 114.512 114.494 114.497 114.437 114.407 114.369 114.429 115.312 116.209 114.959 114.687 114.649 114.679 114.699 114.684 114.657 114.654 114.659 114.704 114.679 114.709 114.704 114.712 114.707 114.712 114.702 114.699 114.689 114.657 114.642 114.639 114.627 114.627 114.594 114.602 114.594 114.599 114.592 114.602 114.579 114.602 114.577 114.592 114.602 114.597 114.627 114.627 114.617 114.617 114.642 114.644 114.649 114.719 114.699 114.732 114.759 114.762 114.787 114.799 114.809 114.792 114.834 114.847 114.842 114.857 114.882 114.894 114.919 114.912 114.922 114.909 114.897 114.929 114.887 114.904 114.907 114.904 114.912 114.897 114.879 114.864 114.869 114.879 114.872 114.872 114.819 114.764 114.719 114.622 114.509 114.544 114.927 116.802 117.254 117.142 114.987 114.852 114.752 114.639 114.544 114.502 114.479 114.389 114.332 114.282 114.232 114.179 114.109 114.067 114.002 113.972 113.924 113.877 113.832 113.777 113.704 113.654 113.607 113.547 113.472 113.387 113.292 113.214 113.149 113.047 112.977 112.902 112.814 112.732 112.657 112.562 112.492 112.422 112.332 112.247 112.164 112.089 112.042 111.999 112.357 113.072 112.402 112.127 113.624 113.494 112.802 113.067 113.152 113.682 114.967 114.457 113.869 113.947 114.172 114.409 114.577 114.744 114.934 115.119 115.327 115.602 115.819 116.052 116.232 116.424 116.622 116.794 116.971 117.126 117.266 117.409 117.556 117.694 117.869 118.001 118.131 118.279 118.399 118.539 118.696 118.811 118.929 119.049 119.156 119.281 119.431 119.559 119.691 119.836 119.991 120.166 120.331 120.529 120.719 120.931 121.139 121.344 121.591 121.854 122.071 122.314 122.574 122.831 123.084 123.331 123.621 123.881 124.116 124.366 124.591 124.834 125.059 125.301 125.536 125.766 125.959 126.184 126.374 126.584 126.781 126.951 127.201 127.904 129.164 129.151 128.751 128.916 129.104 129.294 129.419 129.546 129.684 129.854 130.009 130.164 130.289 130.431 130.606 130.761 130.884 131.026 131.149 131.294 131.399 131.529 131.651 131.794 131.899 132.021 132.119 132.234 132.324 132.431 132.524 132.596 132.674 132.761 132.846 132.946 133.014 133.084 133.159 133.226 133.261 133.324 133.346 133.396 133.429 133.424 133.436 133.434 133.446 133.456 133.474 133.444 133.446 133.449 133.431 133.396 133.396 133.356 133.321 133.311 133.259 133.176 133.141 133.081 133.009 132.939 132.871 132.806 132.741 132.676 132.566 132.511 132.424 132.354 132.271 132.186 132.144 132.274 132.621 131.464 131.474 131.471 131.501 131.399 131.289 131.159 131.046 130.939 130.789 130.674 130.556 130.471 130.374 130.296 130.191 130.096 130.006 129.884 129.789 129.699 129.586 129.461 129.339 129.229 129.111 129.014 128.884 128.739 128.606 128.481 128.319 128.209 128.046 127.904 127.736 127.591 127.439 127.281 127.129 126.969 126.829 126.671 126.504 126.329
112.367 112.479 112.547 112.612 112.674 112.767 112.842 112.922 113.004 113.077 113.137 113.214 113.279 113.339 113.404 113.464 113.519 113.582 113.634 113.709 113.784 113.847 113.912 113.974 114.029 114.077 114.137 114.167 114.194 114.187 114.209 114.164 114.094 114.042 114.087 114.909 115.832 114.897 114.369 114.334 114.327 114.354 114.344 114.302 114.302 114.299 114.337 114.349 114.357 114.369 114.379 114.359 114.339 114.327 114.324 114.307 114.302 114.279 114.272 114.264 114.292 114.239 114.237 114.237 114.207 114.209 114.219 114.194 114.192 114.207 114.184 114.227 114.224 114.234 114.237 114.244 114.227 114.267 114.267 114.287 114.299 114.347 114.372 114.394 114.424 114.449 114.477 114.487 114.467 114.502 114.539 114.527 114.522 114.554 114.527 114.549 114.564 114.559 114.599 114.597 114.599 114.617 114.594 114.594 114.594 114.577 114.577 114.564 114.569 114.564 114.572 114.594 114.569 114.514 114.492 114.469 114.359 114.242 114.179 114.677 115.884 116.027 115.434 116.857 114.652 114.564 114.484 114.364 114.354 114.264 114.137 114.077 114.022 113.964 113.912 113.844 113.809 113.724 113.682 113.612 113.544 113.469 113.414 113.344 113.294 113.229 113.184 113.117 113.037 112.977 112.894 112.832 112.764 112.709 112.654 112.562 112.497 112.429 112.367 112.297 112.229 112.154 112.079 112.039 112.024 112.007 111.887 111.789 111.597 112.252 112.189 113.022 113.467 112.789 113.122 113.637 114.387 114.297 113.879 113.837 114.002 114.224 114.414 114.544 114.742 114.912 115.092 115.314 115.564 115.789 115.997 116.187 116.387 116.572 116.756 116.936 117.054 117.221 117.361 117.501 117.651 117.821 117.944 118.079 118.219 118.381 118.506 118.651 118.784 118.906 119.024 119.139 119.281 119.429 119.544 119.679 119.826 119.981 120.139 120.344 120.504 120.689 120.891 121.104 121.349 121.584 121.816 122.044 122.291 122.559 122.776 123.054 123.301 123.559 123.806 124.051 124.304 124.536 124.771 125.006 125.256 125.511 125.714 125.929 126.141 126.319 126.534 126.701 126.929 127.381 128.544 129.211 128.706 128.711 128.896 129.079 129.249 129.374 129.531 129.701 129.859 130.001 130.126 130.271 130.426 130.599 130.749 130.876 131.021 131.146 131.301 131.411 131.526 131.694 131.824 131.926 132.034 132.124 132.241 132.349 132.451 132.544 132.636 132.709 132.804 132.904 132.959 133.064 133.141 133.186 133.269 133.321 133.374 133.396 133.459 133.466 133.474 133.494 133.534 133.514 133.534 133.534 133.546 133.519 133.521 133.499 133.476 133.459 133.429 133.386 133.339 133.296 133.241 133.216 133.131 133.104 133.001 132.926 132.866 132.784 132.709 132.584 132.539 132.444 132.379 132.291 132.206 132.164 132.544 132.381 131.451 131.474 131.519 131.496 131.394 131.269 131.174 131.026 130.931 130.786 130.664 130.579 130.466 130.369 130.269 130.179 130.059 129.974 129.884 129.769 129.664 129.569 129.441 129.334 129.214 129.094 128.976 128.859 128.714 128.561 128.436 128.301 128.154 128.019 127.849 127.719 127.544 127.374 127.246 127.079 126.909 126.754 126.589 126.424 126.231
112.124 112.192 112.277 112.374 112.442 112.484 112.567 112.639 112.727 112.804 112.877 112.957 112.999 113.062 113.134 113.197 113.252 113.304 113.357 113.424 113.479 113.557 113.614 113.657 113.709 113.782 113.817 113.849 113.894 113.887 113.894 113.857 113.787 113.719 113.709 114.079 115.337 114.729 114.047 114.014 113.977 114.012 114.007 113.997 113.959 113.952 113.937 113.954 113.959 113.989 114.019 113.992 113.967 113.954 113.954 113.947 113.942 113.924 113.892 113.874 113.902 113.877 113.859 113.859 113.837 113.832 113.839 113.812 113.802 113.832 113.819 113.824 113.847 113.837 113.839 113.859 113.889 113.907 113.939 113.969 113.954 114.004 114.007 114.037 114.067 114.104 114.119 114.124 114.124 114.149 114.157 114.182 114.207 114.194 114.219 114.212 114.227 114.254 114.249 114.269 114.244 114.244 114.254 114.237 114.229 114.257 114.259 114.252 114.244 114.254 114.272 114.289 114.267 114.252 114.222 114.244 114.409 114.564 115.142 115.864 115.164 116.142 116.859 116.974 116.059 114.519 114.407 114.184 114.122 114.082 114.002 113.909 113.837 113.782 113.702 113.644 113.559 113.482 113.424 113.364 113.319 113.247 113.182 113.069 112.997 112.917 112.877 112.799 112.754 112.674 112.609 112.519 112.447 112.424 112.412 112.364 112.317 112.239 112.182 112.104 112.029 111.949 111.894 112.012 111.977 112.087 113.104 111.809 111.592 111.957 112.327 112.439 112.692 112.934 113.314 113.669 114.274 113.849 113.779 113.857 114.074 114.252 114.417 114.552 114.744 114.912 115.089 115.322 115.537 115.774 115.974 116.177 116.359 116.544 116.724 116.859 116.999 117.191 117.321 117.436 117.596 117.739 117.881 118.014 118.141 118.321 118.466 118.616 118.744 118.859 118.991 119.139 119.279 119.404 119.544 119.681 119.831 119.984 120.149 120.311 120.486 120.691 120.881 121.096 121.316 121.546 121.781 122.011 122.266 122.514 122.744 122.989 123.249 123.499 123.766 123.999 124.229 124.496 124.744 124.959 125.219 125.446 125.654 125.876 126.066 126.266 126.464 126.664 126.919 127.981 128.929 128.839 128.499 128.681 128.891 129.066 129.219 129.364 129.504 129.681 129.829 129.961 130.119 130.289 130.436 130.599 130.741 130.901 131.024 131.174 131.304 131.431 131.544 131.711 131.824 131.941 132.061 132.169 132.294 132.371 132.489 132.561 132.631 132.756 132.821 132.899 133.024 133.104 133.191 133.241 133.299 133.361 133.411 133.449 133.509 133.546 133.564 133.546 133.594 133.601 133.601 133.611 133.604 133.596 133.571 133.574 133.554 133.534 133.511 133.449 133.436 133.371 133.294 133.279 133.196 133.144 133.051 132.989 132.901 132.836 132.744 132.646 132.556 132.471 132.381 132.296 132.241 132.216 132.844 132.206 131.486 131.489 131.546 131.489 131.364 131.226 131.081 131.001 130.881 130.739 130.654 130.559 130.461 130.344 130.249 130.144 130.059 129.964 129.871 129.786 129.704 129.566 129.446 129.354 129.226 129.121 128.969 128.839 128.711 128.581 128.449 128.309 128.149 128.004 127.836 127.681 127.526 127.371 127.191 127.051 126.866 126.706 126.554 126.371 126.191
111.872 111.937 112.047 112.119 112.172 112.237 112.314 112.394 112.479 112.537 112.627 112.684 112.734 112.802 112.859 112.919 112.959 113.017 113.067 113.119 113.212 113.239 113.307 113.367 113.419 113.479 113.514 113.557 113.562 113.584 113.564 113.562 113.464 113.389 113.339 113.679 114.979 115.014 113.794 113.687 113.654 113.672 113.684 113.662 113.637 113.594 113.594 113.592 113.579 113.604 113.622 113.632 113.609 113.589 113.584 113.584 113.564 113.577 113.562 113.532 113.532 113.532 113.484 113.484 113.482 113.459 113.462 113.434 113.419 113.452 113.454 113.459 113.477 113.462 113.494 113.537 113.544 113.564 113.589 113.584 113.589 113.634 113.637 113.642 113.694 113.722 113.752 113.794 113.797 113.834 113.842 113.852 113.869 113.879 113.877 113.894 113.874 113.887 113.899 113.889 113.859 113.894 113.902 113.889 113.932 113.934 113.927 113.924 113.949 113.977 114.049 114.222 114.254 114.309 114.514 114.749 115.094 115.367 116.172 115.239 114.047 114.932 115.757 114.797 116.124 115.719 114.264 114.012 113.934 113.949 113.982 113.644 113.632 113.604 113.462 113.372 113.287 113.257 113.142 113.114 113.087 113.022 112.969 112.937 112.849 112.727 112.627 112.554 112.487 112.422 112.389 112.324 112.274 112.222 112.187 112.129 112.122 112.052 111.994 111.942 111.884 111.784 111.802 111.904 112.169 113.829 113.094 114.397 111.759 111.962 112.292 112.427 112.767 113.242 113.567 114.244 113.887 113.739 113.734 113.944 114.137 114.314 114.427 114.592 114.734 114.914 115.089 115.319 115.532 115.727 115.947 116.137 116.309 116.499 116.649 116.816 116.966 117.111 117.241 117.396 117.531 117.669 117.816 117.956 118.104 118.281 118.424 118.579 118.714 118.829 118.956 119.116 119.276 119.374 119.511 119.679 119.811 119.966 120.149 120.309 120.496 120.684 120.879 121.076 121.304 121.539 121.741 121.976 122.221 122.466 122.704 122.944 123.186 123.444 123.706 123.951 124.191 124.436 124.684 124.934 125.181 125.391 125.611 125.819 126.009 126.204 126.404 126.614 127.226 128.716 128.909 128.376 128.479 128.666 128.834 129.001 129.199 129.319 129.529 129.649 129.819 129.959 130.119 130.294 130.446 130.594 130.756 130.916 131.021 131.159 131.301 131.436 131.569 131.701 131.829 131.951 132.066 132.184 132.296 132.394 132.486 132.589 132.659 132.776 132.834 132.914 133.064 133.154 133.221 133.286 133.339 133.421 133.459 133.529 133.561 133.579 133.604 133.634 133.661 133.699 133.699 133.719 133.694 133.664 133.669 133.654 133.609 133.601 133.566 133.531 133.521 133.461 133.391 133.316 133.251 133.199 133.124 133.021 132.939 132.896 132.799 132.694 132.609 132.504 132.429 132.329 132.279 132.284 132.796 132.066 131.534 131.511 131.564 131.444 131.321 131.214 131.089 131.006 130.914 130.811 130.689 130.584 130.476 130.374 130.286 130.179 130.061 129.966 129.866 129.776 129.666 129.541 129.431 129.299 129.179 129.064 128.931 128.814 128.689 128.541 128.399 128.279 128.111 127.966 127.799 127.661 127.504 127.349 127.191 127.049 126.889 126.719 126.526 126.369 126.174
111.637 111.687 111.782 111.854 111.907 111.982 112.077 112.154 112.214 112.287 112.364 112.412 112.489 112.542 112.589 112.654 112.712 112.724 112.787 112.847 112.892 112.939 113.007 113.082 113.127 113.172 113.207 113.239 113.262 113.279 113.262 113.249 113.167 113.099 112.997 113.089 114.674 115.309 113.684 113.362 113.342 113.342 113.374 113.342 113.319 113.264 113.267 113.232 113.222 113.247 113.257 113.272 113.257 113.222 113.217 113.192 113.192 113.192 113.192 113.174 113.184 113.194 113.142 113.139 113.104 113.122 113.114 113.079 113.099 113.114 113.119 113.107 113.124 113.099 113.122 113.179 113.172 113.199 113.222 113.247 113.259 113.282 113.294 113.317 113.352 113.372 113.394 113.417 113.442 113.457 113.477 113.507 113.492 113.499 113.509 113.489 113.517 113.524 113.542 113.552 113.539 113.579 113.599 113.627 113.677 113.812 114.109 114.209 114.304 114.807 114.577 114.844 114.684 115.182 116.392 114.994 114.349 114.154 114.487 113.584 113.759 113.564 114.044 115.049 114.957 115.727 114.699 114.292 114.217 114.139 113.977 113.729 113.407 114.089 113.102 113.089 113.047 113.034 112.924 112.867 112.814 112.899 112.782 112.739 112.649 112.587 112.549 112.379 112.257 112.232 112.192 112.164 112.177 112.129 112.064 111.994 111.949 111.917 111.844 111.814 111.802 111.809 111.827 111.922 112.169 112.919 113.424 112.629 111.849 112.264 112.362 112.499 112.722 113.079 113.604 114.017 113.672 113.702 113.834 114.047 114.179 114.294 114.454 114.579 114.762 114.927 115.117 115.299 115.502 115.707 115.884 116.107 116.289 116.462 116.616 116.771 116.926 117.041 117.184 117.321 117.456 117.609 117.739 117.894 118.044 118.206 118.371 118.509 118.654 118.799 118.951 119.119 119.256 119.384 119.519 119.661 119.806 119.969 120.131 120.311 120.489 120.681 120.861 121.064 121.284 121.514 121.721 121.939 122.189 122.401 122.649 122.926 123.156 123.404 123.656 123.886 124.136 124.389 124.631 124.886 125.109 125.336 125.544 125.744 125.981 126.146 126.346 126.651 127.974 128.866 128.431 128.261 128.441 128.619 128.801 128.979 129.139 129.299 129.489 129.631 129.784 129.931 130.124 130.311 130.434 130.589 130.744 130.891 131.011 131.166 131.321 131.439 131.569 131.704 131.859 131.939 132.064 132.221 132.311 132.404 132.531 132.616 132.686 132.796 132.879 132.984 133.101 133.179 133.249 133.346 133.401 133.489 133.509 133.589 133.616 133.666 133.649 133.681 133.746 133.766 133.761 133.786 133.756 133.761 133.764 133.749 133.686 133.674 133.644 133.614 133.564 133.509 133.469 133.404 133.296 133.256 133.186 133.091 133.026 132.939 132.809 132.736 132.634 132.566 132.459 132.366 132.301 132.416 132.866 131.914 131.569 131.569 131.586 131.434 131.359 131.224 131.104 131.014 130.909 130.836 130.721 130.619 130.514 130.386 130.299 130.201 130.109 130.024 129.934 129.806 129.731 129.586 129.474 129.354 129.226 129.104 128.969 128.856 128.719 128.544 128.406 128.266 128.126 127.941 127.764 127.594 127.446 127.281 127.146 126.986 126.806 126.656 126.489 126.319 126.124
111.359 111.429 111.529 111.592 111.672 111.752 111.814 111.887 111.957 112.029 112.104 112.172 112.229 112.274 112.322 112.374 112.422 112.469 112.522 112.564 112.612 112.662 112.717 112.789 112.827 112.857 112.909 112.954 112.954 112.977 112.937 112.934 112.879 112.789 112.672 112.742 113.637 114.527 114.044 113.022 113.044 113.027 113.047 113.032 113.004 112.959 112.919 112.897 112.897 112.899 112.909 112.922 112.922 112.907 112.867 112.852 112.847 112.849 112.852 112.877 112.859 112.854 112.837 112.844 112.822 112.792 112.772 112.739 112.759 112.742 112.782 112.764 112.764 112.792 112.824 112.822 112.859 112.872 112.914 112.929 112.922 112.967 112.972 112.979 112.969 113.014 113.037 113.064 113.094 113.092 113.127 113.137 113.132 113.142 113.152 113.172 113.189 113.224 113.244 113.289 113.399 113.712 114.144 113.929 114.237 114.354 114.047 114.374 115.272 115.137 114.132 113.737 113.972 114.069 113.937 113.689 112.847 113.112 112.752 112.744 112.524 112.479 112.617 112.734 113.499 115.092 115.179 114.877 114.514 114.162 114.529 114.067 114.022 115.847 113.499 113.302 113.072 113.242 113.097 113.332 112.972 112.957 113.134 113.144 112.904 112.352 112.429 113.377 115.109 112.549 112.362 112.024 112.054 112.012 111.992 111.949 111.939 111.852 111.772 111.734 111.759 111.817 111.689 112.059 112.752 112.417 112.857 111.587 112.364 112.757 113.042 112.814 112.704 112.954 113.464 113.517 113.624 113.757 113.952 114.112 114.217 114.359 114.497 114.627 114.769 114.947 115.117 115.307 115.509 115.684 115.872 116.057 116.244 116.372 116.559 116.714 116.849 116.989 117.119 117.246 117.404 117.531 117.654 117.829 118.001 118.161 118.301 118.456 118.619 118.764 118.931 119.101 119.236 119.361 119.496 119.644 119.799 119.956 120.136 120.314 120.464 120.661 120.834 121.031 121.256 121.469 121.681 121.931 122.146 122.389 122.639 122.876 123.114 123.359 123.599 123.849 124.079 124.336 124.591 124.824 125.034 125.246 125.464 125.686 125.881 126.076 126.301 127.101 128.406 128.641 128.024 128.231 128.414 128.621 128.784 128.941 129.104 129.274 129.436 129.574 129.751 129.916 130.131 130.316 130.431 130.596 130.749 130.886 131.029 131.206 131.324 131.454 131.586 131.744 131.846 131.961 132.081 132.224 132.331 132.436 132.551 132.634 132.729 132.841 132.919 133.039 133.121 133.219 133.306 133.409 133.439 133.531 133.574 133.636 133.686 133.724 133.731 133.776 133.834 133.844 133.851 133.851 133.844 133.841 133.829 133.804 133.791 133.756 133.709 133.676 133.621 133.566 133.509 133.446 133.379 133.319 133.239 133.141 133.096 132.991 132.889 132.799 132.684 132.601 132.494 132.409 132.354 132.579 132.944 131.694 131.611 131.631 131.564 131.431 131.339 131.219 131.104 131.024 130.919 130.841 130.726 130.636 130.549 130.421 130.364 130.236 130.144 130.046 129.976 129.864 129.744 129.621 129.501 129.379 129.281 129.124 129.001 128.869 128.724 128.566 128.426 128.261 128.109 127.954 127.789 127.634 127.484 127.286 127.181 126.996 126.829 126.644 126.486 126.294 126.121
111.142 111.217 111.284 111.342 111.429 111.502 111.564 111.629 111.697 111.784 111.839 111.894 111.959 111.994 112.044 112.119 112.162 112.207 112.249 112.287 112.319 112.362 112.432 112.494 112.519 112.582 112.624 112.654 112.662 112.672 112.614 112.617 112.579 112.479 112.369 112.384 112.872 113.909 113.969 112.717 112.704 112.682 112.707 112.719 112.682 112.667 112.619 112.607 112.597 112.592 112.589 112.602 112.617 112.572 112.552 112.549 112.517 112.522 112.507 112.537 112.487 112.502 112.494 112.472 112.472 112.464 112.449 112.452 112.459 112.452 112.454 112.457 112.457 112.479 112.482 112.504 112.517 112.539 112.544 112.552 112.567 112.592 112.612 112.619 112.654 112.662 112.694 112.704 112.747 112.777 112.782 112.807 112.832 112.914 113.004 113.172 113.334 113.419 113.767 114.054 114.122 114.222 115.242 114.102 114.699 113.787 113.299 113.667 114.044 113.187 114.072 112.944 112.587 112.362 112.364 112.347 112.369 112.392 112.299 112.239 112.207 112.202 112.159 112.107 112.142 112.457 113.712 113.739 114.559 114.367 114.587 113.557 113.062 113.492 113.559 113.002 112.847 112.529 112.832 113.237 112.772 113.027 113.157 113.292 113.227 112.839 112.757 116.697 118.472 113.107 112.489 112.574 112.429 112.084 112.009 111.792 111.854 111.837 111.847 111.899 111.912 111.947 111.912 112.762 114.054 111.659 111.754 112.084 112.699 113.169 114.077 113.624 113.787 113.884 113.284 113.457 113.644 113.874 114.032 114.152 114.269 114.417 114.554 114.684 114.799 114.977 115.129 115.327 115.504 115.672 115.837 116.037 116.184 116.347 116.516 116.656 116.786 116.934 117.061 117.159 117.339 117.444 117.614 117.776 117.936 118.091 118.251 118.409 118.571 118.736 118.911 119.061 119.211 119.351 119.479 119.646 119.819 119.961 120.129 120.304 120.461 120.654 120.826 121.009 121.246 121.449 121.674 121.876 122.104 122.366 122.586 122.836 123.086 123.314 123.554 123.801 124.054 124.296 124.531 124.791 124.994 125.219 125.424 125.626 125.826 126.024 126.396 127.711 128.471 128.024 127.986 128.181 128.381 128.599 128.736 128.886 129.089 129.251 129.421 129.576 129.726 129.914 130.129 130.271 130.441 130.586 130.734 130.881 131.061 131.219 131.354 131.489 131.599 131.754 131.869 131.986 132.106 132.231 132.351 132.454 132.559 132.654 132.749 132.874 132.956 133.086 133.174 133.261 133.341 133.426 133.501 133.574 133.646 133.696 133.749 133.794 133.846 133.881 133.869 133.899 133.914 133.926 133.919 133.919 133.896 133.876 133.866 133.839 133.754 133.751 133.676 133.619 133.571 133.514 133.431 133.359 133.306 133.196 133.141 133.059 132.919 132.839 132.741 132.621 132.521 132.449 132.399 132.686 132.929 131.644 131.634 131.656 131.566 131.456 131.346 131.196 131.109 131.019 130.911 130.799 130.706 130.614 130.544 130.439 130.361 130.266 130.141 130.041 129.954 129.839 129.726 129.626 129.499 129.386 129.281 129.136 129.019 128.884 128.744 128.574 128.436 128.284 128.131 127.976 127.809 127.666 127.479 127.311 127.161 126.999 126.844 126.679 126.489 126.301 126.129
110.892 110.952 110.999 111.084 111.177 111.237 111.307 111.377 111.459 111.537 111.577 111.637 111.664 111.727 111.787 111.829 111.867 111.934 111.974 111.992 112.052 112.094 112.124 112.182 112.232 112.287 112.304 112.327 112.347 112.342 112.297 112.297 112.267 112.167 112.077 112.047 112.227 113.549 113.624 112.564 112.357 112.369 112.384 112.377 112.342 112.299 112.297 112.279 112.259 112.252 112.249 112.247 112.262 112.212 112.202 112.209 112.192 112.212 112.189 112.182 112.189 112.189 112.182 112.192 112.152 112.119 112.142 112.127 112.129 112.127 112.102 112.104 112.119 112.117 112.127 112.137 112.154 112.167 112.179 112.232 112.239 112.242 112.267 112.294 112.314 112.364 112.489 112.562 112.694 112.957 113.262 112.954 113.347 113.637 113.424 114.132 113.799 114.684 115.059 113.274 113.227 114.047 113.967 113.984 113.077 112.289 112.154 112.082 112.014 111.982 111.987 111.989 111.994 112.009 112.012 112.027 112.014 111.989 111.944 111.932 111.932 111.914 111.904 111.862 111.779 111.739 111.712 112.372 113.927 113.922 114.047 113.542 114.072 113.827 113.384 112.692 112.124 112.619 113.082 113.342 114.107 112.907 112.312 117.484 117.124 114.917 114.799 117.857 116.412 115.109 112.807 112.289 112.424 112.527 112.664 112.234 112.032 111.844 112.009 112.389 112.942 113.672 112.847 112.497 112.979 111.562 112.099 112.537 112.779 113.139 113.724 113.964 114.124 113.757 113.472 113.552 113.784 113.984 114.122 114.234 114.342 114.469 114.602 114.702 114.892 115.017 115.167 115.339 115.494 115.694 115.834 116.007 116.167 116.319 116.476 116.601 116.754 116.886 117.004 117.131 117.256 117.421 117.571 117.719 117.879 118.049 118.204 118.389 118.546 118.716 118.886 119.046 119.189 119.349 119.489 119.666 119.806 119.984 120.136 120.296 120.461 120.624 120.816 121.034 121.229 121.419 121.641 121.849 122.091 122.324 122.569 122.804 123.044 123.281 123.514 123.761 124.021 124.261 124.491 124.716 124.949 125.154 125.351 125.551 125.764 126.001 126.879 128.166 128.081 127.746 127.936 128.146 128.384 128.524 128.666 128.869 129.031 129.226 129.409 129.576 129.726 129.946 130.126 130.271 130.421 130.574 130.749 130.889 131.064 131.201 131.359 131.486 131.634 131.759 131.909 132.009 132.131 132.221 132.346 132.464 132.566 132.684 132.794 132.901 133.014 133.114 133.204 133.304 133.404 133.481 133.554 133.619 133.704 133.736 133.811 133.859 133.894 133.934 133.949 133.981 133.989 133.984 133.986 133.961 133.964 133.936 133.901 133.881 133.824 133.816 133.729 133.679 133.619 133.551 133.476 133.429 133.359 133.236 133.174 133.084 132.964 132.861 132.769 132.666 132.571 132.489 132.434 132.846 132.769 131.686 131.691 131.644 131.584 131.471 131.341 131.221 131.119 131.009 130.886 130.811 130.719 130.646 130.551 130.454 130.346 130.251 130.146 130.069 129.934 129.844 129.724 129.601 129.481 129.384 129.254 129.136 128.994 128.861 128.696 128.561 128.424 128.274 128.126 127.964 127.796 127.649 127.486 127.316 127.169 126.989 126.844 126.664 126.499 126.316 126.126
110.634 110.702 110.769 110.857 110.917 110.969 111.042 111.107 111.197 111.252 111.317 111.359 111.412 111.457 111.517 111.564 111.614 111.659 111.679 111.729 111.754 111.822 111.857 111.887 111.937 111.979 112.002 112.004 112.022 112.029 112.014 111.987 111.949 111.874 111.764 111.699 111.774 112.577 113.157 112.397 112.032 112.044 112.084 112.077 112.094 112.017 112.027 112.017 111.994 111.984 111.959 111.937 111.944 111.942 111.919 111.902 111.897 111.909 111.897 111.887 111.882 111.857 111.842 111.839 111.814 111.802 111.789 111.772 111.769 111.759 111.754 111.752 111.762 111.757 111.774 111.784 111.814 111.834 111.864 111.914 111.984 112.117 112.182 112.329 112.464 112.919 112.857 113.789 114.154 114.014 115.564 114.304 114.037 114.314 114.674 113.772 113.412 112.937 112.142 111.874 111.729 111.664 111.984 111.984 111.612 111.634 111.627 111.632 111.637 111.632 111.652 111.664 111.664 111.662 111.692 111.667 111.632 111.632 111.607 111.574 111.574 111.567 111.557 111.524 111.504 111.494 111.394 111.279 111.287 112.512 112.769 113.074 113.719 114.059 113.099 113.454 111.977 112.414 112.514 111.777 111.699 113.519 113.137 113.152 116.302 115.089 113.497 114.084 112.367 113.574 113.567 112.647 112.532 111.667 112.307 112.767 112.664 112.529 112.789 112.899 113.217 112.822 113.217 113.447 114.344 111.739 112.067 112.742 113.164 113.457 113.954 114.304 113.842 113.569 113.534 113.702 113.909 114.084 114.202 114.294 114.414 114.532 114.649 114.767 114.909 115.069 115.202 115.369 115.537 115.699 115.839 115.982 116.137 116.332 116.444 116.586 116.706 116.861 116.959 117.101 117.214 117.366 117.499 117.661 117.844 118.004 118.174 118.369 118.536 118.709 118.871 119.021 119.171 119.306 119.474 119.661 119.809 119.969 120.121 120.274 120.444 120.639 120.811 121.001 121.191 121.421 121.601 121.821 122.071 122.299 122.551 122.789 123.009 123.271 123.494 123.719 123.974 124.211 124.434 124.671 124.899 125.096 125.296 125.509 125.706 126.196 127.566 128.124 127.624 127.719 127.899 128.136 128.331 128.479 128.659 128.844 129.026 129.224 129.389 129.544 129.736 129.914 130.111 130.289 130.414 130.561 130.716 130.869 131.089 131.219 131.356 131.491 131.664 131.799 131.924 132.026 132.141 132.276 132.356 132.499 132.599 132.736 132.831 132.926 133.034 133.139 133.239 133.359 133.451 133.501 133.606 133.654 133.721 133.806 133.864 133.904 133.944 133.976 134.009 134.026 134.051 134.049 134.046 134.036 134.024 133.996 133.969 133.934 133.891 133.849 133.781 133.734 133.694 133.606 133.546 133.434 133.381 133.306 133.231 133.141 133.004 132.901 132.799 132.699 132.621 132.554 132.519 133.096 132.421 131.774 131.766 131.716 131.619 131.456 131.316 131.206 131.114 130.971 130.839 130.761 130.671 130.544 130.491 130.416 130.314 130.199 130.086 130.011 129.916 129.811 129.684 129.571 129.466 129.356 129.221 129.106 128.971 128.821 128.674 128.531 128.374 128.194 128.074 127.911 127.776 127.631 127.476 127.296 127.104 126.931 126.789 126.611 126.441 126.269 126.084
110.392 110.457 110.514 110.602 110.659 110.732 110.784 110.847 110.922 110.982 111.039 111.097 111.154 111.197 111.244 111.282 111.332 111.384 111.397 111.439 111.492 111.537 111.552 111.597 111.614 111.652 111.699 111.712 111.699 111.694 111.699 111.657 111.637 111.554 111.472 111.362 111.397 112.329 112.742 112.394 111.692 111.712 111.724 111.757 111.784 111.747 111.727 111.744 111.707 111.674 111.649 111.622 111.597 111.594 111.582 111.582 111.564 111.569 111.567 111.537 111.524 111.492 111.509 111.474 111.487 111.472 111.444 111.434 111.407 111.419 111.399 111.419 111.442 111.492 111.519 111.592 111.674 112.007 111.979 112.369 113.104 113.212 112.314 113.549 113.837 112.372 112.364 113.369 113.619 113.562 113.484 113.089 111.572 111.397 111.212 111.217 111.222 111.232 111.237 111.257 111.269 111.254 111.259 111.274 111.292 111.282 111.287 111.297 111.287 111.299 111.302 111.302 111.327 111.329 111.339 111.317 111.312 111.302 111.282 111.272 111.244 111.239 111.234 111.204 111.177 111.182 111.124 111.049 110.954 110.859 110.894 111.402 112.839 112.979 114.172 113.202 110.874 111.319 111.452 110.719 111.262 111.387 111.759 113.807 117.064 111.667 112.487 112.074 112.257 113.687 113.932 112.469 113.357 111.632 111.859 111.819 111.724 112.332 112.299 112.202 112.134 112.162 113.342 111.724 111.692 111.554 112.332 112.974 113.397 114.002 114.302 114.004 113.452 113.519 113.594 113.814 113.992 114.159 114.277 114.384 114.444 114.564 114.699 114.824 114.967 115.102 115.252 115.414 115.564 115.722 115.849 116.014 116.162 116.297 116.414 116.539 116.684 116.801 116.916 117.036 117.176 117.319 117.466 117.651 117.809 117.981 118.161 118.344 118.509 118.704 118.836 118.994 119.149 119.294 119.499 119.659 119.814 119.964 120.114 120.284 120.449 120.624 120.811 120.994 121.196 121.394 121.599 121.814 122.034 122.291 122.539 122.749 122.991 123.224 123.461 123.689 123.919 124.161 124.389 124.626 124.824 125.039 125.246 125.459 125.776 126.846 127.934 127.616 127.486 127.686 127.901 128.116 128.271 128.451 128.659 128.834 129.004 129.174 129.331 129.541 129.734 129.914 130.094 130.254 130.419 130.586 130.741 130.884 131.061 131.206 131.381 131.526 131.686 131.834 131.929 132.074 132.189 132.299 132.401 132.519 132.616 132.741 132.849 132.959 133.066 133.179 133.274 133.376 133.451 133.556 133.626 133.681 133.769 133.851 133.906 133.936 134.009 134.031 134.066 134.089 134.084 134.096 134.111 134.091 134.061 134.034 134.029 133.989 133.936 133.894 133.809 133.784 133.721 133.636 133.574 133.509 133.439 133.346 133.266 133.144 133.031 132.944 132.859 132.756 132.656 132.576 132.646 133.274 132.031 131.821 131.829 131.819 131.764 131.614 131.404 131.374 131.241 131.109 130.891 130.774 130.626 130.511 130.429 130.319 130.206 130.124 130.024 129.884 129.781 129.694 129.601 129.479 129.359 129.254 129.119 129.009 128.859 128.721 128.589 128.451 128.291 128.144 127.976 127.839 127.706 127.539 127.381 127.226 127.049 126.866 126.721 126.539 126.376 126.196 126.031
110.129 110.187 110.277 110.347 110.409 110.454 110.527 110.589 110.659 110.734 110.777 110.822 110.882 110.929 110.959 110.994 111.049 111.082 111.092 111.162 111.174 111.209 111.239 111.284 111.322 111.367 111.372 111.377 111.387 111.364 111.387 111.334 111.294 111.224 111.122 111.039 111.039 111.527 112.567 112.452 111.427 111.342 111.442 111.487 111.502 111.489 111.462 111.447 111.424 111.387 111.354 111.342 111.307 111.282 111.274 111.279 111.264 111.242 111.219 111.207 111.189 111.202 111.182 111.189 111.202 111.164 111.162 111.174 111.222 111.239 111.444 111.629 112.019 112.159 112.084 112.919 112.702 112.754 112.689 112.192 112.792 113.644 112.202 113.472 112.772 111.517 110.802 110.817 110.787 110.757 110.734 110.747 110.754 110.787 110.804 110.837 110.824 110.869 110.889 110.922 110.929 110.922 110.937 110.929 110.947 110.942 110.939 110.954 110.964 110.964 110.967 110.992 111.009 111.027 111.022 111.019 111.009 110.994 110.989 110.962 110.929 110.919 110.922 110.917 110.892 110.859 110.827 110.769 110.732 110.652 110.567 110.424 110.409 110.824 111.547 111.227 110.597 112.037 110.567 110.404 110.509 110.689 110.757 112.029 112.524 111.204 110.964 111.034 111.922 113.514 112.902 112.557 112.414 112.339 113.849 113.047 112.337 111.787 111.689 112.099 112.872 112.687 111.842 111.722 111.694 112.087 112.564 112.989 113.284 114.227 113.852 113.379 113.444 113.492 113.709 113.904 114.064 114.217 114.339 114.409 114.504 114.617 114.732 114.857 115.027 115.154 115.297 115.444 115.594 115.712 115.854 116.027 116.139 116.287 116.391 116.519 116.646 116.766 116.899 117.031 117.151 117.294 117.456 117.606 117.779 117.966 118.141 118.314 118.511 118.659 118.821 118.989 119.161 119.299 119.481 119.639 119.809 119.966 120.111 120.291 120.466 120.631 120.789 120.994 121.201 121.381 121.589 121.816 122.031 122.284 122.501 122.736 122.979 123.206 123.436 123.669 123.906 124.121 124.341 124.569 124.781 124.989 125.199 125.444 126.204 127.469 127.706 127.276 127.464 127.659 127.904 128.061 128.216 128.416 128.656 128.791 128.981 129.156 129.326 129.536 129.739 129.911 130.106 130.229 130.389 130.584 130.739 130.889 131.069 131.244 131.406 131.546 131.699 131.834 131.946 132.064 132.204 132.304 132.416 132.529 132.631 132.751 132.854 132.964 133.114 133.194 133.304 133.424 133.514 133.596 133.671 133.759 133.831 133.869 133.956 133.994 134.041 134.079 134.101 134.144 134.136 134.141 134.164 134.156 134.104 134.086 134.071 134.031 133.991 133.924 133.869 133.791 133.751 133.689 133.599 133.564 133.459 133.414 133.274 133.186 133.069 132.979 132.896 132.801 132.706 132.636 132.971 133.266 131.906 131.884 131.874 131.854 132.209 132.766 132.664 132.429 132.399 132.351 132.206 131.986 131.891 131.856 131.686 131.556 131.304 131.046 130.879 130.886 130.424 130.204 130.049 129.834 129.539 129.389 129.201 128.921 128.774 128.639 128.506 128.329 128.189 128.021 127.881 127.741 127.576 127.421 127.276 127.124 126.939 126.776 126.599 126.421 126.281 126.081 125.926
109.857 109.924 110.009 110.067 110.139 110.197 110.272 110.329 110.389 110.457 110.497 110.547 110.594 110.659 110.692 110.734 110.779 110.787 110.804 110.862 110.899 110.899 110.939 110.992 111.002 111.034 111.074 111.072 111.059 111.064 111.059 111.024 110.972 110.924 110.819 110.752 110.697 110.762 112.059 112.319 111.057 110.829 111.024 111.517 111.442 111.287 111.202 111.127 111.077 111.029 110.999 110.979 110.962 110.962 111.012 111.004 110.944 110.927 110.947 110.984 110.979 110.919 110.929 110.989 111.017 111.237 111.379 111.449 111.827 112.402 113.012 112.654 112.094 113.092 113.217 113.254 113.642 112.084 112.854 110.977 111.714 111.557 111.344 110.437 110.377 110.344 110.347 110.329 110.347 110.342 110.382 110.392 110.417 110.439 110.462 110.489 110.522 110.534 110.547 110.542 110.577 110.592 110.592 110.589 110.597 110.617 110.619 110.649 110.637 110.647 110.642 110.667 110.672 110.682 110.664 110.677 110.664 110.662 110.639 110.644 110.619 110.607 110.592 110.584 110.572 110.582 110.567 110.507 110.484 110.447 110.369 110.262 110.127 110.184 110.444 110.379 109.997 111.092 111.267 110.242 110.547 110.672 111.607 110.747 111.024 111.242 110.932 111.072 111.172 114.404 111.589 111.304 111.569 113.304 113.227 112.449 112.239 111.999 112.792 112.664 112.214 112.164 111.474 112.017 112.004 112.307 112.624 112.769 113.617 113.957 113.419 113.337 113.357 113.554 113.779 113.967 114.119 114.257 114.359 114.439 114.557 114.669 114.772 114.919 115.072 115.194 115.349 115.459 115.612 115.747 115.884 116.027 116.134 116.267 116.384 116.511 116.646 116.754 116.849 116.999 117.139 117.291 117.449 117.619 117.771 117.959 118.119 118.316 118.471 118.644 118.791 118.969 119.159 119.314 119.499 119.639 119.791 119.956 120.119 120.301 120.469 120.644 120.796 120.999 121.181 121.374 121.616 121.806 122.031 122.256 122.466 122.719 122.966 123.186 123.404 123.646 123.866 124.076 124.299 124.506 124.734 124.931 125.151 125.591 126.864 127.666 127.181 127.221 127.439 127.671 127.869 128.019 128.181 128.396 128.586 128.771 128.949 129.134 129.326 129.524 129.699 129.884 130.076 130.234 130.394 130.586 130.766 130.911 131.089 131.256 131.409 131.551 131.716 131.844 131.971 132.076 132.219 132.314 132.431 132.529 132.659 132.781 132.909 133.006 133.131 133.244 133.326 133.421 133.516 133.591 133.669 133.771 133.821 133.914 133.976 134.001 134.061 134.129 134.134 134.171 134.166 134.179 134.214 134.164 134.146 134.119 134.104 134.066 134.041 133.964 133.889 133.859 133.784 133.729 133.654 133.586 133.499 133.416 133.319 133.219 133.114 133.029 132.916 132.834 132.741 132.684 133.356 133.081 131.956 131.961 131.934 131.886 131.964 132.041 131.844 131.806 131.671 131.614 131.561 131.481 131.369 131.261 131.239 131.064 131.101 131.019 130.931 131.126 131.034 131.011 130.776 130.701 130.589 130.476 130.364 130.169 129.951 129.599 129.349 129.116 128.946 128.676 128.399 128.241 128.019 127.746 127.489 127.276 127.129 126.859 126.564 126.381 126.199 126.014 125.821
109.592 109.674 109.729 109.792 109.864 109.927 109.992 110.044 110.084 110.144 110.217 110.264 110.322 110.354 110.407 110.449 110.469 110.497 110.522 110.564 110.594 110.609 110.644 110.657 110.689 110.722 110.742 110.742 110.769 110.734 110.722 110.697 110.634 110.599 110.529 110.432 110.327 110.399 111.427 111.489 111.294 110.352 110.492 111.342 111.429 110.992 110.987 110.922 110.847 110.812 110.777 110.779 110.727 110.794 110.742 110.744 110.839 111.012 110.997 110.872 111.034 111.337 111.609 111.494 111.844 112.314 112.299 112.309 112.632 113.679 112.927 113.164 110.379 111.402 111.482 110.177 110.029 109.999 109.992 109.994 110.512 109.989 110.077 110.009 109.997 110.024 110.012 110.007 110.012 110.019 110.059 110.057 110.082 110.092 110.127 110.139 110.177 110.197 110.212 110.247 110.267 110.272 110.287 110.284 110.299 110.299 110.309 110.302 110.319 110.337 110.329 110.339 110.329 110.367 110.384 110.369 110.374 110.364 110.354 110.352 110.329 110.317 110.272 110.282 110.309 110.299 110.304 110.302 110.234 110.174 110.169 110.107 109.989 109.894 109.814 109.872 109.289 109.739 109.887 110.867 110.274 110.464 110.477 110.639 110.719 110.739 110.859 110.954 111.012 112.012 111.782 111.107 111.057 111.139 112.672 111.997 111.252 111.402 111.819 112.169 111.222 112.319 111.532 112.557 112.102 112.289 112.797 113.109 114.229 113.252 113.152 113.182 113.417 113.624 113.804 113.977 114.127 114.257 114.367 114.479 114.582 114.692 114.832 114.972 115.117 115.224 115.372 115.519 115.637 115.749 115.899 116.009 116.137 116.264 116.364 116.499 116.601 116.736 116.856 117.016 117.151 117.311 117.439 117.581 117.771 117.949 118.134 118.344 118.461 118.619 118.801 118.966 119.141 119.309 119.469 119.614 119.791 119.944 120.121 120.276 120.464 120.616 120.824 121.001 121.194 121.396 121.604 121.806 122.026 122.234 122.436 122.694 122.956 123.176 123.411 123.624 123.846 124.069 124.266 124.494 124.701 124.901 125.149 126.004 127.246 127.234 127.009 127.199 127.411 127.661 127.831 127.996 128.156 128.366 128.549 128.749 128.936 129.114 129.314 129.486 129.691 129.909 130.079 130.211 130.399 130.586 130.741 130.936 131.091 131.249 131.424 131.579 131.741 131.841 131.959 132.091 132.214 132.311 132.434 132.531 132.664 132.801 132.919 133.004 133.156 133.241 133.341 133.444 133.539 133.629 133.684 133.786 133.836 133.911 133.994 134.029 134.101 134.146 134.189 134.201 134.239 134.234 134.231 134.189 134.146 134.164 134.151 134.106 134.076 133.994 133.949 133.866 133.809 133.759 133.686 133.609 133.509 133.449 133.311 133.221 133.144 133.056 132.954 132.866 132.809 132.884 133.619 132.729 132.036 131.996 132.004 131.926 131.834 131.729 131.574 131.391 131.191 131.031 130.901 130.806 130.674 130.551 130.446 130.301 130.186 130.089 129.951 129.821 129.714 129.591 129.651 129.574 129.499 129.461 129.496 129.551 129.546 129.539 129.464 129.426 129.356 129.269 128.964 129.011 128.881 128.734 128.531 128.346 128.194 128.024 127.684 127.581 127.209 126.856 126.641
109.322 109.399 109.462 109.522 109.597 109.649 109.707 109.752 109.837 109.872 109.924 110.002 110.019 110.084 110.102 110.154 110.179 110.199 110.222 110.249 110.279 110.312 110.322 110.354 110.379 110.417 110.432 110.437 110.429 110.429 110.389 110.397 110.324 110.284 110.224 110.127 110.002 110.029 110.487 111.562 111.002 110.007 109.922 110.872 111.247 110.687 110.512 110.597 110.574 110.572 110.559 110.732 110.934 110.864 111.309 111.687 111.557 111.207 112.254 111.762 111.017 110.892 111.149 111.027 111.712 111.367 110.469 110.652 110.424 109.947 110.714 111.597 109.644 109.629 109.619 109.612 109.632 109.627 109.639 109.669 109.662 109.672 109.672 109.664 109.672 109.659 109.657 109.662 109.674 109.674 109.689 109.732 109.737 109.754 109.799 109.844 109.887 109.904 109.907 109.944 109.947 109.947 109.957 109.982 109.954 109.967 109.984 109.992 110.009 109.994 110.002 110.019 110.022 110.052 110.057 110.067 110.082 110.067 110.074 110.054 110.059 110.037 110.027 110.024 110.024 110.024 110.009 110.009 109.994 109.969 109.919 109.892 109.807 109.762 109.657 109.514 109.077 109.699 110.474 110.039 111.322 110.377 111.127 110.352 111.187 110.664 110.952 111.297 111.059 111.282 111.757 112.392 112.367 111.987 113.187 112.149 111.119 111.222 111.642 110.912 112.534 112.039 111.809 112.312 112.329 112.162 112.522 112.869 112.809 112.917 112.974 113.217 113.454 113.627 113.819 113.984 114.114 114.244 114.382 114.512 114.642 114.759 114.877 115.007 115.134 115.272 115.424 115.544 115.674 115.784 115.897 116.034 116.149 116.257 116.381 116.476 116.619 116.721 116.859 116.984 117.151 117.289 117.441 117.611 117.769 117.954 118.146 118.301 118.454 118.631 118.791 118.969 119.151 119.294 119.466 119.619 119.769 119.944 120.109 120.266 120.456 120.614 120.816 120.994 121.179 121.401 121.584 121.804 121.994 122.219 122.456 122.686 122.904 123.154 123.389 123.616 123.824 124.029 124.251 124.461 124.661 124.854 125.379 126.494 127.316 126.849 127.004 127.209 127.426 127.609 127.789 127.941 128.151 128.341 128.554 128.721 128.901 129.119 129.321 129.506 129.679 129.889 130.064 130.206 130.409 130.606 130.769 130.951 131.109 131.286 131.436 131.594 131.721 131.846 131.946 132.101 132.216 132.331 132.424 132.571 132.681 132.811 132.894 133.009 133.131 133.256 133.349 133.454 133.524 133.629 133.721 133.814 133.864 133.939 133.996 134.041 134.116 134.161 134.209 134.204 134.256 134.264 134.226 134.216 134.199 134.176 134.154 134.129 134.076 134.011 133.966 133.901 133.846 133.789 133.671 133.609 133.526 133.431 133.344 133.229 133.154 133.046 132.979 132.889 132.841 133.156 133.739 132.389 132.086 132.096 132.096 132.041 131.941 131.836 131.669 131.476 131.304 131.161 131.046 130.919 130.791 130.659 130.521 130.404 130.266 130.129 129.996 129.859 129.726 129.591 129.471 129.304 129.174 129.026 128.864 128.719 128.556 128.386 128.246 128.124 128.064 127.934 127.786 127.766 127.641 127.511 127.441 127.321 127.304 127.094 127.149 126.959 127.011 126.894 126.776
109.047 109.094 109.149 109.219 109.274 109.352 109.414 109.474 109.509 109.579 109.627 109.672 109.724 109.764 109.824 109.827 109.867 109.899 109.922 109.947 109.977 109.994 110.022 110.027 110.067 110.082 110.107 110.147 110.127 110.114 110.079 110.054 109.994 109.954 109.897 109.802 109.699 109.687 109.907 111.174 111.059 109.854 109.479 110.527 111.117 110.527 110.402 110.464 110.534 110.267 110.117 110.339 110.164 110.062 111.167 112.289 111.234 109.934 109.759 112.859 110.342 109.689 109.564 109.492 109.552 109.434 109.409 109.392 109.369 109.349 109.344 109.312 109.309 109.299 109.312 109.304 109.322 109.304 109.302 109.337 109.329 109.339 109.337 109.327 109.347 109.344 109.314 109.332 109.357 109.359 109.397 109.392 109.444 109.464 109.497 109.507 109.529 109.567 109.587 109.634 109.632 109.622 109.637 109.662 109.647 109.654 109.669 109.667 109.684 109.712 109.722 109.732 109.737 109.769 109.784 109.777 109.789 109.797 109.799 109.799 109.797 109.777 109.784 109.767 109.769 109.767 109.744 109.732 109.737 109.714 109.702 109.629 109.664 109.629 109.487 109.319 108.967 108.982 109.347 109.507 110.934 111.977 111.019 110.864 111.139 110.584 110.792 111.164 111.122 110.992 111.279 111.714 113.159 112.297 113.334 111.397 111.072 111.774 112.747 112.062 111.169 111.229 111.712 112.237 112.674 112.177 112.357 112.687 112.604 112.739 112.992 113.284 113.447 113.657 113.824 113.957 114.099 114.227 114.382 114.547 114.677 114.797 114.922 115.034 115.174 115.304 115.434 115.559 115.659 115.749 115.914 116.012 116.119 116.247 116.366 116.456 116.596 116.729 116.854 117.014 117.149 117.299 117.464 117.616 117.774 117.956 118.151 118.301 118.439 118.614 118.781 118.966 119.131 119.286 119.456 119.599 119.776 119.941 120.079 120.279 120.446 120.621 120.809 120.974 121.196 121.379 121.594 121.776 121.981 122.211 122.436 122.664 122.901 123.136 123.349 123.569 123.801 123.999 124.221 124.429 124.631 124.954 125.919 126.971 126.829 126.771 126.996 127.199 127.389 127.579 127.746 127.964 128.161 128.339 128.529 128.691 128.896 129.136 129.294 129.489 129.669 129.874 130.046 130.229 130.429 130.579 130.776 130.946 131.124 131.256 131.429 131.579 131.744 131.836 131.954 132.074 132.189 132.324 132.436 132.559 132.674 132.781 132.871 133.031 133.149 133.229 133.339 133.424 133.534 133.624 133.699 133.804 133.874 133.941 133.991 134.066 134.139 134.171 134.199 134.216 134.254 134.281 134.239 134.224 134.216 134.206 134.171 134.141 134.084 134.011 133.979 133.916 133.881 133.774 133.701 133.616 133.531 133.446 133.374 133.259 133.179 133.096 132.984 132.919 132.911 133.529 133.734 132.209 132.156 132.161 132.154 132.099 131.994 131.849 131.676 131.501 131.336 131.196 131.064 130.944 130.829 130.684 130.564 130.441 130.319 130.184 130.066 129.926 129.786 129.649 129.501 129.381 129.239 129.069 128.926 128.781 128.616 128.474 128.311 128.139 127.969 127.814 127.651 127.481 127.326 127.171 126.994 126.819 126.624 126.439 126.266 126.106 125.949 125.766 125.599
108.732 108.794 108.862 108.929 108.992 109.034 109.114 109.154 109.209 109.267 109.307 109.372 109.417 109.457 109.507 109.507 109.572 109.597 109.614 109.637 109.657 109.697 109.699 109.729 109.744 109.739 109.769 109.799 109.797 109.802 109.742 109.714 109.679 109.604 109.577 109.492 109.397 109.334 109.417 110.529 110.812 109.714 109.137 109.787 110.367 111.067 110.062 109.787 110.349 109.597 109.444 109.632 109.439 109.409 109.499 109.357 109.372 109.357 109.327 109.374 109.292 109.132 109.129 109.102 109.077 109.059 109.067 109.057 109.064 109.047 109.012 109.012 109.014 109.007 108.984 108.977 108.972 108.964 108.987 108.997 109.012 109.009 109.027 109.037 109.037 109.014 109.032 109.029 109.049 109.067 109.074 109.054 109.114 109.144 109.169 109.199 109.234 109.254 109.284 109.282 109.297 109.332 109.329 109.337 109.334 109.344 109.364 109.382 109.384 109.422 109.422 109.449 109.472 109.479 109.499 109.517 109.552 109.557 109.562 109.549 109.549 109.542 109.524 109.527 109.524 109.517 109.509 109.482 109.499 109.482 109.477 109.467 109.479 109.449 109.282 109.104 108.907 108.782 109.164 109.399 110.024 110.052 110.357 110.284 110.427 110.849 110.557 110.812 111.079 111.054 111.264 111.704 112.164 111.622 112.009 112.747 111.334 112.422 112.059 111.074 111.337 111.649 111.959 111.962 112.054 112.099 112.207 112.397 112.497 112.802 113.067 113.249 113.467 113.624 113.794 113.964 114.082 114.227 114.399 114.552 114.682 114.817 114.939 115.064 115.217 115.327 115.452 115.574 115.652 115.784 115.894 116.002 116.124 116.237 116.349 116.459 116.576 116.724 116.866 117.016 117.166 117.306 117.471 117.626 117.779 117.966 118.126 118.266 118.449 118.624 118.781 118.961 119.131 119.281 119.444 119.606 119.781 119.939 120.111 120.266 120.436 120.611 120.786 120.981 121.201 121.381 121.586 121.771 121.971 122.191 122.449 122.649 122.891 123.109 123.329 123.559 123.776 123.979 124.199 124.389 124.609 125.226 126.621 126.969 126.579 126.786 126.991 127.194 127.369 127.561 127.756 127.959 128.126 128.324 128.504 128.699 128.919 129.124 129.296 129.476 129.669 129.881 130.054 130.231 130.424 130.609 130.764 130.941 131.111 131.279 131.414 131.591 131.716 131.841 131.964 132.086 132.216 132.324 132.444 132.569 132.664 132.794 132.896 133.049 133.136 133.234 133.334 133.431 133.516 133.609 133.676 133.771 133.856 133.924 134.011 134.081 134.139 134.171 134.206 134.214 134.254 134.271 134.234 134.234 134.221 134.201 134.166 134.151 134.094 134.021 133.989 133.954 133.871 133.791 133.721 133.636 133.516 133.466 133.371 133.279 133.176 133.121 133.019 132.936 132.941 133.776 133.439 132.174 132.191 132.206 132.146 132.094 131.991 131.861 131.686 131.489 131.324 131.184 131.074 130.954 130.819 130.706 130.571 130.444 130.319 130.164 130.049 129.914 129.779 129.661 129.519 129.384 129.236 129.104 128.939 128.786 128.626 128.461 128.309 128.164 128.001 127.866 127.689 127.531 127.349 127.196 127.026 126.859 126.694 126.511 126.336 126.171 126.004 125.806 125.646
108.407 108.479 108.532 108.587 108.662 108.737 108.782 108.837 108.889 108.952 108.994 109.062 109.107 109.137 109.199 109.229 109.259 109.277 109.302 109.327 109.334 109.359 109.389 109.417 109.412 109.424 109.452 109.454 109.449 109.459 109.432 109.384 109.357 109.294 109.249 109.157 109.097 108.997 109.087 109.854 110.654 109.939 108.834 108.947 109.617 109.519 110.084 109.784 109.152 109.064 109.037 109.047 108.997 109.012 108.999 108.957 108.932 108.839 108.949 108.924 108.812 108.804 108.797 108.784 108.764 108.764 108.752 108.732 108.717 108.694 108.692 108.679 108.672 108.664 108.669 108.664 108.664 108.674 108.689 108.684 108.684 108.697 108.717 108.694 108.674 108.704 108.702 108.714 108.707 108.734 108.727 108.772 108.789 108.844 108.864 108.894 108.914 108.949 108.954 108.942 108.972 108.994 109.022 109.022 109.049 109.049 109.059 109.077 109.079 109.117 109.159 109.189 109.199 109.232 109.257 109.267 109.269 109.309 109.292 109.304 109.299 109.319 109.292 109.297 109.292 109.272 109.279 109.269 109.289 109.277 109.259 109.264 109.234 109.184 109.027 108.939 108.797 108.694 109.002 109.207 109.482 109.767 109.952 109.897 109.919 109.977 110.152 110.269 110.772 110.957 111.052 111.159 111.604 111.424 111.404 111.832 111.767 110.487 110.724 111.229 111.594 111.634 111.829 111.922 111.994 112.097 112.224 112.317 112.587 112.874 113.059 113.259 113.454 113.617 113.772 113.904 114.049 114.262 114.417 114.552 114.702 114.819 114.952 115.097 115.214 115.317 115.454 115.559 115.669 115.789 115.884 115.992 116.122 116.217 116.344 116.451 116.589 116.731 116.869 117.016 117.156 117.306 117.459 117.626 117.794 117.961 118.121 118.266 118.444 118.624 118.781 118.961 119.129 119.276 119.434 119.599 119.769 119.939 120.104 120.286 120.429 120.609 120.799 121.001 121.169 121.376 121.571 121.771 121.981 122.189 122.406 122.656 122.864 123.084 123.306 123.536 123.736 123.979 124.166 124.364 124.661 125.824 126.921 126.671 126.566 126.776 126.986 127.186 127.364 127.539 127.756 127.956 128.146 128.299 128.509 128.704 128.919 129.124 129.299 129.476 129.681 129.884 130.054 130.229 130.429 130.604 130.771 130.949 131.124 131.274 131.426 131.596 131.731 131.851 131.971 132.094 132.216 132.331 132.446 132.566 132.669 132.794 132.891 133.029 133.116 133.231 133.351 133.419 133.514 133.606 133.691 133.774 133.876 133.926 134.009 134.056 134.121 134.159 134.199 134.221 134.254 134.251 134.239 134.219 134.224 134.224 134.176 134.134 134.076 134.024 133.994 133.936 133.859 133.764 133.721 133.604 133.529 133.444 133.396 133.289 133.226 133.116 133.024 132.984 133.089 133.886 133.134 132.229 132.259 132.256 132.169 132.084 131.966 131.856 131.691 131.481 131.321 131.189 131.079 130.944 130.839 130.721 130.584 130.451 130.319 130.179 130.056 129.919 129.791 129.644 129.509 129.366 129.229 129.094 128.936 128.761 128.621 128.459 128.304 128.154 127.986 127.834 127.681 127.534 127.386 127.234 127.064 126.889 126.736 126.544 126.389 126.221 126.036 125.881 125.701
108.069 108.144 108.199 108.262 108.344 108.397 108.444 108.499 108.572 108.614 108.682 108.732 108.777 108.809 108.854 108.892 108.949 108.954 108.957 108.979 109.002 109.017 109.042 109.059 109.084 109.102 109.117 109.102 109.117 109.134 109.094 109.029 109.019 108.947 108.884 108.814 108.759 108.722 108.742 109.042 110.384 109.924 108.592 108.412 108.654 108.777 108.744 108.642 108.624 108.632 108.612 108.652 108.627 108.589 108.669 108.552 108.549 108.537 108.587 108.507 108.512 108.489 108.484 108.457 108.452 108.432 108.429 108.407 108.412 108.394 108.387 108.382 108.384 108.379 108.364 108.372 108.354 108.364 108.367 108.377 108.369 108.374 108.374 108.372 108.389 108.384 108.387 108.392 108.407 108.419 108.447 108.457 108.492 108.522 108.544 108.577 108.604 108.629 108.639 108.672 108.687 108.709 108.709 108.727 108.769 108.774 108.814 108.792 108.824 108.844 108.889 108.917 108.927 108.967 108.989 109.002 109.009 109.034 109.037 109.039 109.049 109.057 109.082 109.099 109.087 109.074 109.089 109.092 109.089 109.084 109.072 109.069 109.069 108.972 108.834 108.827 108.644 108.607 108.899 109.109 109.292 109.369 109.627 109.652 109.599 109.874 110.084 110.127 110.487 110.887 110.849 110.899 111.452 111.047 110.772 110.219 110.234 110.574 110.984 111.499 111.617 111.804 111.722 111.849 112.009 112.072 112.189 112.439 112.697 112.897 113.102 113.282 113.447 113.589 113.704 113.854 114.049 114.224 114.412 114.537 114.687 114.829 114.952 115.074 115.209 115.332 115.439 115.559 115.677 115.782 115.872 115.994 116.099 116.222 116.344 116.444 116.574 116.739 116.869 117.024 117.159 117.336 117.469 117.629 117.806 117.969 118.104 118.286 118.459 118.619 118.796 118.951 119.131 119.276 119.449 119.611 119.756 119.951 120.099 120.294 120.456 120.631 120.821 121.019 121.166 121.376 121.556 121.754 121.964 122.181 122.406 122.649 122.876 123.091 123.309 123.504 123.724 123.939 124.146 124.376 124.984 126.499 126.739 126.381 126.546 126.774 127.034 127.191 127.339 127.541 127.764 127.961 128.116 128.296 128.511 128.721 128.924 129.131 129.299 129.469 129.709 129.884 130.016 130.241 130.431 130.616 130.789 130.971 131.119 131.266 131.434 131.576 131.731 131.826 131.959 132.086 132.196 132.329 132.439 132.569 132.676 132.789 132.891 133.021 133.121 133.216 133.309 133.419 133.506 133.586 133.699 133.759 133.856 133.941 134.021 134.056 134.111 134.151 134.199 134.226 134.244 134.239 134.241 134.226 134.239 134.206 134.161 134.116 134.076 134.031 133.971 133.916 133.846 133.749 133.691 133.624 133.544 133.489 133.364 133.304 133.216 133.109 133.024 132.986 133.249 133.851 132.666 132.291 132.286 132.259 132.184 132.096 131.984 131.856 131.661 131.456 131.326 131.206 131.104 130.961 130.846 130.719 130.589 130.451 130.319 130.181 130.036 129.894 129.761 129.631 129.479 129.349 129.199 129.049 128.909 128.759 128.604 128.449 128.314 128.154 127.996 127.824 127.701 127.549 127.394 127.206 127.069 126.896 126.734 126.579 126.399 126.231 126.076 125.904 125.716
107.734 107.809 107.854 107.942 107.992 108.057 108.102 108.177 108.237 108.277 108.329 108.382 108.427 108.479 108.517 108.569 108.602 108.629 108.652 108.664 108.689 108.692 108.727 108.734 108.734 108.779 108.772 108.767 108.789 108.789 108.764 108.714 108.704 108.654 108.584 108.539 108.457 108.419 108.384 108.672 109.659 110.197 108.507 108.084 108.072 108.104 108.204 108.279 108.317 108.324 108.309 108.304 108.304 108.262 108.242 108.237 108.229 108.229 108.224 108.222 108.194 108.197 108.182 108.159 108.152 108.142 108.109 108.099 108.079 108.069 108.067 108.084 108.079 108.069 108.047 108.042 108.052 108.054 108.069 108.079 108.047 108.037 108.067 108.077 108.072 108.084 108.067 108.092 108.119 108.117 108.129 108.157 108.202 108.224 108.247 108.287 108.319 108.359 108.362 108.399 108.422 108.429 108.437 108.454 108.487 108.507 108.509 108.537 108.572 108.582 108.619 108.634 108.657 108.687 108.707 108.729 108.754 108.767 108.804 108.814 108.852 108.859 108.879 108.894 108.907 108.919 108.922 108.929 108.912 108.927 108.922 108.882 108.879 108.759 108.709 108.579 108.467 108.757 108.899 109.067 109.307 109.227 109.329 109.332 109.392 110.339 110.912 109.967 109.984 110.504 110.457 110.584 110.639 110.547 110.269 110.507 110.814 111.134 111.247 111.582 111.594 111.674 111.792 111.854 111.957 112.087 112.332 112.564 112.742 112.967 113.114 113.259 113.414 113.539 113.682 113.847 114.024 114.199 114.377 114.517 114.662 114.804 114.937 115.064 115.209 115.302 115.434 115.539 115.659 115.759 115.887 115.979 116.074 116.217 116.336 116.444 116.586 116.739 116.866 117.011 117.156 117.351 117.484 117.644 117.821 117.981 118.124 118.301 118.466 118.644 118.809 118.976 119.109 119.281 119.456 119.601 119.769 119.941 120.116 120.316 120.466 120.649 120.839 120.996 121.186 121.366 121.531 121.764 121.956 122.171 122.399 122.606 122.826 123.069 123.274 123.484 123.711 123.899 124.139 124.544 125.811 126.749 126.364 126.356 126.556 126.794 126.991 127.161 127.321 127.566 127.774 127.926 128.094 128.316 128.561 128.749 128.931 129.129 129.296 129.484 129.726 129.909 130.059 130.261 130.446 130.616 130.799 130.989 131.146 131.281 131.451 131.599 131.724 131.839 131.959 132.106 132.211 132.346 132.444 132.536 132.671 132.791 132.894 133.006 133.114 133.224 133.319 133.391 133.504 133.579 133.681 133.769 133.866 133.926 133.991 134.061 134.096 134.144 134.191 134.209 134.224 134.246 134.234 134.244 134.241 134.199 134.141 134.114 134.079 134.029 133.994 133.914 133.831 133.759 133.696 133.624 133.579 133.459 133.351 133.301 133.211 133.111 133.036 132.994 133.431 133.811 132.454 132.289 132.311 132.271 132.216 132.141 132.021 131.864 131.669 131.476 131.331 131.206 131.076 130.954 130.826 130.691 130.561 130.439 130.314 130.164 130.026 129.889 129.754 129.604 129.459 129.306 129.164 129.029 128.874 128.724 128.569 128.434 128.299 128.141 127.999 127.846 127.701 127.521 127.394 127.234 127.076 126.904 126.746 126.599 126.431 126.264 126.106 125.936 125.761
107.387 107.459 107.507 107.574 107.639 107.719 107.779 107.827 107.889 107.947 108.007 108.032 108.077 108.132 108.202 108.254 108.262 108.294 108.297 108.314 108.347 108.382 108.374 108.397 108.419 108.424 108.452 108.452 108.449 108.442 108.407 108.367 108.349 108.327 108.284 108.224 108.124 108.137 108.134 108.324 108.979 110.792 109.104 107.852 107.804 107.799 107.834 107.912 107.989 108.007 108.017 107.994 107.977 107.949 107.942 107.949 107.939 107.927 107.934 107.902 107.912 107.902 107.879 107.867 107.844 107.812 107.832 107.804 107.787 107.774 107.777 107.762 107.754 107.757 107.732 107.732 107.747 107.762 107.747 107.729 107.744 107.754 107.762 107.762 107.772 107.794 107.802 107.824 107.817 107.829 107.869 107.904 107.932 107.969 108.002 108.019 108.042 108.069 108.112 108.097 108.137 108.144 108.172 108.199 108.199 108.204 108.222 108.244 108.262 108.297 108.327 108.369 108.412 108.422 108.452 108.494 108.532 108.562 108.577 108.632 108.627 108.662 108.694 108.679 108.694 108.697 108.724 108.744 108.799 108.797 108.774 108.712 108.704 108.654 108.532 108.384 108.537 108.769 108.764 108.882 108.869 109.019 108.984 109.037 109.104 109.194 109.584 109.599 109.454 109.477 109.644 109.712 109.942 109.912 110.507 110.984 111.227 111.319 111.414 111.499 111.572 111.624 111.729 111.842 112.017 112.247 112.447 112.627 112.812 112.957 113.094 113.239 113.374 113.514 113.659 113.829 114.009 114.177 114.339 114.474 114.639 114.794 114.927 115.057 115.167 115.274 115.384 115.509 115.619 115.734 115.852 115.947 116.054 116.192 116.311 116.441 116.584 116.699 116.861 117.021 117.171 117.331 117.504 117.669 117.831 117.976 118.139 118.314 118.479 118.661 118.816 118.974 119.124 119.296 119.471 119.614 119.789 119.961 120.139 120.289 120.494 120.661 120.839 121.011 121.204 121.374 121.564 121.739 121.959 122.166 122.374 122.589 122.819 123.046 123.241 123.454 123.671 123.889 124.161 125.041 126.364 126.549 126.151 126.341 126.549 126.784 126.979 127.149 127.324 127.564 127.761 127.936 128.121 128.351 128.574 128.769 128.944 129.129 129.331 129.516 129.714 129.919 130.096 130.269 130.466 130.641 130.836 130.986 131.149 131.304 131.451 131.619 131.736 131.854 131.979 132.116 132.206 132.339 132.449 132.556 132.661 132.779 132.911 132.999 133.104 133.204 133.296 133.391 133.514 133.599 133.696 133.756 133.836 133.931 133.984 134.049 134.099 134.156 134.171 134.191 134.221 134.229 134.189 134.226 134.234 134.189 134.134 134.091 134.059 134.009 133.956 133.894 133.824 133.766 133.699 133.614 133.559 133.449 133.304 133.284 133.179 133.094 133.051 133.001 133.524 133.656 132.326 132.291 132.329 132.274 132.216 132.136 132.019 131.836 131.676 131.469 131.326 131.219 131.081 130.966 130.836 130.716 130.559 130.409 130.286 130.146 130.004 129.879 129.724 129.584 129.444 129.281 129.121 128.989 128.834 128.684 128.549 128.391 128.236 128.101 127.961 127.814 127.676 127.544 127.386 127.246 127.071 126.899 126.739 126.574 126.419 126.249 126.079 125.906 125.736
107.042 107.097 107.164 107.202 107.287 107.352 107.412 107.484 107.537 107.609 107.649 107.707 107.742 107.817 107.849 107.902 107.907 107.954 107.982 107.977 108.022 108.032 108.052 108.049 108.072 108.084 108.094 108.104 108.104 108.104 108.074 108.052 108.037 108.012 107.964 107.912 107.824 107.812 107.852 108.294 109.317 109.199 110.169 107.717 107.502 107.534 107.559 107.582 107.644 107.732 107.697 107.689 107.677 107.644 107.639 107.617 107.629 107.619 107.619 107.607 107.594 107.582 107.572 107.552 107.557 107.537 107.509 107.492 107.474 107.462 107.469 107.452 107.457 107.464 107.439 107.449 107.449 107.452 107.452 107.459 107.444 107.449 107.474 107.449 107.489 107.537 107.537 107.552 107.582 107.594 107.639 107.654 107.677 107.689 107.722 107.742 107.774 107.794 107.827 107.814 107.834 107.854 107.857 107.929 107.932 107.949 107.959 107.979 108.027 108.049 108.084 108.139 108.154 108.202 108.237 108.279 108.319 108.339 108.394 108.394 108.424 108.434 108.432 108.472 108.502 108.569 108.604 108.652 108.649 108.682 108.629 108.497 108.402 108.314 108.357 108.442 108.567 108.564 108.747 109.327 109.482 109.427 109.474 109.532 109.512 109.639 109.739 109.794 109.869 109.974 109.959 109.997 110.174 110.534 110.879 111.054 111.257 111.372 111.299 111.362 111.444 111.599 111.789 111.972 112.162 112.359 112.537 112.682 112.817 112.939 113.094 113.237 113.364 113.512 113.667 113.829 113.987 114.142 114.302 114.459 114.624 114.759 114.889 115.014 115.119 115.224 115.362 115.452 115.582 115.669 115.794 115.914 116.017 116.139 116.304 116.416 116.554 116.691 116.846 116.999 117.176 117.334 117.496 117.679 117.826 117.996 118.154 118.324 118.494 118.666 118.819 118.956 119.151 119.299 119.466 119.644 119.814 119.986 120.166 120.326 120.504 120.674 120.849 121.029 121.216 121.374 121.576 121.766 121.964 122.161 122.364 122.571 122.776 122.999 123.229 123.451 123.641 123.889 124.346 125.866 126.624 126.104 126.094 126.321 126.554 126.751 126.929 127.124 127.346 127.551 127.754 127.924 128.151 128.369 128.566 128.779 128.971 129.159 129.341 129.524 129.741 129.926 130.106 130.311 130.496 130.666 130.836 131.011 131.146 131.321 131.456 131.609 131.729 131.849 132.006 132.104 132.231 132.341 132.476 132.576 132.684 132.766 132.894 133.021 133.089 133.206 133.311 133.409 133.489 133.601 133.696 133.761 133.856 133.911 133.976 134.049 134.089 134.131 134.149 134.171 134.204 134.216 134.221 134.206 134.196 134.136 134.126 134.076 134.026 134.001 133.929 133.861 133.801 133.761 133.684 133.626 133.551 133.429 133.344 133.269 133.171 133.074 133.034 133.026 133.729 133.306 132.219 132.316 132.331 132.284 132.214 132.126 132.006 131.844 131.634 131.434 131.294 131.161 131.059 130.931 130.806 130.679 130.539 130.389 130.241 130.119 129.974 129.831 129.694 129.544 129.379 129.246 129.086 128.954 128.811 128.654 128.524 128.374 128.229 128.079 127.936 127.806 127.649 127.504 127.379 127.209 127.059 126.886 126.734 126.576 126.404 126.254 126.084 125.924 125.744
106.667 106.737 106.807 106.874 106.937 106.984 107.069 107.142 107.184 107.257 107.292 107.344 107.419 107.477 107.514 107.557 107.587 107.624 107.659 107.669 107.662 107.677 107.694 107.724 107.744 107.754 107.764 107.759 107.774 107.752 107.732 107.732 107.687 107.682 107.632 107.574 107.487 107.479 107.567 107.887 108.864 109.162 110.057 108.129 107.259 107.184 107.287 107.327 107.349 107.417 107.429 107.392 107.357 107.344 107.342 107.339 107.319 107.317 107.299 107.302 107.304 107.284 107.259 107.259 107.234 107.199 107.197 107.184 107.177 107.169 107.147 107.157 107.157 107.159 107.159 107.167 107.162 107.154 107.157 107.152 107.182 107.187 107.179 107.189 107.237 107.242 107.254 107.277 107.317 107.347 107.352 107.379 107.404 107.424 107.432 107.449 107.457 107.502 107.532 107.539 107.582 107.597 107.649 107.662 107.694 107.734 107.762 107.769 107.822 107.867 107.907 107.919 107.962 107.994 108.044 108.069 108.069 108.122 108.147 108.162 108.224 108.269 108.319 108.352 108.394 108.437 108.482 108.544 108.507 108.452 108.357 108.199 108.279 108.307 108.432 108.462 108.652 108.987 109.319 109.469 109.617 109.617 109.657 109.732 109.799 109.882 109.992 110.104 110.214 110.314 110.344 110.334 110.424 110.647 110.827 110.954 111.022 111.127 111.272 111.412 111.577 111.767 111.924 112.124 112.277 112.412 112.559 112.694 112.829 112.967 113.107 113.229 113.367 113.504 113.662 113.834 113.952 114.129 114.272 114.419 114.562 114.699 114.842 114.972 115.089 115.179 115.282 115.419 115.532 115.639 115.754 115.867 115.982 116.127 116.271 116.394 116.526 116.669 116.809 116.984 117.174 117.326 117.501 117.644 117.826 117.994 118.171 118.321 118.489 118.641 118.801 118.966 119.129 119.311 119.481 119.644 119.804 119.999 120.149 120.326 120.516 120.679 120.861 121.044 121.209 121.371 121.571 121.749 121.956 122.144 122.349 122.559 122.786 122.964 123.216 123.406 123.619 123.919 125.044 126.244 126.209 125.874 126.094 126.321 126.556 126.716 126.911 127.134 127.336 127.569 127.766 127.929 128.159 128.399 128.609 128.789 128.996 129.171 129.346 129.574 129.749 129.926 130.136 130.344 130.521 130.711 130.889 131.014 131.181 131.321 131.471 131.594 131.741 131.864 131.996 132.131 132.251 132.381 132.501 132.576 132.696 132.776 132.914 132.994 133.101 133.214 133.299 133.409 133.476 133.601 133.689 133.789 133.856 133.911 133.971 134.046 134.099 134.111 134.141 134.169 134.191 134.214 134.219 134.216 134.159 134.151 134.094 134.071 134.019 133.979 133.931 133.861 133.774 133.759 133.669 133.586 133.511 133.439 133.341 133.249 133.159 133.076 133.011 133.131 133.884 132.926 132.249 132.274 132.316 132.316 132.241 132.151 131.984 131.801 131.594 131.419 131.284 131.151 131.054 130.921 130.779 130.646 130.516 130.366 130.244 130.111 129.946 129.819 129.666 129.534 129.374 129.226 129.064 128.941 128.771 128.631 128.481 128.349 128.189 128.066 127.924 127.764 127.611 127.489 127.329 127.181 127.024 126.879 126.716 126.566 126.414 126.269 126.094 125.916 125.759
106.292 106.374 106.447 106.514 106.572 106.627 106.704 106.789 106.852 106.899 106.949 106.999 107.067 107.109 107.172 107.197 107.239 107.277 107.314 107.312 107.337 107.369 107.364 107.387 107.389 107.409 107.432 107.409 107.409 107.434 107.407 107.379 107.357 107.344 107.327 107.239 107.154 107.142 107.214 107.697 108.167 108.522 108.549 108.372 107.154 106.899 106.939 107.017 107.034 107.107 107.122 107.087 107.062 107.044 107.042 107.024 107.027 107.029 107.014 107.014 106.994 106.997 106.982 106.954 106.932 106.922 106.909 106.902 106.882 106.862 106.862 106.872 106.849 106.859 106.877 106.894 106.872 106.874 106.867 106.892 106.869 106.894 106.902 106.932 106.952 106.969 106.989 107.022 107.019 107.047 107.047 107.084 107.122 107.129 107.149 107.189 107.227 107.254 107.282 107.324 107.354 107.389 107.434 107.477 107.502 107.532 107.562 107.604 107.627 107.662 107.699 107.722 107.749 107.769 107.802 107.824 107.872 107.934 108.009 108.064 108.099 108.147 108.197 108.262 108.324 108.389 108.464 108.374 108.274 108.154 108.157 108.394 108.724 108.654 108.849 108.962 109.079 109.199 109.334 109.457 109.467 109.542 109.597 109.637 109.694 109.739 109.837 109.959 110.069 110.184 110.254 110.332 110.449 110.594 110.769 110.924 111.122 111.257 111.389 111.502 111.687 111.894 112.054 112.194 112.319 112.449 112.617 112.724 112.874 112.992 113.114 113.249 113.387 113.522 113.669 113.812 113.972 114.117 114.244 114.389 114.547 114.674 114.799 114.947 115.029 115.127 115.254 115.367 115.477 115.592 115.679 115.817 115.962 116.082 116.219 116.346 116.506 116.654 116.804 116.991 117.139 117.339 117.481 117.651 117.811 117.989 118.169 118.334 118.481 118.654 118.806 118.966 119.131 119.306 119.471 119.634 119.826 120.009 120.149 120.321 120.496 120.686 120.851 121.026 121.211 121.389 121.576 121.769 121.954 122.151 122.336 122.536 122.741 122.966 123.181 123.391 123.624 124.141 125.771 126.274 125.689 125.836 126.056 126.326 126.531 126.689 126.914 127.131 127.354 127.564 127.739 127.951 128.194 128.409 128.609 128.826 129.021 129.201 129.401 129.581 129.766 129.961 130.166 130.356 130.536 130.719 130.881 131.031 131.184 131.344 131.484 131.601 131.754 131.896 132.009 132.141 132.259 132.366 132.491 132.601 132.714 132.811 132.924 133.004 133.089 133.221 133.311 133.394 133.516 133.639 133.696 133.774 133.841 133.896 133.964 134.021 134.069 134.104 134.139 134.156 134.184 134.191 134.189 134.194 134.146 134.104 134.074 134.046 133.999 133.944 133.906 133.846 133.746 133.696 133.636 133.566 133.499 133.399 133.324 133.241 133.116 133.044 132.999 133.251 133.876 132.609 132.264 132.349 132.311 132.281 132.241 132.144 131.976 131.771 131.574 131.379 131.264 131.166 131.026 130.894 130.764 130.629 130.486 130.346 130.196 130.071 129.916 129.776 129.616 129.489 129.351 129.199 129.056 128.891 128.734 128.614 128.471 128.331 128.196 128.059 127.914 127.761 127.621 127.449 127.321 127.166 127.011 126.869 126.716 126.564 126.416 126.241 126.076 125.896 125.746
105.912 105.987 106.049 106.129 106.187 106.247 106.344 106.417 106.474 106.534 106.604 106.667 106.712 106.779 106.812 106.844 106.909 106.917 106.964 106.992 107.022 107.032 107.039 107.057 107.052 107.074 107.072 107.072 107.079 107.084 107.062 107.037 107.044 107.004 106.972 106.872 106.779 106.817 106.772 107.499 107.949 107.964 108.232 109.154 106.837 106.722 106.689 106.699 106.762 106.804 106.837 106.797 106.762 106.759 106.757 106.719 106.737 106.722 106.699 106.712 106.712 106.692 106.682 106.672 106.654 106.629 106.622 106.602 106.597 106.594 106.607 106.594 106.592 106.602 106.597 106.589 106.614 106.627 106.624 106.632 106.619 106.629 106.634 106.642 106.654 106.682 106.709 106.754 106.772 106.802 106.822 106.874 106.884 106.914 106.957 106.992 107.027 107.069 107.087 107.144 107.162 107.214 107.254 107.279 107.297 107.327 107.347 107.404 107.452 107.479 107.532 107.554 107.617 107.649 107.674 107.719 107.769 107.807 107.867 107.897 107.972 108.092 108.194 108.297 108.249 108.139 108.059 108.047 108.014 108.287 108.642 108.944 109.084 109.044 109.079 109.102 109.147 109.164 109.207 109.272 109.319 109.374 109.494 109.609 109.689 109.784 109.912 110.017 110.104 110.244 110.364 110.474 110.594 110.757 110.929 111.064 111.209 111.322 111.477 111.637 111.784 111.922 112.072 112.192 112.317 112.474 112.627 112.749 112.864 113.017 113.154 113.287 113.427 113.554 113.702 113.837 113.952 114.102 114.227 114.384 114.507 114.632 114.767 114.862 114.974 115.092 115.174 115.284 115.412 115.519 115.627 115.764 115.909 116.032 116.194 116.331 116.466 116.629 116.799 116.954 117.109 117.321 117.466 117.636 117.829 118.006 118.159 118.309 118.466 118.646 118.824 118.966 119.109 119.286 119.474 119.659 119.819 119.979 120.186 120.364 120.514 120.689 120.854 121.034 121.196 121.376 121.574 121.751 121.924 122.131 122.319 122.499 122.716 122.931 123.149 123.374 123.686 124.789 126.004 125.649 125.576 125.819 126.069 126.286 126.489 126.679 126.894 127.096 127.334 127.531 127.761 127.969 128.199 128.421 128.609 128.826 129.029 129.216 129.404 129.596 129.834 130.026 130.199 130.364 130.564 130.731 130.899 131.059 131.211 131.364 131.484 131.636 131.751 131.886 132.021 132.139 132.264 132.366 132.469 132.596 132.699 132.824 132.926 133.009 133.119 133.244 133.299 133.426 133.521 133.619 133.694 133.784 133.856 133.891 133.979 134.039 134.076 134.094 134.119 134.159 134.184 134.164 134.146 134.161 134.116 134.069 134.044 134.014 133.976 133.916 133.861 133.809 133.724 133.669 133.639 133.549 133.469 133.376 133.291 133.204 133.076 133.036 132.979 133.539 133.781 132.441 132.264 132.314 132.289 132.266 132.186 132.094 131.934 131.731 131.529 131.361 131.226 131.109 131.006 130.884 130.736 130.616 130.466 130.341 130.199 130.051 129.901 129.754 129.606 129.474 129.334 129.184 129.039 128.899 128.741 128.606 128.444 128.306 128.156 128.024 127.894 127.724 127.591 127.439 127.284 127.141 127.014 126.849 126.694 126.556 126.406 126.271 126.091 125.896 125.721
105.527 105.602 105.682 105.752 105.842 105.902 105.967 106.039 106.112 106.174 106.254 106.322 106.372 106.422 106.482 106.507 106.572 106.617 106.634 106.662 106.674 106.704 106.712 106.717 106.717 106.729 106.719 106.714 106.737 106.732 106.744 106.707 106.704 106.669 106.637 106.539 106.432 106.534 106.474 106.962 107.594 107.754 107.889 108.464 106.919 106.467 106.409 106.389 106.462 106.484 106.529 106.527 106.499 106.477 106.444 106.432 106.424 106.407 106.417 106.417 106.409 106.407 106.402 106.384 106.354 106.342 106.329 106.322 106.327 106.319 106.337 106.322 106.337 106.339 106.349 106.349 106.357 106.374 106.369 106.354 106.352 106.349 106.364 106.379 106.412 106.427 106.462 106.519 106.549 106.589 106.637 106.657 106.702 106.742 106.774 106.809 106.839 106.867 106.894 106.954 106.967 107.007 107.042 107.107 107.164 107.217 107.269 107.314 107.344 107.402 107.447 107.452 107.484 107.539 107.559 107.592 107.702 107.762 107.827 107.902 107.932 108.037 107.979 107.894 107.829 107.854 107.929 108.159 108.664 108.849 108.982 108.979 108.964 108.932 108.939 108.984 109.049 109.139 109.247 109.357 109.474 109.572 109.679 109.799 109.874 109.964 110.044 110.147 110.239 110.372 110.467 110.592 110.737 110.869 111.007 111.152 111.279 111.397 111.537 111.644 111.774 111.899 112.037 112.214 112.364 112.507 112.654 112.777 112.929 113.052 113.204 113.334 113.429 113.567 113.722 113.847 113.979 114.117 114.232 114.364 114.479 114.607 114.714 114.812 114.902 115.002 115.102 115.232 115.319 115.444 115.579 115.722 115.849 116.007 116.161 116.276 116.431 116.604 116.776 116.946 117.119 117.291 117.471 117.641 117.814 117.984 118.164 118.294 118.471 118.636 118.806 118.969 119.121 119.291 119.489 119.664 119.829 120.014 120.214 120.381 120.516 120.694 120.854 121.019 121.204 121.394 121.564 121.741 121.904 122.099 122.301 122.476 122.694 122.896 123.106 123.334 124.051 125.461 125.766 125.324 125.544 125.806 126.029 126.254 126.419 126.659 126.889 127.101 127.316 127.554 127.766 127.981 128.224 128.406 128.624 128.874 129.034 129.226 129.394 129.616 129.831 130.026 130.199 130.421 130.564 130.764 130.906 131.071 131.201 131.361 131.521 131.649 131.781 131.921 132.051 132.149 132.274 132.401 132.496 132.604 132.716 132.849 132.924 133.021 133.141 133.259 133.336 133.444 133.531 133.624 133.726 133.786 133.851 133.894 133.984 134.031 134.049 134.109 134.099 134.149 134.146 134.146 134.161 134.124 134.096 134.066 134.051 133.961 133.921 133.886 133.839 133.769 133.706 133.656 133.611 133.539 133.454 133.334 133.269 133.169 133.064 133.014 132.969 133.696 133.451 132.171 132.261 132.279 132.286 132.221 132.181 132.086 131.894 131.694 131.506 131.354 131.204 131.069 130.981 130.846 130.704 130.556 130.424 130.294 130.146 130.009 129.871 129.714 129.591 129.429 129.281 129.154 128.999 128.849 128.716 128.586 128.419 128.291 128.131 127.996 127.844 127.729 127.586 127.439 127.284 127.156 127.014 126.846 126.701 126.536 126.384 126.236 126.074 125.896 125.714
