ncols 384
nrows 32
xllcorner    251032
yllcorner    140062
cellsize     2
NODATA_value -9999
85.642 84.797 84.354 84.147 85.542 83.102 82.252 86.564 80.797 80.077 81.919 78.634 77.952 76.832 76.184 75.954 76.214 76.292 75.589 75.412 75.454 75.522 75.552 75.382 75.254 75.364 75.782 75.969 75.712 75.574 76.089 75.677 75.842 77.147 75.954 76.329 75.637 75.712 75.857 75.734 78.912 82.254 76.992 81.109 77.607 76.962 80.402 81.822 78.894 77.344 76.362 75.829 75.929 76.297 76.037 75.792 75.884 76.174 76.794 77.047 76.949 77.084 77.419 77.092 77.097 77.999 77.342 77.204 77.604 77.909 77.977 77.682 77.334 77.664 77.857 77.967 78.142 78.299 78.497 78.737 78.899 79.122 79.602 80.099 80.574 81.126 81.686 82.234 82.709 83.099 83.424 83.691 83.941 84.181 84.454 84.724 84.979 85.271 86.121 86.736 86.619 86.979 89.706 89.779 87.209 87.111 87.434 87.869 88.334 88.409 88.581 88.849 89.069 89.319 89.514 89.706 89.896 90.119 90.321 90.519 90.761 90.999 91.229 91.451 91.686 91.934 92.186 92.431 92.706 92.966 93.241 93.534 93.849 94.141 94.436 94.759 95.099 95.446 95.794 96.129 96.481 96.816 97.146 97.456 97.789 98.129 98.424 98.724 98.991 99.284 99.526 99.754 99.989 100.171 100.354 100.554 100.736 100.899 101.114 101.311 101.529 101.771 101.741 101.926 102.116 102.284 102.524 102.731 102.921 103.134 103.351 103.559 103.799 104.031 104.276 104.516 104.761 104.986 105.206 105.409 105.636 105.819 106.046 106.256 106.504 106.749 106.984 107.254 107.509 107.764 108.029 108.306 108.556 108.829 109.089 109.354 109.591 109.841 110.064 110.309 110.539 110.776 111.026 111.226 111.399 111.614 111.796 111.961 112.101 112.251 112.391 112.524 112.649 112.771 112.896 113.004 113.154 113.266 113.389 113.516 113.649 113.799 113.954 114.079 114.219 114.351 114.499 114.609 114.734 114.841 114.939 115.046 115.144 115.221 115.299 115.376 115.436 115.494 115.551 115.611 115.681 115.741 115.766 115.809 115.816 115.846 115.864 115.911 115.916 115.964 115.969 116.031 116.066 116.071 116.104 116.126 116.171 116.211 116.251 116.279 116.326 116.381 116.484 116.584 116.671 116.749 116.794 116.879 117.339 118.551 118.269 116.849 116.769 117.666 118.434 117.694 117.584 117.691 117.836 118.009 118.174 118.339 118.501 118.619 118.764 118.904 119.061 119.259 121.166 121.661 121.819 121.061 120.194 120.144 120.244 120.414 120.521 120.564 120.654 121.001 122.346 123.646 123.081 122.686 122.779 122.801 122.999 123.174 123.369 123.556 123.754 123.976 124.171 124.334 124.521 124.674 124.854 125.049 125.249 125.426 125.614 125.799 125.941 126.134 126.279 126.466 126.661 126.791 126.979 127.149 127.319 127.459 127.611 127.799 127.961 128.133 128.283 128.473 128.653 128.873 129.091 129.306 129.491 129.666 129.841 130.011 130.168 130.338 130.521 130.673 130.831 130.968 131.088 131.231 131.346 131.463 131.581 131.698 131.838 131.966 132.121 132.316 132.508 132.683 132.921 133.138 133.361 133.573 133.803 133.996 134.186 134.333 134.466 134.593 134.711 134.823 134.908 134.981 135.043 135.116 135.228 135.301 135.408 135.493
85.809 84.317 83.684 83.364 82.732 82.107 82.017 82.139 79.972 79.492 78.684 77.354 76.729 76.277 75.979 76.124 76.124 76.182 75.539 75.599 76.514 75.969 75.797 75.789 75.477 75.429 75.599 75.832 75.627 75.782 75.672 75.792 75.729 77.799 76.422 77.382 75.162 75.059 77.654 78.087 80.729 78.399 81.154 76.484 79.109 77.742 82.499 82.439 79.662 78.437 79.187 76.547 76.039 76.244 75.852 75.844 76.194 76.639 76.672 76.667 76.962 76.757 77.784 77.462 77.689 77.252 77.112 77.629 77.374 78.117 80.289 78.477 77.617 77.659 77.899 78.109 78.322 78.544 78.707 78.922 79.269 79.654 80.067 80.524 80.996 81.506 82.011 82.526 82.964 83.346 83.686 83.984 84.201 84.461 84.691 84.996 85.309 86.256 88.111 86.584 86.906 87.764 86.746 86.809 87.004 87.401 87.699 87.939 88.189 88.471 88.751 89.001 89.224 89.446 89.659 89.841 90.059 90.259 90.481 90.704 90.941 91.184 91.411 91.651 91.884 92.136 92.404 92.659 92.921 93.201 93.466 93.794 94.061 94.416 94.704 95.021 95.376 95.729 96.051 96.404 96.739 97.049 97.391 97.681 98.011 98.296 98.606 98.859 99.156 99.404 99.636 99.861 100.066 100.269 100.454 100.649 100.841 100.989 101.191 101.389 101.576 101.834 101.971 102.026 102.214 102.394 102.611 102.819 103.001 103.224 103.421 103.634 103.889 104.116 104.359 104.624 104.846 105.076 105.304 105.506 105.719 105.919 106.131 106.371 106.614 106.836 107.084 107.351 107.621 107.871 108.119 108.389 108.656 108.919 109.189 109.441 109.671 109.921 110.179 110.434 110.714 110.994 111.231 111.456 111.694 111.906 112.099 112.291 112.429 112.589 112.731 112.871 113.024 113.144 113.246 113.369 113.479 113.614 113.744 113.839 113.979 114.136 114.266 114.394 114.511 114.654 114.781 114.904 115.026 115.099 115.199 115.286 115.364 115.411 115.471 115.536 115.581 115.664 115.706 115.749 115.816 115.891 115.919 115.936 115.959 115.984 116.014 116.059 116.101 116.111 116.144 116.161 116.224 116.234 116.264 116.291 116.306 116.361 116.386 116.424 116.476 116.539 116.591 116.686 116.784 116.881 116.994 117.024 117.106 118.419 118.586 117.871 116.916 117.309 118.479 118.526 117.739 117.824 117.976 118.076 118.286 118.469 118.616 118.719 118.961 119.454 119.051 119.201 120.031 120.816 120.509 119.866 119.939 120.074 120.246 120.354 120.399 120.534 121.644 122.761 123.179 123.161 122.736 122.611 122.689 122.891 123.084 123.296 123.466 123.649 123.846 124.051 124.219 124.401 124.591 124.766 124.954 125.136 125.311 125.509 125.694 125.864 126.054 126.211 126.381 126.546 126.706 126.889 127.049 127.206 127.359 127.526 127.681 127.864 128.028 128.191 128.383 128.551 128.756 128.976 129.201 129.413 129.598 129.786 129.953 130.128 130.293 130.446 130.598 130.763 130.928 131.058 131.183 131.308 131.433 131.508 131.626 131.748 131.861 131.983 132.141 132.313 132.501 132.713 132.916 133.138 133.378 133.606 133.826 134.021 134.231 134.396 134.518 134.653 134.763 134.863 134.951 135.011 135.073 135.171 135.253 135.338 135.403 135.506
87.647 85.202 83.439 82.504 81.827 81.322 80.869 80.144 79.959 78.462 79.187 78.672 75.992 75.989 76.087 76.077 75.979 75.849 75.692 75.814 75.747 76.977 76.059 75.669 75.567 75.814 75.649 75.662 75.597 75.649 75.979 77.122 76.887 76.122 76.554 75.892 75.869 77.529 76.022 79.689 75.762 78.374 77.409 78.217 77.154 78.089 78.669 80.312 78.244 78.684 77.919 77.934 76.574 76.114 76.002 76.002 76.394 76.817 76.779 76.549 76.882 76.954 77.537 77.459 76.902 77.374 77.107 77.382 77.409 79.617 78.014 78.179 77.802 77.862 78.099 78.327 78.542 78.682 78.959 79.344 79.654 80.074 80.479 80.929 81.404 81.889 82.346 82.801 83.199 83.574 83.931 84.209 84.441 84.706 85.149 85.599 87.191 88.654 89.856 89.306 86.501 86.501 86.634 86.941 87.281 87.551 87.806 88.079 88.344 88.629 88.884 89.094 89.316 89.541 89.771 90.009 90.229 90.434 90.671 90.896 91.139 91.356 91.604 91.861 92.106 92.361 92.634 92.879 93.161 93.419 93.704 94.004 94.306 94.644 94.969 95.309 95.669 95.999 96.324 96.656 96.989 97.271 97.586 97.864 98.181 98.454 98.729 98.986 99.269 99.509 99.726 99.966 100.171 100.351 100.556 100.731 100.906 101.106 101.289 101.456 101.669 101.849 102.066 102.204 102.324 102.484 102.704 102.899 103.081 103.294 103.486 103.696 103.951 104.184 104.441 104.689 104.911 105.159 105.391 105.596 105.806 106.014 106.231 106.464 106.706 106.921 107.174 107.429 107.699 107.941 108.204 108.469 108.726 108.991 109.259 109.511 109.769 110.019 110.291 110.579 110.849 111.166 111.449 111.746 111.981 112.209 112.421 112.619 112.804 112.974 113.101 113.256 113.404 113.504 113.649 113.749 113.861 113.986 114.114 114.229 114.366 114.501 114.606 114.756 114.859 114.964 115.091 115.216 115.294 115.369 115.449 115.509 115.576 115.614 115.666 115.731 115.771 115.806 115.839 115.901 115.944 115.999 116.029 116.064 116.099 116.116 116.154 116.186 116.236 116.276 116.299 116.321 116.371 116.406 116.436 116.434 116.459 116.511 116.536 116.581 116.641 116.681 116.724 116.806 116.891 116.989 117.101 117.174 117.199 117.674 118.644 118.861 117.526 117.136 117.711 118.541 118.006 117.914 118.071 118.204 118.366 118.554 118.741 118.936 119.671 119.194 119.134 119.301 119.526 119.651 119.741 119.854 119.976 120.074 120.179 120.284 120.576 121.796 123.584 122.729 122.434 122.411 122.489 122.631 122.799 122.989 123.199 123.379 123.569 123.744 123.919 124.091 124.289 124.484 124.684 124.881 125.051 125.244 125.409 125.586 125.781 125.951 126.146 126.304 126.479 126.649 126.789 126.949 127.109 127.291 127.449 127.611 127.769 127.914 128.103 128.281 128.456 128.668 128.848 129.068 129.288 129.496 129.698 129.863 130.066 130.238 130.401 130.566 130.716 130.846 130.988 131.128 131.251 131.391 131.478 131.596 131.686 131.796 131.911 132.028 132.141 132.321 132.508 132.713 132.926 133.128 133.363 133.616 133.858 134.051 134.253 134.443 134.583 134.698 134.798 134.881 134.961 135.013 135.091 135.186 135.271 135.356 135.451 135.513
84.067 83.354 82.554 81.772 81.194 80.549 79.974 79.784 85.857 85.109 83.187 76.644 76.059 75.889 76.222 76.002 75.737 75.449 75.457 75.324 75.617 75.827 76.159 75.509 75.449 75.419 75.429 75.579 75.669 75.629 75.442 75.102 77.514 77.092 75.592 76.019 75.224 77.247 76.427 76.339 75.569 77.354 75.569 74.924 75.074 75.424 76.409 76.464 75.689 75.869 76.127 77.427 77.932 76.547 76.184 76.464 76.184 76.269 76.789 76.559 76.979 77.432 77.399 77.222 77.282 77.557 77.309 77.222 77.309 77.752 77.817 77.672 77.857 78.077 78.282 78.472 78.722 78.959 79.779 80.379 80.114 80.487 80.909 81.359 83.241 82.631 82.686 83.106 83.504 83.889 84.131 84.376 84.739 84.911 86.664 89.029 88.379 87.449 90.014 87.436 86.381 86.606 86.941 87.166 87.406 87.649 87.931 88.246 88.496 88.756 88.986 89.186 89.406 89.651 89.901 90.156 90.389 90.599 90.851 91.064 91.309 91.549 91.801 92.071 92.324 92.586 92.844 93.091 93.381 93.646 93.951 94.221 94.544 94.891 95.211 95.561 95.896 96.231 96.574 96.896 97.194 97.501 97.769 98.069 98.316 98.601 98.841 99.116 99.359 99.599 99.826 100.034 100.241 100.414 100.601 100.794 100.989 101.184 101.379 101.544 101.706 101.896 102.124 102.344 102.429 102.591 102.784 102.991 103.179 103.371 103.564 103.794 104.011 104.249 104.486 104.714 104.986 105.234 105.454 105.659 105.876 106.071 106.301 106.531 106.754 106.994 107.261 107.509 107.756 108.006 108.241 108.526 108.779 109.051 109.301 109.566 109.841 110.109 110.416 110.724 111.029 111.369 111.681 112.006 112.279 112.516 112.759 112.944 113.166 113.346 113.549 113.689 113.796 113.916 114.046 114.149 114.299 114.436 114.524 114.639 114.784 114.901 114.984 115.141 115.211 115.291 115.399 115.511 115.591 115.629 115.691 115.754 115.769 115.811 115.856 115.904 115.931 115.976 116.026 116.049 116.076 116.136 116.186 116.211 116.236 116.254 116.314 116.319 116.361 116.421 116.449 116.476 116.529 116.579 116.579 116.599 116.646 116.636 116.689 116.729 116.776 116.821 116.856 116.939 116.999 117.094 117.219 117.291 117.334 117.414 118.039 118.961 118.926 117.484 117.409 118.501 118.939 118.106 118.149 118.304 118.436 118.669 119.129 119.749 119.444 119.056 119.196 119.341 119.491 119.631 119.781 119.911 120.019 120.056 120.161 121.219 122.309 122.571 122.534 122.076 122.211 122.329 122.529 122.711 122.909 123.089 123.301 123.486 123.661 123.811 123.971 124.176 124.359 124.561 124.759 124.939 125.149 125.306 125.486 125.674 125.864 126.064 126.244 126.394 126.564 126.721 126.871 127.026 127.199 127.344 127.529 127.666 127.831 127.984 128.166 128.361 128.531 128.736 128.971 129.153 129.363 129.576 129.781 129.996 130.166 130.328 130.486 130.658 130.808 130.943 131.088 131.213 131.353 131.478 131.556 131.673 131.741 131.826 131.943 132.056 132.191 132.318 132.503 132.708 132.908 133.153 133.363 133.608 133.861 134.078 134.283 134.463 134.613 134.718 134.833 134.906 135.001 135.071 135.146 135.208 135.283 135.373 135.463 135.533
82.964 82.387 81.814 81.202 80.854 79.969 79.229 79.799 84.697 86.082 80.234 75.797 75.664 75.829 75.732 75.842 75.529 75.549 75.507 75.624 75.774 75.417 75.402 75.472 75.427 75.357 75.377 75.407 76.239 75.479 75.142 81.072 80.409 79.737 77.374 75.447 76.152 78.267 75.752 78.829 77.264 76.817 76.412 74.889 74.879 74.822 75.064 75.212 75.472 75.604 75.604 75.667 76.154 75.944 76.072 76.209 76.339 76.327 76.554 76.644 77.502 77.622 77.957 77.612 78.364 78.372 77.714 77.712 77.854 77.807 77.892 78.107 78.322 78.472 78.659 78.727 78.957 79.342 80.454 81.142 81.147 80.879 81.282 81.722 82.579 82.626 83.079 83.409 83.756 84.076 84.331 84.661 85.199 86.644 88.914 89.546 88.664 87.776 86.796 86.291 86.604 86.831 87.044 87.279 87.526 87.836 88.119 88.354 88.594 88.839 89.046 89.289 89.549 89.806 90.069 90.289 90.546 90.791 91.019 91.256 91.489 91.739 92.019 92.281 92.564 92.816 93.061 93.349 93.624 93.919 94.196 94.474 94.794 95.104 95.454 95.791 96.126 96.464 96.774 97.086 97.376 97.651 97.921 98.169 98.439 98.676 98.959 99.191 99.431 99.681 99.889 100.106 100.299 100.494 100.676 100.846 101.061 101.254 101.424 101.619 101.769 101.974 102.161 102.386 102.571 102.696 102.866 103.046 103.231 103.439 103.641 103.849 104.056 104.291 104.521 104.776 105.021 105.269 105.476 105.706 105.904 106.126 106.341 106.596 106.841 107.056 107.294 107.546 107.794 108.051 108.311 108.551 108.801 109.086 109.329 109.614 109.889 110.206 110.524 110.861 111.201 111.551 111.911 112.251 112.546 112.826 113.081 113.286 113.516 113.731 113.911 114.086 114.219 114.359 114.486 114.609 114.759 114.856 114.949 115.086 115.214 115.304 115.411 115.521 115.576 115.661 115.739 115.806 115.856 115.916 115.964 115.966 115.979 116.021 116.044 116.066 116.099 116.134 116.156 116.191 116.231 116.269 116.309 116.334 116.369 116.391 116.431 116.469 116.516 116.576 116.601 116.636 116.689 116.719 116.769 116.769 116.799 116.801 116.844 116.894 116.929 116.961 116.996 117.059 117.136 117.209 117.279 117.396 117.516 117.531 117.869 119.149 119.431 118.556 117.536 117.884 119.031 118.839 118.311 118.456 118.726 118.936 118.964 119.001 119.031 119.174 119.324 119.481 119.544 119.681 119.891 119.976 120.051 120.101 121.571 122.504 122.616 123.101 122.116 122.031 122.206 122.416 122.596 122.814 122.994 123.189 123.379 123.541 123.724 123.874 124.031 124.246 124.446 124.646 124.824 125.029 125.209 125.396 125.574 125.764 125.951 126.129 126.304 126.471 126.636 126.784 126.936 127.114 127.271 127.431 127.584 127.726 127.884 128.056 128.218 128.386 128.621 128.788 129.011 129.243 129.441 129.661 129.881 130.076 130.253 130.406 130.591 130.721 130.891 131.046 131.163 131.316 131.433 131.538 131.636 131.711 131.808 131.886 131.993 132.111 132.216 132.378 132.516 132.713 132.921 133.153 133.366 133.613 133.858 134.076 134.281 134.461 134.611 134.743 134.851 134.926 135.001 135.081 135.138 135.198 135.296 135.371 135.451 135.556
82.197 81.644 80.997 81.129 79.974 79.314 79.684 80.837 80.714 78.492 79.192 75.719 75.429 75.389 75.817 75.499 75.602 75.457 75.679 75.449 75.419 75.757 76.422 75.602 75.424 75.297 75.704 75.534 75.569 75.109 74.989 77.769 78.149 76.339 76.309 75.872 75.582 76.354 78.227 77.847 75.874 76.162 75.409 74.924 74.884 74.912 75.147 75.359 75.597 75.689 75.762 75.884 75.992 76.122 76.254 76.367 76.487 76.802 76.739 77.634 77.422 77.732 78.184 78.969 78.692 78.352 78.244 78.297 78.349 78.332 78.439 78.699 78.947 79.159 79.317 79.442 79.599 79.882 80.697 81.414 81.957 81.689 81.617 82.114 82.606 82.986 83.366 83.716 83.949 84.374 84.696 85.746 86.024 85.964 86.006 86.441 86.356 86.089 86.311 86.531 86.719 86.949 87.216 87.444 87.699 87.969 88.199 88.416 88.679 88.909 89.159 89.446 89.701 89.959 90.229 90.459 90.709 90.964 91.204 91.441 91.699 91.964 92.221 92.506 92.794 93.046 93.321 93.596 93.881 94.171 94.431 94.734 95.024 95.346 95.666 95.996 96.326 96.664 96.954 97.259 97.531 97.801 98.054 98.299 98.544 98.766 99.031 99.249 99.501 99.699 99.936 100.159 100.356 100.536 100.734 100.919 101.094 101.279 101.479 101.644 101.819 102.011 102.206 102.386 102.634 102.854 102.924 103.101 103.304 103.486 103.674 103.896 104.106 104.324 104.554 104.789 105.041 105.251 105.494 105.719 105.929 106.144 106.394 106.646 106.866 107.104 107.341 107.566 107.831 108.069 108.326 108.566 108.839 109.106 109.389 109.651 109.949 110.279 110.639 111.006 111.376 111.736 112.119 112.466 112.796 113.091 113.364 113.619 113.861 114.089 114.311 114.486 114.664 114.816 114.941 115.061 115.189 115.289 115.399 115.516 115.626 115.729 115.839 115.901 115.974 116.021 116.071 116.106 116.136 116.186 116.214 116.219 116.214 116.234 116.261 116.266 116.269 116.284 116.324 116.351 116.369 116.409 116.459 116.471 116.521 116.559 116.571 116.609 116.684 116.719 116.766 116.826 116.831 116.854 116.931 116.926 116.961 116.974 117.009 117.056 117.071 117.114 117.144 117.196 117.251 117.329 117.399 117.491 117.614 117.696 117.751 118.229 119.666 119.514 117.951 117.801 118.604 119.166 118.929 118.889 119.464 119.566 119.011 119.021 119.176 119.326 119.496 119.591 119.674 119.826 119.939 120.054 120.476 122.221 123.536 122.266 122.024 121.911 121.901 122.074 122.261 122.486 122.689 122.906 123.089 123.231 123.429 123.604 123.774 123.936 124.116 124.334 124.536 124.714 124.896 125.091 125.291 125.476 125.651 125.824 126.031 126.209 126.384 126.564 126.719 126.856 127.024 127.186 127.344 127.481 127.639 127.796 127.944 128.091 128.291 128.451 128.643 128.873 129.081 129.291 129.526 129.713 129.948 130.126 130.323 130.508 130.668 130.823 130.946 131.108 131.258 131.358 131.483 131.593 131.691 131.778 131.881 131.951 132.033 132.133 132.253 132.428 132.556 132.718 132.918 133.158 133.388 133.603 133.856 134.083 134.266 134.456 134.596 134.731 134.866 134.921 135.016 135.076 135.153 135.238 135.301 135.393 135.473 135.576
81.457 80.829 80.197 83.397 81.027 79.329 78.602 77.502 78.672 75.827 75.994 75.532 75.327 74.969 75.392 75.362 75.494 76.664 75.534 75.337 75.739 75.392 75.234 77.237 75.462 75.344 75.342 75.377 74.974 74.687 74.749 76.232 75.732 75.549 77.142 75.974 76.492 76.379 76.257 76.492 76.842 76.647 75.287 75.189 75.084 75.074 75.227 75.449 75.694 75.844 75.952 76.067 76.194 76.307 76.454 76.589 76.779 76.957 77.049 77.229 78.232 78.237 77.954 78.662 78.784 78.417 78.477 78.564 78.652 78.772 78.987 79.297 79.552 79.767 80.017 80.217 80.464 80.654 81.367 81.737 82.304 82.194 82.029 82.464 82.884 83.224 83.586 83.989 84.311 84.774 86.536 86.934 85.674 85.296 85.439 85.709 86.054 86.284 86.439 86.674 86.849 87.116 87.356 87.584 87.809 88.031 88.236 88.501 88.774 89.021 89.311 89.566 89.831 90.114 90.374 90.604 90.886 91.121 91.404 91.631 91.896 92.166 92.454 92.731 93.029 93.294 93.574 93.856 94.146 94.414 94.694 94.981 95.256 95.571 95.866 96.176 96.514 96.806 97.104 97.374 97.654 97.899 98.134 98.379 98.586 98.821 99.071 99.311 99.509 99.759 99.986 100.204 100.406 100.599 100.769 100.961 101.139 101.309 101.496 101.679 101.866 102.041 102.216 102.439 102.626 102.844 103.039 103.151 103.336 103.516 103.719 103.916 104.156 104.341 104.569 104.804 105.034 105.261 105.489 105.676 105.926 106.161 106.406 106.641 106.876 107.094 107.354 107.586 107.841 108.066 108.336 108.576 108.836 109.116 109.414 109.699 110.029 110.379 110.751 111.134 111.516 111.929 112.311 112.699 113.039 113.346 113.659 113.956 114.189 114.449 114.676 114.859 115.036 115.204 115.351 115.499 115.596 115.714 115.821 115.921 116.026 116.124 116.204 116.259 116.344 116.386 116.381 116.394 116.431 116.456 116.479 116.461 116.456 116.459 116.436 116.469 116.456 116.476 116.494 116.499 116.514 116.564 116.601 116.666 116.664 116.699 116.726 116.774 116.839 116.874 116.906 116.961 116.994 117.024 117.071 117.106 117.116 117.131 117.171 117.184 117.209 117.236 117.276 117.319 117.391 117.469 117.529 117.626 117.744 117.814 117.874 117.966 118.566 119.696 119.024 117.959 118.266 119.264 120.014 119.661 120.289 119.996 119.699 119.359 119.311 119.441 119.599 119.691 119.789 119.874 120.089 120.854 122.701 122.539 121.791 121.701 121.701 121.779 121.966 122.161 122.369 122.576 122.796 122.991 123.146 123.289 123.484 123.659 123.821 123.991 124.199 124.399 124.581 124.784 124.954 125.164 125.351 125.556 125.716 125.906 126.091 126.276 126.464 126.614 126.779 126.931 127.096 127.249 127.384 127.566 127.734 127.859 128.024 128.181 128.338 128.546 128.703 128.916 129.161 129.353 129.556 129.783 129.993 130.206 130.363 130.541 130.693 130.903 131.046 131.171 131.318 131.433 131.541 131.648 131.768 131.848 131.946 131.993 132.113 132.173 132.308 132.433 132.603 132.756 132.951 133.173 133.413 133.611 133.838 134.066 134.276 134.441 134.583 134.716 134.831 134.911 135.003 135.078 135.148 135.248 135.326 135.403 135.491 135.578
83.002 80.144 79.612 81.677 82.594 78.277 76.779 76.394 75.914 75.527 75.894 75.837 75.314 75.024 75.357 75.702 75.367 77.762 77.902 75.404 75.464 75.679 75.339 75.179 75.409 75.467 75.267 74.867 76.362 77.892 80.044 77.904 76.357 77.072 77.604 78.964 78.749 76.477 75.889 76.072 77.157 75.729 75.462 75.317 75.197 75.199 75.322 75.632 75.827 75.949 76.087 76.234 76.352 76.477 76.627 76.779 76.959 77.174 77.372 77.609 77.929 78.029 78.204 78.642 78.902 78.762 78.817 79.054 79.084 79.252 79.467 79.752 79.979 80.207 80.429 80.692 80.999 81.274 81.544 81.872 82.272 82.374 82.334 82.752 83.139 83.486 83.834 84.594 85.129 85.426 85.331 85.151 85.159 85.454 85.756 85.986 86.159 86.376 86.594 86.806 87.024 87.251 87.449 87.659 87.874 88.091 88.321 88.614 88.869 89.149 89.429 89.704 89.974 90.254 90.504 90.756 91.029 91.281 91.589 91.861 92.129 92.406 92.679 92.979 93.264 93.574 93.851 94.134 94.404 94.676 94.949 95.206 95.491 95.764 96.066 96.349 96.654 96.926 97.191 97.469 97.729 97.964 98.196 98.411 98.636 98.884 99.089 99.336 99.546 99.756 100.011 100.224 100.426 100.626 100.819 100.994 101.164 101.321 101.514 101.706 101.904 102.046 102.226 102.451 102.629 102.874 103.079 103.209 103.341 103.519 103.726 103.931 104.136 104.356 104.579 104.801 105.011 105.246 105.464 105.671 105.911 106.131 106.376 106.634 106.879 107.106 107.346 107.614 107.831 108.091 108.339 108.581 108.861 109.141 109.426 109.749 110.071 110.444 110.829 111.251 111.661 112.071 112.504 112.889 113.246 113.606 113.936 114.226 114.516 114.786 114.994 115.194 115.394 115.554 115.719 115.854 115.966 116.091 116.189 116.306 116.416 116.504 116.559 116.629 116.674 116.721 116.731 116.724 116.719 116.739 116.729 116.709 116.691 116.699 116.686 116.669 116.659 116.671 116.656 116.676 116.696 116.711 116.764 116.824 116.831 116.859 116.906 116.954 116.989 117.041 117.066 117.081 117.121 117.174 117.224 117.279 117.271 117.329 117.334 117.344 117.401 117.414 117.441 117.476 117.526 117.584 117.659 117.741 117.849 117.929 118.039 118.084 118.289 120.029 119.901 118.374 118.169 118.879 119.789 119.861 120.089 120.289 120.656 119.566 119.434 119.514 119.634 119.809 119.956 119.984 121.179 121.926 121.539 121.504 121.446 121.514 121.661 121.831 122.059 122.256 122.484 122.711 122.889 123.044 123.209 123.369 123.551 123.736 123.901 124.101 124.276 124.466 124.664 124.849 125.026 125.206 125.404 125.589 125.776 125.961 126.149 126.326 126.499 126.674 126.836 127.024 127.146 127.301 127.466 127.621 127.749 127.919 128.059 128.219 128.388 128.593 128.776 128.953 129.178 129.406 129.608 129.841 130.043 130.243 130.416 130.611 130.778 130.906 131.078 131.213 131.343 131.481 131.611 131.718 131.798 131.866 131.978 132.053 132.123 132.238 132.341 132.456 132.621 132.801 132.971 133.196 133.406 133.643 133.851 134.068 134.271 134.431 134.586 134.696 134.798 134.916 135.008 135.068 135.143 135.223 135.328 135.413 135.498 135.591
80.079 79.222 78.442 80.464 78.177 78.107 76.367 75.907 75.649 75.197 75.044 74.709 75.084 75.177 75.974 75.814 76.197 76.579 75.699 75.792 75.582 75.479 75.517 75.274 75.562 75.477 77.822 76.747 80.469 78.657 76.359 76.687 75.699 76.137 77.992 76.707 78.709 77.124 75.612 76.619 76.179 75.474 75.474 75.409 75.302 75.329 75.582 75.837 75.957 76.102 76.254 76.369 76.519 76.649 76.807 76.967 77.179 77.397 77.617 77.827 78.052 78.297 78.489 78.704 79.079 79.479 79.527 79.819 79.567 79.669 79.912 80.164 80.429 80.657 80.872 81.099 81.439 81.687 81.972 82.129 82.264 82.324 82.444 82.932 83.369 84.224 84.771 85.206 84.766 84.731 84.889 85.171 85.484 85.704 85.906 86.116 86.321 86.531 86.754 86.926 87.134 87.326 87.484 87.739 87.951 88.179 88.454 88.731 89.009 89.284 89.554 89.824 90.111 90.371 90.656 90.931 91.176 91.466 91.761 92.059 92.336 92.624 92.921 93.206 93.501 93.806 94.104 94.386 94.659 94.936 95.189 95.444 95.699 95.944 96.206 96.474 96.741 97.001 97.279 97.521 97.769 97.996 98.229 98.446 98.681 98.891 99.111 99.331 99.539 99.771 100.004 100.229 100.436 100.649 100.859 101.036 101.206 101.371 101.556 101.741 101.901 102.049 102.256 102.444 102.631 102.844 103.059 103.261 103.346 103.526 103.741 103.944 104.129 104.361 104.579 104.789 105.001 105.236 105.434 105.639 105.876 106.101 106.359 106.606 106.839 107.084 107.316 107.571 107.809 108.091 108.341 108.574 108.856 109.161 109.449 109.771 110.131 110.519 110.911 111.356 111.789 112.251 112.676 113.074 113.454 113.816 114.144 114.466 114.756 115.046 115.244 115.491 115.669 115.849 116.001 116.126 116.259 116.391 116.509 116.619 116.749 116.824 116.889 116.936 116.994 117.029 117.039 117.064 117.049 117.039 116.999 116.974 116.969 116.949 116.926 116.914 116.886 116.859 116.861 116.876 116.874 116.891 116.919 116.979 117.034 117.064 117.114 117.141 117.181 117.209 117.209 117.244 117.281 117.324 117.371 117.399 117.451 117.456 117.476 117.516 117.559 117.564 117.604 117.639 117.686 117.729 117.804 117.889 117.979 118.071 118.161 118.231 118.344 118.964 120.111 119.574 118.276 118.429 119.484 119.991 119.856 120.089 119.976 119.444 119.509 119.559 119.709 119.761 120.346 121.371 121.649 121.239 121.161 121.241 121.416 121.586 121.766 121.949 122.146 122.371 122.596 122.771 122.964 123.104 123.269 123.441 123.611 123.806 123.996 124.169 124.371 124.559 124.716 124.901 125.076 125.269 125.454 125.646 125.826 126.026 126.209 126.384 126.554 126.719 126.879 127.041 127.204 127.361 127.511 127.649 127.771 127.964 128.109 128.241 128.423 128.591 128.786 128.991 129.181 129.426 129.653 129.858 130.078 130.271 130.448 130.618 130.803 130.971 131.113 131.258 131.376 131.486 131.608 131.741 131.823 131.918 132.006 132.098 132.148 132.246 132.368 132.508 132.628 132.833 133.021 133.203 133.431 133.643 133.853 134.078 134.263 134.423 134.546 134.666 134.786 134.881 134.986 135.068 135.156 135.231 135.313 135.416 135.493 135.601
79.974 80.054 77.407 76.772 76.392 76.342 75.804 75.264 75.004 74.629 74.969 75.182 75.902 75.599 75.949 75.659 75.562 75.554 75.262 75.449 76.439 75.402 75.572 75.282 75.032 75.337 84.044 82.372 75.579 76.572 75.492 75.629 75.804 76.867 76.444 75.589 76.969 77.189 75.477 77.259 76.907 75.409 75.449 75.459 75.482 75.649 75.817 75.964 76.097 76.239 76.372 76.487 76.667 76.827 77.014 77.227 77.424 77.634 77.889 78.099 78.339 78.569 78.772 78.989 79.172 79.327 79.624 80.074 80.087 80.152 80.372 80.669 80.922 81.172 81.412 81.639 81.922 82.154 82.387 82.517 82.654 82.764 83.037 83.447 85.011 84.934 84.826 84.466 84.579 84.921 85.224 85.441 85.671 85.906 86.104 86.291 86.474 86.654 86.851 87.019 87.181 87.381 87.584 87.824 88.051 88.306 88.584 88.854 89.109 89.414 89.679 89.979 90.271 90.534 90.816 91.071 91.349 91.636 91.931 92.246 92.546 92.866 93.141 93.449 93.781 94.069 94.364 94.636 94.906 95.169 95.391 95.659 95.866 96.081 96.324 96.559 96.814 97.056 97.326 97.549 97.796 98.011 98.251 98.471 98.701 98.909 99.131 99.324 99.556 99.759 100.001 100.219 100.444 100.669 100.866 101.059 101.231 101.409 101.559 101.729 101.906 102.064 102.264 102.436 102.634 102.844 103.014 103.254 103.431 103.529 103.704 103.911 104.141 104.351 104.564 104.766 104.986 105.201 105.406 105.626 105.826 106.079 106.334 106.559 106.799 107.031 107.296 107.531 107.804 108.041 108.321 108.574 108.851 109.154 109.464 109.814 110.181 110.571 111.001 111.441 111.929 112.381 112.834 113.251 113.639 114.021 114.356 114.694 114.981 115.236 115.491 115.709 115.889 116.069 116.214 116.344 116.504 116.619 116.744 116.879 116.991 117.091 117.171 117.226 117.281 117.319 117.346 117.346 117.351 117.321 117.269 117.251 117.241 117.204 117.181 117.141 117.101 117.089 117.086 117.059 117.059 117.091 117.134 117.194 117.216 117.296 117.296 117.326 117.359 117.366 117.384 117.421 117.454 117.489 117.489 117.539 117.614 117.609 117.646 117.674 117.676 117.716 117.726 117.779 118.116 117.861 117.931 118.019 118.114 118.219 118.324 118.436 118.526 118.786 119.446 120.129 118.904 118.499 118.894 119.974 119.874 119.841 119.516 119.404 119.479 119.614 119.749 120.404 122.324 121.564 121.126 121.114 121.176 121.299 121.494 121.699 121.881 122.079 122.279 122.464 122.646 122.834 123.006 123.174 123.371 123.494 123.681 123.881 124.051 124.234 124.444 124.631 124.774 124.949 125.131 125.324 125.494 125.689 125.879 126.039 126.234 126.411 126.594 126.751 126.946 127.116 127.259 127.416 127.564 127.691 127.799 127.939 128.074 128.274 128.451 128.643 128.801 129.003 129.206 129.431 129.643 129.876 130.081 130.283 130.473 130.638 130.811 130.978 131.111 131.241 131.393 131.496 131.611 131.726 131.836 131.928 131.991 132.106 132.176 132.283 132.396 132.521 132.658 132.841 133.038 133.253 133.458 133.658 133.871 134.068 134.248 134.418 134.548 134.653 134.761 134.843 134.943 135.071 135.143 135.218 135.301 135.371 135.456 135.566
78.579 77.119 76.629 76.579 76.214 75.657 75.384 75.012 74.959 74.934 75.019 75.294 76.027 76.492 75.749 75.292 75.142 75.577 76.117 76.172 75.757 75.277 75.699 75.287 74.472 77.864 81.952 81.592 75.199 76.244 76.459 75.832 75.814 75.784 75.577 75.642 75.624 75.779 75.819 76.837 75.562 75.454 75.529 75.649 75.772 75.859 75.974 76.124 76.264 76.362 76.499 76.684 76.834 77.039 77.249 77.454 77.694 77.937 78.202 78.427 78.657 78.877 79.097 79.292 79.474 79.642 79.829 80.009 80.267 80.554 80.882 81.192 81.459 81.667 81.987 82.209 82.494 82.702 82.779 82.902 83.099 83.909 85.474 85.999 85.291 84.236 84.351 84.674 84.991 85.196 85.419 85.639 85.861 86.074 86.264 86.411 86.591 86.739 86.916 87.094 87.281 87.484 87.714 87.936 88.184 88.449 88.701 88.969 89.259 89.539 89.819 90.129 90.419 90.696 90.964 91.224 91.501 91.809 92.119 92.431 92.754 93.079 93.404 93.691 94.021 94.301 94.601 94.874 95.139 95.371 95.604 95.816 96.024 96.224 96.439 96.641 96.861 97.109 97.324 97.586 97.794 98.044 98.254 98.504 98.706 98.929 99.131 99.331 99.556 99.776 99.999 100.196 100.426 100.659 100.869 101.071 101.259 101.434 101.611 101.746 101.919 102.069 102.251 102.454 102.649 102.819 103.014 103.236 103.456 103.596 103.724 103.909 104.136 104.354 104.554 104.766 104.969 105.179 105.381 105.604 105.841 106.064 106.301 106.554 106.771 107.026 107.274 107.529 107.799 108.036 108.296 108.574 108.844 109.139 109.459 109.834 110.219 110.639 111.074 111.539 112.021 112.514 112.969 113.396 113.819 114.191 114.521 114.879 115.154 115.439 115.671 115.861 116.064 116.241 116.379 116.546 116.669 116.804 116.924 117.064 117.186 117.316 117.406 117.466 117.541 117.579 117.644 117.651 117.654 117.634 117.601 117.536 117.501 117.461 117.439 117.406 117.364 117.339 117.299 117.276 117.254 117.306 117.326 117.354 117.431 117.479 117.491 117.494 117.516 117.544 117.584 117.586 117.614 117.619 117.651 117.699 117.751 117.769 117.774 117.794 117.829 117.866 117.889 117.929 118.031 118.031 118.101 118.171 118.266 118.349 118.469 118.591 118.679 118.796 119.036 120.156 120.034 118.694 118.744 119.749 120.854 120.154 119.576 119.416 119.454 119.774 120.799 121.674 122.316 121.154 121.009 121.106 121.226 121.411 121.606 121.784 121.999 122.194 122.361 122.559 122.721 122.896 123.069 123.229 123.414 123.596 123.754 123.916 124.121 124.279 124.501 124.681 124.826 125.016 125.179 125.369 125.541 125.714 125.889 126.079 126.271 126.451 126.616 126.811 126.989 127.144 127.299 127.434 127.561 127.694 127.836 127.981 128.126 128.304 128.483 128.673 128.856 129.013 129.196 129.421 129.651 129.851 130.076 130.286 130.468 130.621 130.813 130.951 131.103 131.231 131.381 131.473 131.573 131.683 131.803 131.903 131.991 132.091 132.171 132.303 132.406 132.548 132.706 132.893 133.066 133.293 133.478 133.691 133.871 134.071 134.256 134.381 134.521 134.646 134.751 134.848 134.931 135.021 135.096 135.181 135.286 135.353 135.428 135.531
76.924 76.637 76.602 76.147 75.667 75.437 75.089 75.084 75.212 75.287 75.114 75.482 75.054 74.972 75.157 75.257 75.764 75.729 75.589 75.714 75.574 75.259 75.504 75.209 77.047 79.542 81.742 81.209 75.167 76.717 78.147 75.644 75.534 75.709 75.659 75.757 76.294 76.259 76.764 76.269 75.459 75.572 75.712 75.807 75.969 76.052 76.152 76.242 76.404 76.557 76.727 76.872 77.044 77.262 77.507 77.719 77.954 78.229 78.494 78.742 78.994 79.217 79.434 79.629 79.789 79.987 80.202 80.389 80.619 80.897 81.182 81.509 81.917 82.219 82.459 82.617 82.902 83.062 83.472 84.024 84.902 84.747 85.034 84.189 84.191 84.499 84.759 84.971 85.191 85.406 85.616 85.834 86.031 86.221 86.346 86.499 86.674 86.821 86.994 87.199 87.394 87.606 87.831 88.066 88.339 88.591 88.834 89.111 89.386 89.694 89.974 90.251 90.534 90.826 91.086 91.371 91.684 91.984 92.294 92.604 92.956 93.296 93.629 93.941 94.234 94.564 94.834 95.114 95.359 95.561 95.784 95.964 96.131 96.321 96.496 96.709 96.924 97.144 97.361 97.584 97.824 98.019 98.271 98.479 98.706 98.941 99.146 99.349 99.556 99.751 99.979 100.181 100.399 100.644 100.854 101.071 101.261 101.439 101.606 101.759 101.916 102.089 102.249 102.449 102.624 102.826 103.021 103.189 103.439 103.639 103.736 103.934 104.139 104.331 104.551 104.749 104.931 105.144 105.356 105.571 105.806 106.034 106.284 106.531 106.759 107.029 107.269 107.521 107.761 108.036 108.301 108.566 108.829 109.149 109.481 109.849 110.239 110.669 111.134 111.631 112.124 112.604 113.066 113.519 113.931 114.336 114.699 115.026 115.321 115.576 115.821 116.004 116.189 116.371 116.524 116.651 116.791 116.929 117.079 117.226 117.371 117.474 117.594 117.691 117.746 117.801 117.876 117.926 117.949 117.926 117.876 117.814 117.774 117.734 117.696 117.646 117.601 117.576 117.539 117.476 117.474 117.489 117.509 117.566 117.634 117.666 117.651 117.681 117.709 117.731 117.736 117.744 117.764 117.781 117.816 117.821 117.871 117.916 117.919 117.924 117.986 118.009 118.049 118.076 118.124 118.191 118.264 118.331 118.426 118.511 118.609 118.686 118.671 118.736 118.911 119.894 120.531 119.544 118.859 119.006 120.596 120.099 119.396 119.434 119.656 121.679 121.916 121.924 121.141 120.879 120.996 121.154 121.346 121.526 121.714 121.911 122.101 122.269 122.451 122.621 122.794 122.966 123.129 123.309 123.481 123.634 123.821 123.964 124.161 124.351 124.529 124.719 124.876 125.086 125.256 125.429 125.604 125.779 125.926 126.106 126.281 126.459 126.644 126.831 127.006 127.166 127.344 127.456 127.566 127.689 127.856 128.024 128.161 128.324 128.511 128.701 128.876 129.048 129.213 129.453 129.676 129.843 130.066 130.258 130.468 130.616 130.791 130.943 131.066 131.216 131.323 131.438 131.536 131.666 131.768 131.881 131.981 132.061 132.163 132.301 132.411 132.576 132.713 132.908 133.096 133.276 133.483 133.688 133.893 134.071 134.236 134.383 134.506 134.633 134.716 134.816 134.918 134.976 135.081 135.171 135.261 135.326 135.418 135.516
76.372 76.254 75.977 75.827 75.327 74.854 75.119 75.134 75.422 75.072 75.082 75.029 75.112 75.354 75.259 75.819 75.592 75.282 75.499 75.767 75.449 75.634 76.154 74.964 82.779 76.419 79.787 75.277 74.889 75.204 75.257 76.067 76.112 76.204 76.089 75.792 76.027 76.424 77.082 76.097 75.639 75.749 75.849 75.964 76.074 76.197 76.272 76.424 76.569 76.737 76.889 77.052 77.247 77.499 77.707 77.967 78.252 78.517 78.792 79.079 79.299 79.577 79.757 79.954 80.129 80.352 80.532 80.777 80.999 81.299 81.604 81.854 82.109 82.379 82.832 83.387 83.447 83.862 84.412 84.494 83.974 83.994 84.154 84.424 84.611 84.774 85.001 85.204 85.411 85.629 85.809 85.966 86.151 86.289 86.439 86.609 86.756 86.924 87.134 87.321 87.526 87.739 87.951 88.209 88.476 88.726 88.989 89.259 89.546 89.809 90.119 90.371 90.669 90.931 91.226 91.524 91.836 92.146 92.469 92.809 93.141 93.506 93.839 94.166 94.469 94.774 95.041 95.296 95.529 95.726 95.911 96.069 96.224 96.374 96.556 96.766 96.941 97.161 97.374 97.611 97.814 98.051 98.276 98.499 98.724 98.931 99.159 99.339 99.546 99.769 99.969 100.181 100.396 100.621 100.851 101.059 101.249 101.444 101.616 101.766 101.939 102.091 102.264 102.451 102.641 102.824 103.014 103.206 103.419 103.629 103.871 104.031 104.164 104.334 104.549 104.756 104.934 105.144 105.336 105.579 105.801 106.039 106.289 106.504 106.781 107.019 107.296 107.526 107.786 108.034 108.321 108.564 108.841 109.149 109.474 109.856 110.266 110.701 111.169 111.679 112.191 112.684 113.174 113.646 114.056 114.456 114.811 115.139 115.436 115.686 115.884 116.101 116.296 116.456 116.616 116.759 116.899 117.049 117.194 117.349 117.499 117.636 117.756 117.874 117.954 118.039 118.109 118.179 118.206 118.196 118.154 118.086 118.046 118.006 117.954 117.894 117.851 117.791 117.756 117.716 117.699 117.691 117.714 117.766 117.821 117.839 117.841 117.864 117.891 117.909 117.919 117.926 117.941 117.946 117.959 117.959 118.006 118.051 118.066 118.076 118.109 118.131 118.191 118.236 118.304 118.349 118.414 118.521 118.581 118.636 118.726 118.784 118.786 118.814 119.034 119.411 120.641 120.786 119.304 119.129 119.224 119.266 119.401 119.871 121.396 121.749 121.511 121.324 120.874 120.846 121.046 121.189 121.399 121.609 121.799 121.979 122.154 122.329 122.491 122.671 122.836 123.019 123.174 123.356 123.519 123.714 123.876 124.034 124.196 124.374 124.574 124.766 124.939 125.119 125.281 125.461 125.634 125.789 125.966 126.149 126.311 126.486 126.679 126.859 127.046 127.221 127.399 127.506 127.626 127.739 127.906 128.039 128.216 128.371 128.536 128.748 128.906 129.076 129.268 129.461 129.683 129.866 130.061 130.223 130.431 130.606 130.771 130.906 131.041 131.173 131.331 131.401 131.516 131.616 131.736 131.831 131.933 132.043 132.143 132.278 132.426 132.591 132.738 132.908 133.108 133.283 133.491 133.693 133.888 134.066 134.216 134.336 134.506 134.616 134.696 134.798 134.856 134.943 135.026 135.121 135.213 135.291 135.381 135.473
76.377 75.992 75.722 75.934 75.359 74.719 74.639 74.669 74.917 74.832 74.914 75.047 74.994 74.997 75.537 75.162 75.212 75.364 75.542 75.732 75.889 76.422 76.957 76.299 79.484 75.254 75.037 75.052 74.837 74.799 74.887 75.284 76.279 76.739 76.689 76.354 76.022 76.844 76.699 75.712 75.804 75.919 76.022 76.117 76.232 76.332 76.442 76.589 76.744 76.917 77.097 77.329 77.537 77.789 78.009 78.269 78.544 78.797 79.079 79.364 79.639 79.864 80.074 80.294 80.497 80.669 80.889 81.132 81.352 81.619 81.917 82.204 82.534 82.734 82.834 83.107 83.694 83.824 83.732 83.742 84.044 84.299 84.464 84.667 84.851 85.039 85.224 85.429 85.606 85.761 85.926 86.071 86.246 86.371 86.541 86.726 86.871 87.066 87.251 87.444 87.651 87.901 88.094 88.351 88.626 88.846 89.151 89.399 89.676 89.939 90.224 90.501 90.801 91.079 91.369 91.696 91.984 92.324 92.656 93.009 93.346 93.686 94.026 94.381 94.704 94.974 95.229 95.474 95.681 95.871 96.021 96.169 96.284 96.444 96.604 96.796 96.976 97.199 97.389 97.611 97.816 98.061 98.294 98.511 98.724 98.934 99.149 99.354 99.576 99.776 99.954 100.196 100.391 100.594 100.839 101.029 101.236 101.441 101.601 101.776 101.961 102.119 102.281 102.461 102.654 102.824 103.001 103.196 103.396 103.614 103.866 104.144 104.174 104.344 104.561 104.756 104.951 105.174 105.381 105.586 105.819 106.051 106.294 106.554 106.781 107.049 107.309 107.561 107.804 108.066 108.361 108.591 108.879 109.166 109.499 109.879 110.266 110.736 111.201 111.726 112.249 112.784 113.264 113.739 114.169 114.586 114.924 115.241 115.539 115.776 115.994 116.174 116.356 116.494 116.656 116.811 116.961 117.131 117.289 117.431 117.624 117.776 117.916 118.026 118.136 118.239 118.326 118.429 118.459 118.444 118.406 118.354 118.316 118.254 118.196 118.151 118.071 118.034 117.991 117.976 117.926 117.886 117.906 117.956 117.999 118.001 118.021 118.056 118.049 118.081 118.086 118.086 118.121 118.109 118.081 118.099 118.149 118.171 118.214 118.229 118.246 118.291 118.329 118.416 118.434 118.536 118.629 118.686 118.744 118.784 118.806 118.899 119.234 119.101 119.211 119.319 120.019 120.884 120.024 119.266 119.366 119.329 120.174 121.621 121.429 121.751 121.274 120.654 120.684 120.864 121.009 121.226 121.469 121.666 121.869 122.071 122.241 122.404 122.554 122.731 122.884 123.071 123.234 123.411 123.589 123.769 123.934 124.079 124.254 124.414 124.616 124.819 124.994 125.169 125.331 125.529 125.666 125.856 126.021 126.174 126.356 126.516 126.706 126.881 127.061 127.236 127.419 127.566 127.699 127.821 127.971 128.094 128.216 128.391 128.558 128.766 128.968 129.091 129.318 129.511 129.693 129.891 130.058 130.243 130.403 130.578 130.741 130.871 131.013 131.133 131.256 131.371 131.501 131.586 131.671 131.808 131.913 132.016 132.131 132.253 132.406 132.578 132.743 132.911 133.108 133.306 133.493 133.688 133.878 134.071 134.188 134.321 134.456 134.576 134.676 134.761 134.853 134.911 135.026 135.093 135.173 135.266 135.341 135.428
75.474 75.227 74.922 75.759 77.852 74.604 74.599 74.717 74.824 76.262 76.959 77.734 74.887 74.879 75.549 76.367 75.329 75.192 75.104 75.544 76.172 80.549 77.107 76.267 74.972 75.322 75.357 75.022 75.094 75.059 74.759 75.044 75.964 76.972 78.082 77.742 77.074 77.169 75.787 75.827 75.969 76.079 76.187 76.284 76.397 76.519 76.659 76.794 76.957 77.159 77.357 77.597 77.832 78.057 78.342 78.607 78.864 79.147 79.402 79.674 79.937 80.159 80.399 80.639 80.859 81.037 81.247 81.462 81.702 81.922 82.212 82.487 82.734 82.984 83.134 83.212 83.302 83.514 83.774 84.077 84.324 84.512 84.714 84.877 85.056 85.229 85.399 85.579 85.736 85.874 86.014 86.191 86.351 86.486 86.679 86.844 87.004 87.196 87.401 87.599 87.819 88.011 88.256 88.506 88.739 88.991 89.271 89.534 89.811 90.079 90.329 90.644 90.951 91.209 91.524 91.824 92.154 92.479 92.826 93.201 93.534 93.879 94.221 94.586 94.889 95.161 95.389 95.621 95.814 95.974 96.109 96.249 96.356 96.491 96.656 96.821 97.016 97.211 97.434 97.629 97.879 98.089 98.316 98.524 98.769 98.959 99.161 99.364 99.594 99.766 99.999 100.194 100.386 100.596 100.806 101.004 101.234 101.439 101.616 101.786 101.966 102.159 102.319 102.496 102.659 102.841 103.019 103.224 103.411 103.594 103.831 104.061 104.314 104.369 104.569 104.774 104.996 105.186 105.404 105.621 105.841 106.091 106.321 106.574 106.839 107.081 107.344 107.609 107.831 108.101 108.371 108.644 108.919 109.219 109.531 109.894 110.299 110.766 111.266 111.794 112.326 112.841 113.361 113.854 114.284 114.696 115.044 115.336 115.606 115.856 116.034 116.234 116.381 116.546 116.711 116.856 117.026 117.201 117.351 117.521 117.694 117.886 118.031 118.156 118.286 118.411 118.516 118.601 118.651 118.656 118.636 118.594 118.569 118.506 118.421 118.371 118.306 118.249 118.234 118.196 118.124 118.109 118.151 118.144 118.174 118.191 118.216 118.231 118.234 118.241 118.286 118.271 118.284 118.284 118.244 118.244 118.274 118.294 118.336 118.399 118.406 118.449 118.476 118.566 118.606 118.624 118.761 118.786 118.866 118.901 118.866 118.954 119.204 119.444 120.294 119.956 119.659 119.761 119.624 119.519 119.544 119.544 120.246 121.694 122.019 120.874 120.354 120.411 120.664 120.864 121.079 121.326 121.549 121.751 121.951 122.144 122.314 122.461 122.624 122.759 122.951 123.124 123.306 123.454 123.631 123.806 123.991 124.144 124.321 124.479 124.659 124.859 125.031 125.184 125.361 125.534 125.706 125.866 126.041 126.191 126.381 126.559 126.714 126.929 127.094 127.269 127.434 127.611 127.719 127.856 127.986 128.121 128.289 128.426 128.613 128.786 128.996 129.141 129.326 129.556 129.706 129.876 130.083 130.226 130.403 130.553 130.716 130.861 131.016 131.128 131.226 131.363 131.461 131.563 131.648 131.756 131.856 131.981 132.126 132.261 132.408 132.593 132.748 132.938 133.113 133.303 133.503 133.681 133.866 134.021 134.161 134.296 134.431 134.556 134.631 134.751 134.808 134.901 134.993 135.056 135.141 135.226 135.321 135.386
74.857 74.582 74.504 75.427 74.772 74.719 74.744 74.884 74.812 77.204 77.059 75.257 74.864 74.917 76.047 75.094 74.957 74.979 74.889 75.427 77.662 79.304 77.392 75.087 75.012 75.164 75.227 75.299 75.407 74.864 74.954 74.914 75.674 76.424 76.672 76.677 76.084 75.682 75.802 75.997 76.119 76.242 76.334 76.467 76.607 76.759 76.894 77.019 77.247 77.419 77.617 77.862 78.119 78.362 78.639 78.929 79.199 79.482 79.759 79.989 80.302 80.477 80.687 80.927 81.152 81.374 81.599 81.787 81.984 82.269 82.454 82.699 82.929 83.169 83.369 83.439 83.449 83.779 84.049 84.277 84.554 84.739 84.907 85.032 85.209 85.351 85.519 85.694 85.824 85.994 86.146 86.294 86.464 86.634 86.811 86.964 87.149 87.339 87.546 87.759 87.954 88.161 88.411 88.631 88.886 89.139 89.399 89.676 89.941 90.214 90.489 90.756 91.066 91.354 91.649 91.964 92.301 92.629 92.994 93.346 93.719 94.056 94.424 94.741 95.021 95.324 95.536 95.756 95.914 96.056 96.169 96.301 96.421 96.554 96.719 96.889 97.064 97.254 97.461 97.686 97.896 98.094 98.339 98.559 98.769 98.994 99.189 99.399 99.594 99.794 100.006 100.209 100.404 100.604 100.816 101.021 101.246 101.426 101.639 101.821 102.006 102.171 102.366 102.514 102.704 102.884 103.049 103.244 103.424 103.596 103.804 104.066 104.284 104.419 104.599 104.799 104.991 105.226 105.441 105.651 105.896 106.119 106.359 106.599 106.884 107.134 107.394 107.649 107.894 108.159 108.414 108.689 108.969 109.254 109.574 109.944 110.361 110.806 111.311 111.854 112.391 112.941 113.446 113.941 114.386 114.776 115.136 115.419 115.681 115.884 116.084 116.244 116.421 116.559 116.721 116.891 117.031 117.234 117.414 117.591 117.784 117.981 118.144 118.296 118.439 118.576 118.679 118.776 118.831 118.864 118.849 118.816 118.779 118.731 118.669 118.606 118.531 118.481 118.451 118.409 118.351 118.341 118.346 118.319 118.364 118.379 118.396 118.421 118.451 118.439 118.436 118.439 118.434 118.419 118.391 118.416 118.414 118.434 118.484 118.551 118.559 118.589 118.636 118.674 118.724 118.799 118.841 118.874 118.956 118.961 118.961 119.364 120.429 120.836 120.701 120.071 119.706 119.669 119.699 119.686 119.666 119.656 119.681 120.494 120.759 120.039 120.104 120.349 120.641 120.984 121.251 121.439 121.656 121.834 122.059 122.236 122.386 122.531 122.706 122.829 122.991 123.224 123.354 123.541 123.711 123.874 124.049 124.214 124.354 124.534 124.719 124.916 125.071 125.234 125.394 125.549 125.739 125.889 126.056 126.234 126.411 126.586 126.786 126.971 127.144 127.294 127.454 127.596 127.714 127.859 128.019 128.159 128.304 128.469 128.641 128.823 128.996 129.186 129.343 129.551 129.778 129.883 130.051 130.231 130.413 130.553 130.708 130.863 130.996 131.128 131.238 131.326 131.446 131.543 131.641 131.736 131.833 131.968 132.101 132.233 132.421 132.566 132.748 132.926 133.111 133.286 133.483 133.673 133.851 133.996 134.126 134.283 134.396 134.511 134.603 134.698 134.781 134.878 134.966 135.021 135.096 135.188 135.268 135.346
74.399 74.134 74.339 74.552 74.532 75.234 74.747 74.954 74.884 74.757 74.902 74.959 74.784 74.977 75.937 75.157 75.042 75.042 75.064 75.272 75.287 79.077 77.022 75.082 74.917 74.802 75.169 75.014 74.877 74.827 74.979 75.002 76.247 76.159 76.912 75.769 75.657 75.814 76.012 76.149 76.269 76.412 76.559 76.699 76.844 76.974 77.137 77.332 77.502 77.694 77.897 78.144 78.389 78.657 78.964 79.227 79.524 79.767 80.052 80.327 80.562 80.842 81.034 81.209 81.419 81.674 81.874 82.097 82.319 82.517 82.727 82.949 83.142 83.354 83.509 83.652 83.682 83.894 84.284 84.562 84.754 84.879 85.012 85.147 85.336 85.466 85.639 85.781 85.949 86.089 86.274 86.424 86.609 86.761 86.934 87.134 87.314 87.509 87.686 87.889 88.101 88.321 88.526 88.769 89.016 89.256 89.534 89.801 90.051 90.334 90.594 90.864 91.176 91.456 91.791 92.104 92.429 92.794 93.149 93.496 93.881 94.236 94.579 94.891 95.184 95.441 95.691 95.866 96.009 96.114 96.256 96.364 96.481 96.616 96.774 96.939 97.101 97.306 97.519 97.736 97.924 98.146 98.386 98.579 98.819 98.999 99.234 99.454 99.636 99.821 100.034 100.231 100.436 100.629 100.836 101.024 101.231 101.444 101.664 101.859 102.051 102.224 102.411 102.576 102.764 102.926 103.086 103.244 103.444 103.626 103.811 104.041 104.279 104.509 104.646 104.829 105.046 105.274 105.476 105.711 105.921 106.156 106.411 106.664 106.921 107.194 107.441 107.716 107.969 108.221 108.499 108.741 109.024 109.321 109.616 109.981 110.409 110.874 111.396 111.894 112.476 113.016 113.559 114.039 114.509 114.874 115.246 115.494 115.736 115.919 116.124 116.269 116.419 116.574 116.741 116.914 117.071 117.254 117.456 117.644 117.871 118.049 118.254 118.424 118.571 118.734 118.846 118.944 118.999 119.049 119.041 119.046 119.016 118.946 118.864 118.826 118.746 118.704 118.671 118.636 118.594 118.554 118.546 118.499 118.556 118.571 118.609 118.606 118.596 118.606 118.586 118.609 118.576 118.556 118.559 118.551 118.556 118.576 118.616 118.684 118.736 118.771 118.821 118.864 118.889 118.949 118.971 119.001 119.001 119.341 120.034 120.701 120.779 120.254 120.004 119.804 119.774 119.776 119.786 119.759 119.744 119.759 119.806 119.864 119.886 120.411 120.334 120.496 120.764 121.099 121.356 121.556 121.741 121.931 122.119 122.289 122.459 122.576 122.769 122.924 123.049 123.241 123.401 123.604 123.761 123.939 124.106 124.254 124.421 124.584 124.774 124.931 125.094 125.274 125.436 125.594 125.776 125.906 126.074 126.259 126.489 126.626 126.811 127.016 127.179 127.309 127.469 127.579 127.724 127.879 128.044 128.194 128.336 128.534 128.691 128.886 129.031 129.181 129.398 129.556 129.728 129.933 130.091 130.243 130.423 130.568 130.713 130.848 131.003 131.131 131.228 131.338 131.436 131.538 131.618 131.736 131.816 131.943 132.068 132.228 132.373 132.568 132.721 132.936 133.121 133.303 133.468 133.653 133.816 133.971 134.083 134.221 134.346 134.441 134.561 134.656 134.741 134.836 134.928 135.006 135.063 135.146 135.211 135.298
74.032 74.014 74.192 74.332 74.492 76.332 76.664 74.684 74.952 74.769 74.849 76.467 74.789 74.832 75.899 74.934 75.199 77.207 76.092 76.517 75.109 78.499 80.309 74.824 74.729 74.897 76.619 75.504 76.339 76.754 75.572 75.384 78.597 76.874 75.729 75.672 75.864 76.032 76.159 76.327 76.482 76.632 76.782 76.917 77.094 77.234 77.424 77.627 77.789 77.979 78.197 78.454 78.719 78.994 79.279 79.549 79.817 80.079 80.369 80.662 80.892 81.132 81.354 81.539 81.737 81.932 82.134 82.337 82.547 82.764 82.962 83.142 83.354 83.522 83.709 83.864 83.989 84.094 84.454 84.704 84.852 84.997 85.129 85.272 85.436 85.586 85.769 85.924 86.094 86.246 86.401 86.581 86.756 86.904 87.069 87.266 87.456 87.664 87.851 88.044 88.251 88.471 88.679 88.924 89.149 89.409 89.671 89.929 90.191 90.469 90.719 91.009 91.284 91.596 91.906 92.234 92.581 92.941 93.304 93.651 94.006 94.394 94.724 95.031 95.319 95.546 95.791 95.969 96.084 96.204 96.324 96.436 96.539 96.684 96.839 97.009 97.189 97.359 97.596 97.796 98.001 98.216 98.431 98.631 98.866 99.051 99.269 99.469 99.661 99.874 100.074 100.266 100.456 100.654 100.859 101.051 101.251 101.469 101.679 101.881 102.071 102.289 102.441 102.629 102.801 102.996 103.144 103.304 103.489 103.671 103.854 104.054 104.264 104.534 104.746 104.889 105.104 105.331 105.531 105.769 105.984 106.246 106.474 106.731 106.976 107.239 107.499 107.781 108.041 108.296 108.539 108.796 109.076 109.381 109.706 110.076 110.486 110.969 111.461 112.006 112.579 113.121 113.659 114.171 114.606 115.006 115.296 115.544 115.764 115.966 116.131 116.291 116.426 116.579 116.756 116.926 117.106 117.276 117.521 117.734 117.941 118.154 118.359 118.554 118.706 118.876 118.999 119.091 119.161 119.194 119.231 119.216 119.216 119.151 119.116 119.034 118.976 118.921 118.884 118.856 118.831 118.776 118.751 118.734 118.731 118.769 118.789 118.796 118.791 118.766 118.754 118.744 118.741 118.721 118.739 118.709 118.734 118.754 118.759 118.829 118.929 118.931 118.961 118.944 119.039 119.061 119.046 119.216 119.974 120.829 120.719 120.586 120.254 119.931 119.856 119.834 119.844 119.881 119.886 119.916 119.949 119.869 119.906 120.006 120.099 121.631 122.361 120.849 120.941 121.169 121.444 121.649 121.841 121.994 122.216 122.376 122.554 122.699 122.806 122.981 123.149 123.284 123.474 123.664 123.811 123.989 124.169 124.329 124.484 124.646 124.806 124.979 125.136 125.286 125.464 125.634 125.809 125.956 126.134 126.324 126.496 126.674 126.866 127.041 127.214 127.346 127.504 127.629 127.759 127.931 128.054 128.236 128.381 128.546 128.753 128.916 129.113 129.258 129.411 129.583 129.758 129.926 130.093 130.276 130.433 130.588 130.753 130.896 131.006 131.136 131.258 131.363 131.443 131.546 131.631 131.726 131.821 131.936 132.073 132.236 132.383 132.558 132.731 132.921 133.096 133.291 133.468 133.596 133.776 133.913 134.043 134.191 134.286 134.411 134.488 134.598 134.701 134.791 134.883 134.951 135.038 135.111 135.161 135.231
74.179 74.332 77.117 74.437 74.437 74.617 75.992 74.884 74.657 74.972 75.012 76.647 74.599 74.772 76.507 75.017 77.172 79.062 78.859 78.164 74.507 78.292 78.922 74.682 74.669 75.094 75.959 75.292 75.502 76.067 78.304 78.574 77.979 76.482 75.712 75.889 76.034 76.167 76.322 76.499 76.682 76.852 77.004 77.177 77.367 77.547 77.727 77.917 78.089 78.302 78.524 78.772 79.052 79.322 79.594 79.864 80.137 80.399 80.692 80.959 81.189 81.414 81.627 81.834 82.042 82.194 82.369 82.597 82.804 83.012 83.192 83.357 83.522 83.732 83.902 84.059 84.212 84.354 84.569 84.754 84.972 85.109 85.262 85.412 85.579 85.719 85.899 86.051 86.236 86.399 86.559 86.736 86.891 87.066 87.244 87.421 87.606 87.791 87.999 88.196 88.409 88.624 88.826 89.061 89.289 89.539 89.794 90.049 90.306 90.579 90.831 91.109 91.391 91.704 92.034 92.346 92.701 93.079 93.431 93.791 94.156 94.524 94.846 95.171 95.439 95.671 95.866 96.049 96.191 96.286 96.374 96.491 96.641 96.764 96.924 97.069 97.261 97.446 97.654 97.851 98.071 98.276 98.479 98.681 98.871 99.089 99.321 99.506 99.744 99.921 100.116 100.314 100.514 100.706 100.896 101.084 101.299 101.506 101.704 101.899 102.076 102.294 102.489 102.676 102.871 103.054 103.209 103.371 103.539 103.734 103.906 104.101 104.311 104.549 104.814 105.024 105.161 105.384 105.576 105.819 106.059 106.289 106.526 106.774 107.021 107.284 107.561 107.851 108.081 108.364 108.629 108.881 109.166 109.449 109.784 110.181 110.599 111.064 111.551 112.116 112.684 113.231 113.781 114.266 114.686 115.076 115.361 115.604 115.791 115.996 116.149 116.301 116.456 116.624 116.781 116.959 117.144 117.349 117.566 117.776 118.009 118.246 118.456 118.669 118.849 119.001 119.121 119.239 119.316 119.371 119.409 119.406 119.404 119.401 119.346 119.281 119.221 119.144 119.106 119.076 119.036 118.991 118.951 118.936 118.924 118.969 119.004 118.974 118.969 118.956 118.924 118.901 118.911 118.889 118.889 118.861 118.896 118.911 118.926 118.956 119.269 119.976 120.424 119.319 119.094 119.109 119.204 120.006 120.346 120.541 120.526 120.034 119.889 119.864 119.861 120.051 120.279 120.484 120.709 120.689 120.636 120.724 120.436 120.116 120.244 120.486 121.931 122.206 121.076 121.241 121.494 121.731 121.899 122.079 122.264 122.446 122.589 122.751 122.906 123.044 123.214 123.351 123.521 123.696 123.879 124.036 124.219 124.361 124.539 124.721 124.879 125.039 125.206 125.316 125.514 125.669 125.831 126.026 126.184 126.394 126.546 126.711 126.906 127.081 127.254 127.364 127.534 127.679 127.806 127.974 128.111 128.234 128.449 128.581 128.756 128.946 129.131 129.296 129.438 129.598 129.793 129.946 130.103 130.278 130.443 130.583 130.758 130.888 131.023 131.161 131.253 131.363 131.468 131.551 131.653 131.753 131.856 131.953 132.091 132.218 132.401 132.561 132.726 132.903 133.073 133.248 133.423 133.573 133.716 133.866 133.973 134.118 134.213 134.321 134.441 134.531 134.658 134.751 134.841 134.911 134.968 135.038 135.118 135.173
74.049 77.532 76.397 76.879 74.699 74.794 74.382 74.582 74.632 74.732 74.742 74.729 74.652 75.189 74.949 75.202 75.267 75.107 75.057 79.704 83.864 77.034 75.417 75.389 75.114 75.417 77.452 75.674 76.457 75.807 77.954 76.039 75.989 75.749 75.912 76.024 76.182 76.344 76.529 76.754 76.909 77.072 77.279 77.494 77.657 77.844 78.024 78.194 78.412 78.637 78.852 79.094 79.364 79.617 79.902 80.197 80.462 80.734 81.002 81.239 81.487 81.724 81.914 82.124 82.312 82.494 82.659 82.842 83.047 83.222 83.399 83.567 83.737 83.882 84.057 84.237 84.387 84.529 84.687 84.879 85.047 85.247 85.442 85.607 85.729 85.894 86.076 86.209 86.396 86.564 86.731 86.891 87.031 87.209 87.399 87.581 87.759 87.959 88.161 88.374 88.571 88.774 88.971 89.194 89.426 89.664 89.909 90.149 90.436 90.691 90.944 91.216 91.506 91.811 92.131 92.474 92.806 93.211 93.544 93.911 94.304 94.626 94.969 95.271 95.544 95.774 95.959 96.119 96.274 96.376 96.474 96.606 96.714 96.861 97.014 97.179 97.341 97.524 97.736 97.926 98.159 98.334 98.559 98.759 98.944 99.151 99.374 99.596 99.779 99.989 100.189 100.374 100.569 100.761 100.944 101.146 101.339 101.556 101.754 101.941 102.129 102.339 102.516 102.739 102.926 103.099 103.284 103.454 103.599 103.794 103.971 104.134 104.346 104.581 104.816 105.104 105.259 105.461 105.636 105.879 106.116 106.341 106.581 106.819 107.076 107.356 107.609 107.869 108.131 108.416 108.684 108.959 109.246 109.571 109.929 110.289 110.734 111.161 111.671 112.236 112.786 113.356 113.861 114.336 114.781 115.126 115.404 115.639 115.841 116.014 116.176 116.336 116.489 116.669 116.819 117.014 117.206 117.409 117.649 117.861 118.106 118.351 118.576 118.806 118.961 119.114 119.254 119.374 119.499 119.571 119.621 119.609 119.634 119.639 119.599 119.549 119.466 119.389 119.331 119.306 119.236 119.199 119.161 119.144 119.134 119.166 119.164 119.151 119.139 119.109 119.084 119.079 119.069 119.069 119.059 119.011 119.039 119.079 119.149 119.464 120.509 120.889 120.946 120.179 119.294 119.401 120.289 120.834 120.489 120.199 119.994 119.879 119.856 120.091 120.611 120.976 121.059 120.931 121.119 121.229 121.369 121.261 121.306 120.746 120.366 120.546 120.834 122.544 121.876 121.321 121.531 121.776 122.004 122.159 122.294 122.491 122.646 122.789 122.969 123.106 123.264 123.419 123.571 123.721 123.914 124.074 124.239 124.421 124.591 124.754 124.936 125.074 125.219 125.411 125.551 125.721 125.886 126.059 126.234 126.409 126.601 126.764 126.914 127.099 127.261 127.409 127.561 127.721 127.849 128.001 128.176 128.299 128.411 128.626 128.766 128.946 129.126 129.336 129.486 129.641 129.796 129.956 130.108 130.306 130.458 130.628 130.793 130.931 131.043 131.176 131.301 131.371 131.473 131.568 131.683 131.761 131.888 132.013 132.131 132.253 132.396 132.558 132.718 132.883 133.051 133.221 133.393 133.563 133.681 133.801 133.946 134.041 134.171 134.273 134.368 134.496 134.606 134.688 134.776 134.851 134.938 135.016 135.063 135.108
75.227 81.887 76.004 73.894 74.857 75.702 74.712 74.537 80.819 78.227 76.217 76.254 74.834 75.067 76.182 75.134 74.984 76.322 77.109 75.527 76.112 75.902 75.124 75.387 75.677 76.689 76.297 76.299 76.219 75.682 75.777 75.727 75.807 75.909 76.052 76.209 76.397 76.564 76.762 76.967 77.157 77.352 77.609 77.777 77.962 78.139 78.319 78.522 78.727 78.952 79.164 79.414 79.677 79.962 80.257 80.527 80.809 81.079 81.302 81.569 81.799 82.017 82.212 82.437 82.607 82.772 82.932 83.107 83.267 83.479 83.654 83.832 83.977 84.132 84.254 84.409 84.574 84.762 84.912 85.107 85.149 85.404 85.619 85.772 85.929 86.079 86.251 86.409 86.566 86.726 86.886 87.039 87.221 87.381 87.561 87.729 87.931 88.124 88.329 88.506 88.714 88.919 89.129 89.349 89.559 89.776 90.024 90.269 90.539 90.779 91.049 91.329 91.631 91.959 92.249 92.589 92.934 93.316 93.671 94.051 94.404 94.754 95.079 95.346 95.611 95.851 96.034 96.199 96.349 96.491 96.569 96.684 96.799 96.941 97.099 97.271 97.439 97.616 97.794 98.014 98.214 98.429 98.626 98.831 99.034 99.241 99.439 99.634 99.851 100.046 100.251 100.439 100.651 100.849 101.021 101.199 101.396 101.601 101.789 101.994 102.174 102.374 102.561 102.766 102.941 103.151 103.331 103.499 103.636 103.846 104.004 104.189 104.386 104.596 104.864 105.089 105.339 105.684 105.766 105.946 106.179 106.419 106.634 106.881 107.114 107.394 107.636 107.909 108.199 108.471 108.771 109.049 109.376 109.689 110.051 110.446 110.864 111.319 111.826 112.361 112.916 113.451 113.959 114.431 114.841 115.169 115.449 115.666 115.856 116.049 116.214 116.379 116.559 116.716 116.871 117.066 117.276 117.496 117.734 117.986 118.206 118.469 118.701 118.909 119.104 119.266 119.409 119.539 119.654 119.769 119.821 119.831 119.869 119.869 119.861 119.824 119.734 119.669 119.584 119.499 119.451 119.414 119.366 119.341 119.339 119.316 119.316 119.281 119.241 119.251 119.216 119.244 119.229 119.221 119.196 119.176 119.184 119.234 119.594 120.939 121.054 120.929 120.319 119.521 119.831 120.491 120.669 120.541 119.986 119.966 119.906 119.939 120.304 120.959 121.061 120.824 120.766 120.861 120.901 120.939 120.944 121.084 121.266 121.466 120.881 120.664 120.824 121.336 122.961 121.664 121.564 121.801 122.064 122.214 122.359 122.531 122.694 122.864 123.031 123.174 123.326 123.469 123.644 123.796 123.951 124.129 124.274 124.451 124.634 124.794 124.959 125.121 125.279 125.444 125.611 125.754 125.946 126.116 126.286 126.466 126.639 126.811 126.939 127.126 127.306 127.434 127.611 127.746 127.886 128.046 128.204 128.346 128.489 128.631 128.816 128.983 129.161 129.318 129.483 129.656 129.811 129.971 130.143 130.336 130.478 130.641 130.808 130.941 131.086 131.198 131.323 131.423 131.516 131.618 131.728 131.803 131.903 132.043 132.158 132.271 132.423 132.553 132.723 132.878 133.026 133.191 133.353 133.511 133.648 133.773 133.891 133.998 134.113 134.218 134.331 134.438 134.548 134.618 134.733 134.821 134.883 134.938 134.996 135.056
74.244 75.864 75.709 74.049 74.944 75.554 74.107 74.717 81.332 76.354 75.317 77.154 75.507 74.969 74.742 74.657 74.817 76.752 78.764 76.512 76.657 75.209 75.647 75.372 75.814 76.274 75.482 75.397 75.489 75.579 75.709 75.822 75.924 76.059 76.202 76.387 76.587 76.794 76.979 77.194 77.434 77.667 77.879 78.067 78.287 78.454 78.654 78.862 79.067 79.282 79.502 79.759 80.007 80.314 80.569 80.837 81.149 81.409 81.639 81.884 82.109 82.324 82.522 82.699 82.879 83.069 83.239 83.394 83.567 83.737 83.889 84.047 84.189 84.309 84.467 84.619 84.792 85.007 85.174 85.354 85.332 85.544 85.764 85.949 86.116 86.279 86.444 86.591 86.749 86.901 87.061 87.244 87.394 87.559 87.719 87.931 88.091 88.294 88.489 88.671 88.859 89.064 89.266 89.481 89.691 89.901 90.136 90.386 90.644 90.884 91.159 91.446 91.751 92.054 92.364 92.704 93.066 93.416 93.781 94.174 94.504 94.849 95.174 95.449 95.709 95.929 96.116 96.271 96.401 96.574 96.694 96.786 96.901 97.049 97.191 97.361 97.554 97.709 97.904 98.104 98.314 98.501 98.701 98.904 99.096 99.309 99.516 99.726 99.919 100.111 100.321 100.526 100.726 100.899 101.086 101.271 101.441 101.636 101.831 102.029 102.219 102.401 102.616 102.791 102.989 103.189 103.404 103.569 103.736 103.899 104.096 104.274 104.456 104.669 104.881 105.114 105.361 105.761 106.061 106.036 106.214 106.449 106.684 106.944 107.166 107.431 107.671 107.949 108.231 108.541 108.849 109.156 109.494 109.831 110.209 110.611 111.014 111.484 111.994 112.486 113.034 113.569 114.039 114.496 114.859 115.201 115.494 115.746 115.924 116.106 116.264 116.449 116.621 116.766 116.951 117.146 117.364 117.624 117.851 118.104 118.359 118.611 118.839 119.046 119.234 119.419 119.561 119.719 119.816 119.939 120.011 120.049 120.089 120.124 120.111 120.084 120.021 119.926 119.836 119.736 119.651 119.621 119.556 119.521 119.504 119.476 119.481 119.456 119.424 119.389 119.394 119.364 119.376 119.364 119.346 119.336 119.294 119.591 120.481 121.089 120.854 119.851 119.506 120.339 120.806 120.566 120.276 120.016 119.946 119.929 120.136 120.694 120.874 120.689 120.636 120.721 120.824 120.874 120.919 120.976 121.014 121.059 121.156 121.431 121.604 121.086 120.939 121.101 121.954 123.214 122.064 121.816 122.049 122.294 122.444 122.581 122.746 122.919 123.089 123.239 123.386 123.544 123.686 123.819 124.004 124.161 124.321 124.469 124.649 124.839 124.979 125.154 125.329 125.486 125.661 125.811 125.999 126.176 126.331 126.484 126.664 126.846 127.031 127.149 127.306 127.456 127.621 127.761 127.906 128.051 128.216 128.379 128.536 128.661 128.828 129.006 129.176 129.336 129.518 129.688 129.843 130.033 130.198 130.353 130.508 130.663 130.826 130.963 131.121 131.228 131.338 131.463 131.566 131.641 131.776 131.853 131.963 132.061 132.188 132.293 132.438 132.573 132.733 132.871 133.008 133.168 133.331 133.453 133.616 133.741 133.848 133.958 134.066 134.178 134.278 134.371 134.486 134.563 134.676 134.753 134.826 134.913 134.953 135.006
75.449 74.207 74.269 74.019 74.034 76.342 75.822 74.564 75.327 74.942 76.424 74.704 74.792 74.914 74.519 76.599 75.204 75.374 74.994 75.422 74.829 74.824 75.114 75.874 75.832 75.194 75.249 75.414 75.587 75.704 75.804 75.922 76.064 76.234 76.407 76.567 76.774 76.984 77.229 77.477 77.712 77.937 78.147 78.364 78.564 78.782 78.994 79.162 79.394 79.587 79.807 80.067 80.349 80.644 80.892 81.164 81.432 81.697 81.962 82.164 82.382 82.594 82.777 82.969 83.157 83.329 83.494 83.674 83.832 83.979 84.104 84.234 84.379 84.527 84.654 84.829 85.022 85.229 85.404 85.502 85.629 85.682 85.927 86.139 86.314 86.496 86.631 86.776 86.934 87.111 87.246 87.419 87.576 87.744 87.909 88.091 88.249 88.456 88.654 88.829 89.044 89.221 89.411 89.629 89.811 90.029 90.269 90.491 90.749 91.009 91.274 91.561 91.871 92.156 92.476 92.806 93.174 93.519 93.921 94.271 94.631 94.949 95.254 95.546 95.804 95.996 96.186 96.349 96.481 96.644 96.791 96.899 97.001 97.149 97.291 97.451 97.641 97.826 98.041 98.209 98.389 98.601 98.804 99.006 99.191 99.396 99.599 99.789 99.996 100.226 100.396 100.599 100.774 100.951 101.156 101.329 101.496 101.676 101.881 102.056 102.226 102.414 102.641 102.831 103.026 103.216 103.426 103.626 103.796 103.959 104.154 104.369 104.549 104.739 104.934 105.169 105.369 105.671 106.229 106.296 106.254 106.491 106.731 106.976 107.219 107.449 107.739 107.984 108.286 108.621 108.939 109.284 109.641 110.019 110.406 110.794 111.206 111.669 112.154 112.644 113.184 113.666 114.156 114.566 114.939 115.276 115.549 115.786 115.984 116.149 116.289 116.469 116.641 116.819 117.031 117.236 117.474 117.731 117.976 118.226 118.514 118.756 118.974 119.191 119.371 119.556 119.709 119.859 119.999 120.111 120.179 120.259 120.316 120.364 120.366 120.346 120.286 120.196 120.054 119.961 119.869 119.806 119.769 119.716 119.659 119.651 119.609 119.599 119.559 119.531 119.526 119.529 119.551 119.549 119.456 119.451 119.784 120.799 121.054 120.689 119.806 119.719 120.344 120.516 120.334 120.054 120.024 119.944 119.996 120.426 120.819 120.621 120.564 120.649 120.736 120.811 120.866 120.936 120.984 121.036 121.114 121.164 121.221 121.324 121.641 121.916 121.249 121.176 121.384 122.519 123.124 121.951 122.056 122.296 122.499 122.644 122.796 122.979 123.134 123.269 123.461 123.584 123.724 123.881 124.036 124.199 124.346 124.511 124.689 124.854 125.036 125.186 125.364 125.524 125.681 125.866 126.041 126.246 126.404 126.526 126.694 126.866 127.034 127.186 127.339 127.501 127.651 127.789 127.951 128.091 128.226 128.391 128.571 128.721 128.868 129.001 129.188 129.358 129.531 129.686 129.861 130.028 130.208 130.368 130.518 130.693 130.831 130.988 131.133 131.256 131.378 131.513 131.611 131.703 131.801 131.896 132.003 132.106 132.208 132.346 132.471 132.603 132.731 132.896 133.026 133.146 133.296 133.438 133.571 133.701 133.836 133.931 134.038 134.143 134.261 134.353 134.441 134.531 134.618 134.703 134.773 134.848 134.926 134.976
74.584 74.417 74.362 78.294 77.112 74.457 74.479 74.517 74.899 74.827 74.979 74.837 75.004 75.484 76.469 77.157 76.532 76.204 75.957 75.377 74.972 75.174 75.582 75.339 75.159 75.252 75.372 75.509 75.624 75.757 75.889 76.054 76.222 76.389 76.549 76.734 76.982 77.222 77.504 77.722 77.957 78.194 78.417 78.644 78.867 79.044 79.274 79.434 79.687 79.889 80.139 80.379 80.662 80.924 81.187 81.489 81.729 81.982 82.247 82.437 82.647 82.874 83.044 83.224 83.417 83.589 83.779 83.934 84.099 84.234 84.367 84.457 84.544 84.704 84.877 85.084 85.264 85.414 85.537 85.697 85.884 85.844 86.102 86.314 86.511 86.694 86.851 86.971 87.119 87.276 87.449 87.581 87.759 87.936 88.089 88.266 88.446 88.616 88.774 88.971 89.186 89.369 89.571 89.751 89.961 90.169 90.389 90.621 90.884 91.126 91.386 91.671 91.956 92.279 92.596 92.926 93.276 93.629 94.011 94.351 94.714 95.046 95.369 95.646 95.896 96.091 96.261 96.436 96.584 96.721 96.859 97.004 97.131 97.279 97.426 97.584 97.729 97.921 98.126 98.299 98.514 98.684 98.891 99.089 99.286 99.484 99.681 99.889 100.091 100.274 100.474 100.666 100.864 101.034 101.224 101.399 101.566 101.751 101.916 102.106 102.279 102.476 102.669 102.869 103.061 103.254 103.466 103.676 103.841 104.049 104.241 104.409 104.616 104.801 105.014 105.226 105.401 105.664 106.086 106.644 106.484 106.546 106.784 107.024 107.261 107.506 107.779 108.041 108.354 108.721 109.069 109.426 109.816 110.216 110.596 110.994 111.406 111.854 112.329 112.826 113.316 113.814 114.254 114.654 115.021 115.341 115.614 115.861 116.049 116.211 116.366 116.531 116.691 116.896 117.094 117.334 117.569 117.829 118.101 118.376 118.651 118.866 119.106 119.296 119.514 119.684 119.826 119.996 120.134 120.266 120.364 120.434 120.526 120.586 120.584 120.561 120.524 120.419 120.284 120.191 120.086 120.016 119.959 119.896 119.821 119.799 119.776 119.756 119.701 119.679 119.661 119.651 119.649 119.606 119.569 120.221 121.206 121.049 120.431 119.751 120.116 120.694 120.574 120.106 120.056 120.039 119.969 120.149 120.741 120.706 120.576 120.599 120.666 120.724 120.801 120.884 120.951 121.004 121.044 121.111 121.174 121.251 121.321 121.424 121.519 121.946 122.059 121.421 121.464 121.709 123.176 123.279 122.101 122.264 122.509 122.731 122.876 123.019 123.186 123.334 123.494 123.661 123.779 123.944 124.086 124.256 124.389 124.551 124.731 124.876 125.069 125.239 125.396 125.591 125.721 125.919 126.106 126.264 126.444 126.584 126.741 126.899 127.049 127.199 127.356 127.544 127.694 127.854 128.019 128.149 128.296 128.429 128.589 128.759 128.921 129.046 129.201 129.356 129.526 129.683 129.868 130.053 130.203 130.388 130.543 130.698 130.863 131.016 131.146 131.286 131.401 131.528 131.633 131.743 131.833 131.956 132.056 132.161 132.261 132.368 132.506 132.633 132.761 132.888 133.028 133.158 133.293 133.398 133.528 133.648 133.786 133.913 134.006 134.106 134.221 134.321 134.416 134.491 134.578 134.636 134.721 134.813 134.883 134.963
74.689 74.424 74.552 76.787 76.379 76.649 74.234 74.437 74.827 74.719 74.994 74.549 79.152 80.469 80.197 76.777 74.939 77.324 75.669 75.609 75.169 75.144 75.157 75.162 75.227 75.327 75.439 75.562 75.722 75.874 76.039 76.202 76.359 76.547 76.724 76.972 77.217 77.469 77.699 77.977 78.177 78.437 78.669 78.894 79.119 79.324 79.527 79.739 79.962 80.199 80.419 80.679 80.937 81.217 81.484 81.764 82.007 82.277 82.514 82.727 82.919 83.114 83.309 83.512 83.689 83.874 84.044 84.189 84.359 84.502 84.604 84.699 84.774 84.939 85.124 85.297 85.437 85.577 85.737 85.917 86.097 86.224 86.237 86.509 86.719 86.881 87.064 87.194 87.326 87.479 87.644 87.819 87.969 88.124 88.279 88.439 88.596 88.781 88.974 89.144 89.326 89.526 89.716 89.934 90.096 90.309 90.529 90.754 90.999 91.254 91.534 91.784 92.091 92.396 92.714 93.046 93.399 93.754 94.086 94.464 94.816 95.169 95.459 95.734 95.964 96.161 96.341 96.504 96.671 96.791 96.941 97.076 97.264 97.381 97.529 97.669 97.844 98.016 98.219 98.416 98.596 98.779 98.984 99.189 99.381 99.574 99.761 99.954 100.154 100.346 100.564 100.744 100.914 101.101 101.284 101.446 101.616 101.814 101.986 102.149 102.324 102.559 102.729 102.926 103.106 103.294 103.524 103.711 103.894 104.119 104.289 104.496 104.691 104.884 105.101 105.261 105.501 105.716 105.969 106.966 107.264 106.616 106.821 107.079 107.324 107.586 107.816 108.134 108.459 108.816 109.216 109.601 109.991 110.411 110.811 111.206 111.636 112.074 112.539 112.996 113.474 113.946 114.356 114.739 115.091 115.409 115.681 115.896 116.091 116.271 116.414 116.594 116.739 116.951 117.171 117.419 117.706 117.944 118.221 118.509 118.759 118.996 119.204 119.399 119.614 119.794 119.971 120.126 120.286 120.396 120.504 120.599 120.669 120.741 120.749 120.751 120.701 120.626 120.509 120.384 120.274 120.209 120.121 120.059 119.994 119.956 119.929 119.911 119.879 119.826 119.849 119.804 119.739 119.736 120.011 120.919 120.999 120.124 120.061 120.609 120.699 120.511 120.151 120.069 120.059 120.049 120.436 120.821 120.659 120.536 120.624 120.694 120.744 120.809 120.914 120.966 120.989 121.046 121.114 121.161 121.241 121.326 121.416 121.509 121.611 121.746 122.326 122.309 121.639 121.734 122.076 123.669 123.184 122.314 122.504 122.751 122.966 123.096 123.239 123.414 123.569 123.711 123.851 123.964 124.121 124.259 124.429 124.579 124.721 124.924 125.089 125.264 125.449 125.614 125.826 125.956 126.151 126.329 126.454 126.646 126.809 126.951 127.131 127.259 127.426 127.596 127.756 127.911 128.059 128.194 128.354 128.494 128.614 128.771 128.931 129.081 129.246 129.373 129.523 129.686 129.866 130.041 130.186 130.393 130.558 130.716 130.891 131.021 131.146 131.293 131.428 131.568 131.678 131.796 131.871 131.986 132.088 132.186 132.303 132.416 132.531 132.671 132.773 132.898 133.028 133.163 133.281 133.393 133.501 133.633 133.736 133.871 133.983 134.076 134.191 134.296 134.391 134.461 134.518 134.606 134.698 134.766 134.838 134.921
76.619 74.587 74.379 74.222 74.417 76.657 74.334 74.627 74.849 74.684 79.389 77.727 77.704 77.259 77.682 76.339 75.599 77.857 76.072 75.239 74.912 75.059 75.107 75.172 75.272 75.399 75.554 75.682 75.839 76.022 76.177 76.342 76.504 76.714 76.922 77.179 77.409 77.687 77.889 78.144 78.394 78.649 78.884 79.129 79.327 79.539 79.777 80.014 80.229 80.444 80.682 80.942 81.219 81.479 81.734 81.982 82.254 82.524 82.759 82.999 83.179 83.374 83.592 83.774 83.947 84.124 84.289 84.427 84.574 84.714 84.804 84.897 85.004 85.169 85.312 85.439 85.569 85.762 85.949 86.097 86.249 86.612 86.417 86.679 86.921 87.081 87.234 87.406 87.526 87.676 87.841 88.001 88.176 88.326 88.489 88.649 88.804 88.959 89.129 89.306 89.491 89.684 89.864 90.074 90.251 90.466 90.666 90.906 91.154 91.391 91.639 91.919 92.224 92.519 92.839 93.161 93.519 93.859 94.204 94.561 94.919 95.259 95.544 95.814 96.046 96.249 96.414 96.586 96.741 96.894 97.024 97.156 97.339 97.481 97.636 97.784 97.954 98.141 98.334 98.511 98.686 98.909 99.084 99.284 99.484 99.649 99.849 100.041 100.236 100.431 100.606 100.796 100.959 101.141 101.331 101.519 101.694 101.874 102.051 102.226 102.409 102.611 102.764 102.971 103.156 103.356 103.549 103.744 103.996 104.179 104.351 104.584 104.774 104.981 105.169 105.359 105.581 105.759 106.006 106.289 106.691 106.781 106.921 107.174 107.404 107.649 107.936 108.246 108.571 108.966 109.394 109.786 110.219 110.641 111.051 111.459 111.864 112.289 112.731 113.179 113.641 114.096 114.486 114.856 115.174 115.464 115.716 115.934 116.146 116.319 116.451 116.646 116.831 117.014 117.261 117.531 117.816 118.071 118.341 118.634 118.899 119.106 119.316 119.551 119.739 119.909 120.086 120.254 120.394 120.536 120.636 120.749 120.836 120.889 120.884 120.886 120.854 120.794 120.671 120.561 120.461 120.366 120.291 120.234 120.154 120.104 120.089 120.049 120.029 120.019 119.956 119.964 119.874 120.501 121.229 120.589 120.009 120.239 120.841 120.916 120.584 120.234 120.124 120.109 120.201 120.731 120.769 120.589 120.611 120.679 120.741 120.779 120.856 120.904 120.949 120.994 121.041 121.106 121.161 121.259 121.326 121.406 121.504 121.586 121.699 121.821 121.999 122.724 122.301 121.894 121.971 122.654 124.246 122.764 122.546 122.759 122.969 123.139 123.289 123.429 123.624 123.774 123.894 124.036 124.159 124.314 124.456 124.626 124.776 124.944 125.144 125.304 125.491 125.664 125.841 126.031 126.189 126.374 126.519 126.671 126.871 127.026 127.176 127.331 127.491 127.644 127.831 127.964 128.094 128.266 128.399 128.539 128.679 128.824 128.951 129.108 129.223 129.391 129.541 129.706 129.891 130.033 130.201 130.391 130.558 130.713 130.888 131.038 131.181 131.306 131.436 131.548 131.678 131.786 131.893 131.986 132.101 132.203 132.303 132.423 132.533 132.663 132.796 132.901 133.031 133.158 133.258 133.383 133.496 133.608 133.711 133.836 133.953 134.066 134.168 134.281 134.361 134.458 134.501 134.563 134.646 134.723 134.808 134.871
75.707 75.454 74.372 75.379 74.399 74.614 74.587 77.307 78.972 83.659 84.624 77.614 75.784 75.809 75.094 75.117 76.317 76.552 74.942 74.919 74.982 75.034 75.132 75.234 75.332 75.482 75.639 75.817 75.967 76.122 76.292 76.484 76.674 76.899 77.127 77.392 77.607 77.844 78.077 78.304 78.562 78.847 79.079 79.322 79.532 79.757 79.979 80.217 80.457 80.692 80.932 81.179 81.422 81.674 81.934 82.224 82.487 82.742 82.979 83.232 83.447 83.614 83.832 84.017 84.189 84.342 84.492 84.664 84.814 84.919 85.024 85.109 85.227 85.349 85.479 85.607 85.764 85.967 86.132 86.317 86.452 86.644 86.677 86.837 87.091 87.286 87.464 87.591 87.746 87.889 88.041 88.211 88.379 88.521 88.686 88.829 88.984 89.126 89.299 89.471 89.664 89.831 90.026 90.224 90.416 90.619 90.846 91.071 91.301 91.566 91.801 92.074 92.336 92.664 92.961 93.291 93.634 93.961 94.331 94.671 95.011 95.326 95.634 95.889 96.106 96.326 96.489 96.669 96.801 96.964 97.106 97.266 97.404 97.599 97.726 97.894 98.066 98.221 98.419 98.601 98.784 98.981 99.189 99.391 99.554 99.741 99.939 100.136 100.319 100.486 100.679 100.854 101.026 101.224 101.401 101.571 101.746 101.936 102.114 102.319 102.499 102.656 102.846 103.016 103.204 103.426 103.604 103.804 103.999 104.199 104.441 104.649 104.836 105.046 105.236 105.454 105.661 105.859 106.076 106.334 106.591 106.821 107.064 107.254 107.504 107.769 108.074 108.391 108.736 109.159 109.584 110.031 110.454 110.876 111.294 111.709 112.079 112.511 112.954 113.369 113.811 114.211 114.591 114.941 115.246 115.514 115.749 115.966 116.171 116.336 116.519 116.706 116.899 117.091 117.371 117.636 117.906 118.199 118.464 118.741 118.976 119.194 119.436 119.636 119.824 120.036 120.204 120.369 120.519 120.659 120.759 120.854 120.934 120.986 120.996 120.976 120.959 120.914 120.809 120.699 120.606 120.494 120.426 120.359 120.291 120.229 120.204 120.244 120.191 120.171 121.096 120.866 120.906 121.269 120.281 120.144 120.906 120.996 120.889 120.416 120.244 120.166 120.201 120.436 120.834 120.709 120.639 120.671 120.731 120.774 120.834 120.879 120.929 120.979 121.001 121.049 121.106 121.184 121.266 121.341 121.436 121.506 121.594 121.704 121.791 121.906 122.059 122.351 123.054 122.269 122.106 122.199 123.224 124.516 123.064 122.704 122.941 123.176 123.359 123.486 123.646 123.796 123.924 124.094 124.214 124.364 124.519 124.639 124.819 124.999 125.184 125.359 125.526 125.716 125.879 126.056 126.256 126.404 126.566 126.719 126.886 127.061 127.234 127.406 127.569 127.694 127.834 127.996 128.149 128.306 128.439 128.561 128.699 128.841 128.971 129.131 129.246 129.391 129.551 129.713 129.878 130.028 130.196 130.361 130.538 130.711 130.853 131.011 131.163 131.291 131.436 131.551 131.676 131.776 131.891 132.003 132.106 132.218 132.301 132.396 132.543 132.648 132.788 132.898 133.011 133.151 133.258 133.351 133.506 133.598 133.691 133.806 133.911 134.028 134.126 134.238 134.321 134.418 134.493 134.581 134.626 134.703 134.776 134.863
75.387 76.617 75.212 74.507 74.307 74.537 77.519 81.784 78.877 78.022 77.914 74.414 75.772 75.399 74.909 75.664 75.309 74.847 74.862 74.917 74.989 75.072 75.192 75.292 75.432 75.579 75.732 75.889 76.062 76.227 76.444 76.657 76.892 77.077 77.302 77.524 77.757 77.992 78.244 78.487 78.727 78.997 79.229 79.509 79.737 79.942 80.174 80.437 80.657 80.894 81.139 81.387 81.637 81.892 82.147 82.432 82.694 82.937 83.204 83.459 83.679 83.892 84.064 84.237 84.412 84.577 84.727 84.929 85.059 85.177 85.249 85.322 85.419 85.559 85.694 85.822 85.982 86.152 86.309 86.487 86.654 86.849 86.969 86.969 87.269 87.474 87.661 87.816 87.956 88.106 88.259 88.414 88.571 88.746 88.901 89.041 89.194 89.349 89.491 89.679 89.841 89.999 90.179 90.384 90.586 90.806 91.001 91.236 91.444 91.699 91.971 92.229 92.516 92.794 93.106 93.441 93.774 94.119 94.446 94.781 95.111 95.419 95.704 95.976 96.184 96.394 96.561 96.736 96.879 97.044 97.181 97.336 97.521 97.674 97.846 98.026 98.179 98.339 98.521 98.694 98.881 99.094 99.269 99.444 99.636 99.829 100.011 100.196 100.379 100.551 100.729 100.926 101.094 101.286 101.471 101.639 101.839 102.029 102.186 102.391 102.556 102.744 102.921 103.101 103.291 103.479 103.661 103.861 104.064 104.279 104.514 104.701 104.921 105.164 105.339 105.546 105.759 105.981 106.189 106.439 106.664 106.969 107.206 107.389 107.604 107.906 108.234 108.544 108.941 109.361 109.791 110.251 110.671 111.124 111.519 111.896 112.316 112.696 113.111 113.551 113.976 114.346 114.726 115.049 115.294 115.556 115.779 115.986 116.194 116.364 116.536 116.721 116.944 117.199 117.459 117.724 118.006 118.296 118.544 118.804 119.061 119.296 119.521 119.751 119.936 120.124 120.299 120.449 120.609 120.734 120.839 120.926 121.011 121.069 121.089 121.066 121.026 120.964 120.889 120.809 120.729 120.631 120.556 120.491 120.426 120.376 120.316 120.419 120.356 120.261 120.724 121.601 121.164 120.231 120.474 120.986 120.989 120.849 120.391 120.256 120.226 120.359 120.806 120.791 120.674 120.676 120.724 120.764 120.831 120.906 120.914 120.936 120.989 121.034 121.081 121.129 121.224 121.291 121.359 121.431 121.514 121.634 121.704 121.781 121.889 121.986 122.114 122.266 122.564 123.101 122.441 122.341 122.486 123.909 124.126 122.919 122.926 123.169 123.386 123.539 123.661 123.831 123.989 124.116 124.294 124.416 124.564 124.719 124.861 125.056 125.196 125.394 125.566 125.746 125.929 126.094 126.286 126.446 126.621 126.786 126.939 127.104 127.279 127.449 127.611 127.751 127.889 128.021 128.184 128.339 128.479 128.609 128.739 128.884 129.001 129.123 129.268 129.418 129.566 129.711 129.871 130.028 130.188 130.358 130.518 130.676 130.838 131.003 131.138 131.263 131.403 131.531 131.648 131.741 131.861 131.966 132.081 132.178 132.298 132.408 132.533 132.646 132.761 132.886 133.018 133.118 133.223 133.346 133.451 133.548 133.698 133.768 133.866 133.981 134.111 134.208 134.293 134.388 134.476 134.556 134.631 134.706 134.773 134.826
74.682 76.974 75.539 76.644 75.027 80.039 81.974 78.214 75.119 78.692 75.147 75.054 74.337 74.314 74.444 74.582 74.712 74.774 74.817 74.914 75.009 75.149 75.249 75.389 75.522 75.654 75.812 75.979 76.199 76.379 76.599 76.797 77.007 77.222 77.429 77.664 77.884 78.142 78.402 78.652 78.879 79.119 79.377 79.644 79.869 80.114 80.354 80.589 80.839 81.077 81.329 81.564 81.824 82.084 82.337 82.607 82.874 83.137 83.407 83.657 83.902 84.154 84.287 84.489 84.654 84.824 84.987 85.169 85.284 85.419 85.477 85.567 85.689 85.824 85.944 86.102 86.219 86.374 86.517 86.677 86.854 87.054 87.267 87.179 87.441 87.659 87.884 88.016 88.194 88.351 88.471 88.629 88.794 88.959 89.111 89.276 89.404 89.541 89.696 89.894 90.036 90.204 90.394 90.579 90.791 90.991 91.206 91.439 91.649 91.881 92.149 92.406 92.671 92.941 93.274 93.586 93.906 94.234 94.591 94.904 95.236 95.516 95.784 96.026 96.264 96.469 96.651 96.799 96.961 97.129 97.294 97.426 97.604 97.756 97.946 98.129 98.281 98.456 98.634 98.794 98.976 99.179 99.376 99.541 99.716 99.904 100.094 100.279 100.449 100.626 100.814 100.991 101.166 101.371 101.539 101.721 101.921 102.096 102.294 102.456 102.631 102.839 103.006 103.194 103.384 103.554 103.744 103.936 104.136 104.371 104.564 104.779 105.016 105.211 105.464 105.634 105.881 106.111 106.314 106.549 106.784 107.034 107.329 107.726 107.926 108.066 108.396 108.744 109.104 109.534 109.991 110.446 110.886 111.304 111.686 112.064 112.461 112.856 113.259 113.689 114.074 114.469 114.796 115.084 115.326 115.561 115.789 115.984 116.189 116.381 116.581 116.784 117.016 117.244 117.521 117.806 118.089 118.376 118.654 118.891 119.136 119.409 119.606 119.826 120.031 120.224 120.399 120.551 120.669 120.796 120.906 121.001 121.076 121.124 121.146 121.116 121.069 121.024 120.961 120.899 120.809 120.731 120.674 120.586 120.516 120.469 120.439 120.539 120.754 120.431 120.329 120.914 120.246 120.791 121.309 121.186 120.546 120.351 120.294 120.354 120.741 120.901 120.736 120.694 120.741 120.786 120.824 120.879 120.939 120.951 120.994 121.019 121.094 121.141 121.176 121.264 121.344 121.419 121.491 121.584 121.649 121.719 121.824 121.901 122.006 122.074 122.184 122.341 122.476 122.864 123.021 122.594 122.551 122.814 124.361 124.109 122.946 123.151 123.384 123.581 123.729 123.869 124.029 124.189 124.324 124.471 124.604 124.766 124.921 125.069 125.261 125.419 125.619 125.766 125.959 126.131 126.321 126.506 126.681 126.841 126.999 127.154 127.341 127.494 127.631 127.781 127.924 128.081 128.231 128.364 128.506 128.656 128.791 128.901 129.041 129.156 129.288 129.423 129.578 129.716 129.886 130.036 130.193 130.361 130.523 130.658 130.813 130.973 131.101 131.251 131.381 131.486 131.596 131.718 131.831 131.953 132.063 132.161 132.253 132.398 132.493 132.598 132.748 132.861 132.978 133.086 133.198 133.306 133.418 133.518 133.633 133.733 133.861 133.963 134.058 134.166 134.258 134.358 134.443 134.531 134.621 134.691 134.763 134.816
75.617 76.239 75.207 74.992 74.379 76.297 77.819 75.022 76.272 74.632 74.394 74.249 74.329 74.679 74.444 74.594 74.662 74.714 74.829 74.929 75.039 75.169 75.304 75.412 75.584 75.759 75.922 76.124 76.327 76.499 76.702 76.932 77.119 77.344 77.587 77.787 78.017 78.284 78.529 78.754 79.007 79.239 79.499 79.759 80.022 80.267 80.494 80.754 81.009 81.239 81.489 81.734 81.989 82.217 82.479 82.747 83.027 83.317 83.577 83.844 84.137 84.347 84.564 84.717 84.904 85.067 85.252 85.402 85.527 85.629 85.714 85.847 85.967 86.094 86.229 86.344 86.479 86.594 86.752 86.887 87.074 87.262 87.462 87.542 87.566 87.874 88.079 88.264 88.416 88.564 88.706 88.884 89.024 89.189 89.321 89.486 89.634 89.751 89.936 90.071 90.259 90.429 90.601 90.809 91.014 91.194 91.406 91.629 91.836 92.084 92.304 92.584 92.861 93.136 93.449 93.759 94.084 94.389 94.709 95.031 95.326 95.614 95.886 96.116 96.329 96.544 96.711 96.869 97.034 97.191 97.354 97.534 97.671 97.839 98.041 98.216 98.399 98.569 98.716 98.901 99.066 99.264 99.426 99.634 99.819 99.999 100.184 100.356 100.539 100.706 100.886 101.079 101.259 101.456 101.611 101.819 101.999 102.184 102.364 102.559 102.741 102.924 103.104 103.294 103.461 103.641 103.854 104.021 104.216 104.439 104.634 104.876 105.109 105.329 105.561 105.781 106.011 106.244 106.471 106.701 106.939 107.181 107.466 108.336 108.699 108.311 108.564 108.924 109.319 109.751 110.201 110.619 111.066 111.466 111.834 112.214 112.581 112.966 113.376 113.769 114.184 114.531 114.854 115.111 115.351 115.586 115.786 115.991 116.199 116.396 116.586 116.811 117.054 117.316 117.581 117.854 118.171 118.429 118.711 118.956 119.239 119.461 119.691 119.904 120.121 120.286 120.444 120.601 120.729 120.844 120.954 121.034 121.101 121.134 121.166 121.136 121.109 121.064 121.009 120.944 120.871 120.799 120.736 120.669 120.614 120.581 120.614 120.559 120.841 121.046 120.469 120.504 121.084 121.649 121.191 120.619 120.401 120.414 120.536 121.134 120.939 120.736 120.784 120.816 120.871 120.896 120.934 120.961 121.006 121.019 121.064 121.119 121.179 121.224 121.294 121.386 121.429 121.521 121.614 121.701 121.769 121.844 121.926 122.031 122.099 122.201 122.299 122.381 122.524 122.646 123.131 123.211 122.756 122.746 123.271 124.819 124.051 123.221 123.396 123.614 123.771 123.911 124.066 124.226 124.391 124.521 124.681 124.809 124.969 125.126 125.304 125.464 125.634 125.816 125.991 126.184 126.341 126.514 126.704 126.886 127.039 127.214 127.381 127.534 127.696 127.824 127.969 128.126 128.266 128.394 128.526 128.649 128.804 128.921 129.043 129.193 129.321 129.438 129.576 129.718 129.876 130.038 130.196 130.343 130.506 130.661 130.813 130.948 131.083 131.203 131.353 131.476 131.581 131.683 131.801 131.893 132.011 132.131 132.243 132.343 132.468 132.606 132.691 132.833 132.946 133.063 133.161 133.268 133.386 133.491 133.608 133.711 133.823 133.931 134.021 134.123 134.223 134.318 134.416 134.498 134.583 134.661 134.738 134.781
75.312 75.659 75.897 75.207 75.814 74.582 74.422 74.204 74.209 74.347 74.407 74.202 74.587 74.299 74.489 74.567 74.629 74.729 74.812 74.954 75.089 75.199 75.327 75.487 75.674 75.869 76.067 76.232 76.427 76.609 76.822 77.032 77.252 77.479 77.689 77.929 78.142 78.377 78.632 78.882 79.104 79.362 79.612 79.859 80.114 80.367 80.609 80.877 81.117 81.357 81.602 81.859 82.107 82.377 82.627 82.909 83.202 83.494 83.772 84.037 84.322 84.564 84.802 84.962 85.127 85.292 85.444 85.602 85.752 85.839 85.994 86.144 86.249 86.372 86.477 86.592 86.697 86.807 86.952 87.107 87.274 87.469 87.624 87.787 87.744 88.026 88.271 88.461 88.654 88.796 88.959 89.094 89.249 89.406 89.556 89.699 89.844 90.006 90.144 90.296 90.459 90.639 90.801 91.011 91.219 91.401 91.626 91.829 92.051 92.299 92.531 92.786 93.064 93.354 93.634 93.956 94.251 94.561 94.869 95.161 95.441 95.736 95.969 96.191 96.409 96.596 96.784 96.934 97.106 97.256 97.421 97.596 97.766 97.944 98.109 98.296 98.504 98.666 98.834 98.974 99.149 99.351 99.541 99.721 99.906 100.079 100.261 100.446 100.629 100.806 100.966 101.149 101.346 101.529 101.706 101.884 102.071 102.299 102.456 102.636 102.821 103.019 103.196 103.384 103.526 103.756 103.944 104.129 104.326 104.511 104.759 104.969 105.189 105.441 105.669 105.921 106.129 106.374 106.614 106.876 107.096 107.361 107.621 108.091 109.076 108.926 108.749 109.131 109.534 109.976 110.371 110.789 111.191 111.569 111.919 112.309 112.659 113.074 113.451 113.824 114.226 114.581 114.866 115.126 115.351 115.591 115.779 115.984 116.194 116.404 116.611 116.849 117.106 117.364 117.631 117.934 118.224 118.519 118.774 119.031 119.289 119.536 119.769 119.986 120.189 120.346 120.526 120.669 120.796 120.896 120.986 121.056 121.121 121.146 121.161 121.136 121.129 121.119 121.051 120.999 120.924 120.846 120.796 120.749 120.679 120.674 120.674 120.611 120.721 121.379 121.514 121.684 121.709 121.006 120.584 120.451 120.521 120.974 121.299 120.896 120.839 120.861 120.891 120.956 120.994 120.981 121.014 121.046 121.076 121.114 121.161 121.221 121.276 121.351 121.391 121.481 121.536 121.626 121.714 121.786 121.879 121.959 122.024 122.099 122.189 122.311 122.389 122.466 122.589 122.721 122.879 123.339 123.211 122.881 122.929 123.769 125.081 123.754 123.401 123.614 123.814 123.976 124.121 124.264 124.421 124.561 124.716 124.876 124.994 125.164 125.336 125.491 125.669 125.839 126.001 126.186 126.366 126.566 126.741 126.921 127.101 127.251 127.411 127.586 127.746 127.884 128.006 128.149 128.296 128.394 128.539 128.674 128.804 128.926 129.056 129.191 129.333 129.473 129.606 129.736 129.898 130.043 130.198 130.338 130.506 130.653 130.796 130.926 131.078 131.196 131.301 131.438 131.561 131.663 131.771 131.881 131.996 132.096 132.206 132.308 132.431 132.571 132.651 132.781 132.906 133.016 133.138 133.246 133.346 133.463 133.573 133.683 133.781 133.898 133.988 134.078 134.193 134.278 134.371 134.481 134.536 134.611 134.703 134.768
75.132 74.744 74.829 74.852 74.359 74.259 74.099 74.124 74.072 74.239 74.757 74.187 74.267 74.397 74.474 74.544 74.624 74.737 74.849 74.992 75.117 75.242 75.374 75.582 75.774 75.957 76.182 76.339 76.519 76.704 76.942 77.149 77.349 77.579 77.789 78.017 78.254 78.502 78.727 78.974 79.192 79.452 79.684 79.942 80.184 80.434 80.709 80.944 81.199 81.452 81.724 81.972 82.227 82.532 82.809 83.082 83.352 83.657 83.972 84.252 84.517 84.807 85.024 85.194 85.342 85.532 85.684 85.852 85.987 86.117 86.254 86.372 86.494 86.594 86.712 86.814 86.924 87.049 87.177 87.319 87.502 87.662 87.832 88.019 88.046 88.194 88.471 88.686 88.871 89.039 89.191 89.321 89.481 89.646 89.781 89.929 90.096 90.236 90.386 90.521 90.699 90.854 91.036 91.231 91.426 91.634 91.841 92.069 92.294 92.506 92.754 92.996 93.304 93.594 93.851 94.144 94.431 94.741 95.049 95.316 95.559 95.839 96.081 96.266 96.479 96.666 96.846 97.009 97.186 97.329 97.521 97.681 97.864 98.029 98.209 98.384 98.574 98.771 98.931 99.084 99.259 99.429 99.626 99.796 100.001 100.184 100.356 100.521 100.711 100.889 101.071 101.271 101.434 101.614 101.789 101.991 102.174 102.351 102.546 102.746 102.916 103.114 103.299 103.484 103.649 103.864 104.021 104.236 104.431 104.649 104.864 105.049 105.289 105.531 105.781 106.049 106.294 106.531 106.776 107.016 107.249 107.526 107.776 108.066 108.569 108.819 108.974 109.321 109.734 110.139 110.509 110.924 111.294 111.631 111.984 112.356 112.721 113.101 113.496 113.861 114.216 114.579 114.876 115.129 115.351 115.561 115.764 115.984 116.171 116.389 116.636 116.871 117.131 117.409 117.709 117.994 118.286 118.531 118.819 119.096 119.339 119.589 119.834 120.051 120.206 120.396 120.569 120.714 120.826 120.949 121.031 121.059 121.101 121.129 121.131 121.139 121.141 121.121 121.079 121.029 120.956 120.886 120.871 120.826 120.789 120.764 120.731 120.746 121.444 121.786 121.634 121.319 120.761 120.589 120.556 120.894 121.234 121.161 120.886 120.911 120.939 120.969 121.006 121.056 121.074 121.071 121.114 121.131 121.151 121.204 121.264 121.329 121.386 121.446 121.524 121.581 121.646 121.701 121.781 121.871 121.964 122.056 122.126 122.189 122.294 122.399 122.481 122.586 122.656 122.789 122.934 123.084 123.551 123.346 123.084 123.161 124.546 125.039 123.586 123.609 123.821 124.039 124.189 124.324 124.464 124.596 124.731 124.889 125.041 125.184 125.346 125.506 125.681 125.846 126.061 126.224 126.399 126.584 126.761 126.951 127.129 127.294 127.459 127.609 127.761 127.896 128.029 128.174 128.289 128.409 128.514 128.654 128.801 128.924 129.053 129.198 129.341 129.496 129.623 129.753 129.891 130.048 130.198 130.338 130.496 130.646 130.768 130.908 131.056 131.203 131.311 131.418 131.551 131.656 131.766 131.863 131.971 132.076 132.181 132.291 132.381 132.523 132.633 132.743 132.863 132.978 133.078 133.206 133.293 133.401 133.526 133.636 133.738 133.848 133.946 134.051 134.118 134.231 134.283 134.401 134.476 134.546 134.641 134.721
