ncols 427
nrows 31
xllcorner    251064
yllcorner    135118
cellsize     2
NODATA_value -9999
43.551 43.529 43.536 43.531 43.524 43.516 43.506 43.486 43.461 43.429 43.331 43.371 44.561 45.176 43.871 43.526 43.569 45.154 44.454 43.794 43.831 43.831 43.819 43.831 43.824 43.821 43.859 43.924 43.974 43.961 44.004 44.019 44.011 44.039 44.051 44.079 44.101 44.101 44.126 44.161 44.196 44.249 44.271 44.261 44.299 44.241 44.364 44.426 44.479 44.449 44.454 44.514 44.521 44.554 44.574 44.606 44.646 44.656 44.736 44.809 44.866 44.924 44.994 45.014 45.069 45.139 45.126 45.181 45.171 45.239 45.271 45.321 45.361 45.399 45.414 45.431 45.486 45.544 45.559 45.644 45.689 45.744 45.786 45.876 45.936 46.009 46.109 46.179 46.259 46.339 46.394 46.431 46.519 46.586 46.624 46.651 46.689 46.726 46.776 46.766 46.814 46.874 46.874 46.876 46.919 46.931 46.951 47.001 47.014 47.049 47.089 47.104 47.119 47.139 47.154 47.194 47.236 47.266 47.269 47.281 47.319 47.359 47.366 47.394 47.459 47.469 47.546 47.591 47.576 47.594 47.609 47.629 47.639 47.661 47.681 47.671 47.681 47.721 47.781 47.809 47.879 47.931 47.954 48.046 48.059 48.096 48.111 48.176 48.199 48.191 48.239 48.249 48.276 48.294 48.296 48.314 48.336 48.361 48.424 48.466 48.501 48.579 48.586 48.596 48.624 48.664 48.709 48.709 48.716 48.729 48.776 48.794 48.841 48.869 48.874 48.884 48.904 48.959 48.951 48.994 48.986 49.036 49.066 49.101 49.089 49.126 49.149 49.141 49.209 49.211 49.234 49.271 49.281 49.269 49.306 49.324 49.321 49.326 49.331 49.374 49.431 49.446 49.469 49.489 49.499 49.574 49.616 49.654 49.684 49.674 49.656 49.699 49.704 49.689 49.684 49.699 49.764 49.784 49.794 49.787 49.787 49.822 49.912 49.914 49.917 49.939 49.942 49.934 49.972 50.022 50.034 50.104 50.152 50.199 50.232 50.272 50.312 50.362 50.417 50.459 50.504 50.532 50.547 50.572 50.599 50.644 50.674 50.662 50.667 50.589 52.124 53.419 52.522 50.867 50.882 50.862 50.882 50.872 50.887 50.909 50.919 50.927 50.967 50.972 50.964 50.984 50.959 50.972 50.964 50.997 50.984 50.972 50.964 50.969 50.977 50.939 50.919 50.942 50.902 50.914 50.907 50.924 50.909 50.947 50.927 50.944 50.939 50.929 50.859 50.829 50.839 50.834 50.804 50.759 50.734 50.724 50.702 50.692 50.669 50.687 50.674 50.714 50.714 50.702 50.704 50.679 50.724 50.669 50.647 50.649 50.669 50.672 50.667 50.669 50.684 50.697 50.707 50.722 50.712 50.727 50.712 50.724 50.729 50.747 50.754 50.754 50.744 50.769 50.787 50.809 50.824 50.857 50.859 50.939 50.959 51.004 50.974 51.007 51.047 51.047 51.079 51.109 51.132 51.152 51.139 51.187 51.172 51.192 51.207 51.204 51.199 51.212 51.239 51.242 51.229 51.242 51.247 51.269 51.287 51.317 51.294 51.319 51.357 51.347 51.367 51.374 51.402 51.444 51.457 51.489 51.522 51.554 51.577 51.657 51.697 51.747 51.782 51.852 51.907 51.924 51.959 52.027 52.077 52.094 52.137 52.207 52.252 52.304 52.379 52.422 52.439 52.459 52.447 52.447 52.444 52.462 52.472 52.484 52.737 53.339 53.989 54.239 54.252 54.129 53.812 53.464 53.587 53.424 53.307 54.344 56.272 55.519 55.249 53.359 55.102 54.994 53.847 54.287 53.842 54.117 55.569 55.294 54.639 55.957 54.277 55.464 54.014
43.199 43.204 43.181 43.171 43.179 43.209 43.146 43.156 43.119 43.074 43.021 42.966 43.826 44.894 43.466 43.241 43.086 44.739 44.076 43.439 43.456 43.484 43.444 43.419 43.464 43.471 43.514 43.559 43.601 43.621 43.646 43.661 43.664 43.681 43.699 43.711 43.716 43.726 43.816 43.834 43.859 43.846 43.861 43.881 43.939 43.911 43.959 44.041 44.061 44.064 44.076 44.154 44.164 44.174 44.196 44.251 44.296 44.331 44.344 44.426 44.456 44.514 44.621 44.659 44.666 44.746 44.774 44.809 44.814 44.876 44.889 44.941 44.949 44.971 45.016 45.039 45.066 45.096 45.131 45.209 45.269 45.321 45.391 45.431 45.529 45.594 45.676 45.746 45.834 45.934 45.989 46.041 46.106 46.146 46.239 46.269 46.299 46.354 46.376 46.381 46.441 46.441 46.479 46.504 46.524 46.566 46.606 46.601 46.606 46.654 46.684 46.704 46.721 46.741 46.746 46.784 46.811 46.864 46.869 46.886 46.896 46.911 46.929 46.964 46.996 47.064 47.114 47.146 47.149 47.159 47.191 47.209 47.224 47.211 47.254 47.256 47.251 47.311 47.381 47.391 47.429 47.516 47.534 47.584 47.649 47.679 47.689 47.736 47.771 47.764 47.809 47.836 47.899 47.916 47.886 47.909 47.919 47.991 48.029 48.084 48.139 48.179 48.214 48.204 48.271 48.254 48.294 48.326 48.326 48.349 48.396 48.411 48.466 48.484 48.491 48.521 48.521 48.571 48.589 48.626 48.644 48.671 48.694 48.709 48.741 48.786 48.766 48.779 48.789 48.829 48.894 48.901 48.904 48.934 48.956 48.961 48.981 48.969 48.981 49.001 49.039 49.079 49.091 49.129 49.144 49.211 49.244 49.271 49.299 49.286 49.309 49.354 49.356 49.351 49.374 49.379 49.391 49.414 49.454 49.467 49.414 49.482 49.519 49.547 49.562 49.569 49.584 49.602 49.589 49.619 49.667 49.747 49.787 49.779 49.839 49.877 49.904 49.967 50.007 50.057 50.074 50.132 50.159 50.172 50.199 50.232 50.262 50.267 50.242 50.177 51.487 53.179 51.962 50.502 50.509 50.487 50.512 50.502 50.504 50.492 50.524 50.512 50.542 50.559 50.562 50.589 50.552 50.567 50.539 50.567 50.554 50.569 50.557 50.552 50.534 50.537 50.537 50.519 50.514 50.517 50.497 50.479 50.494 50.514 50.499 50.487 50.492 50.484 50.444 50.417 50.389 50.364 50.364 50.374 50.344 50.312 50.322 50.314 50.309 50.312 50.314 50.302 50.327 50.362 50.347 50.364 50.337 50.342 50.319 50.274 50.242 50.234 50.279 50.292 50.269 50.259 50.287 50.269 50.264 50.297 50.317 50.309 50.314 50.352 50.329 50.359 50.327 50.347 50.362 50.382 50.404 50.387 50.419 50.449 50.517 50.504 50.529 50.537 50.539 50.574 50.584 50.619 50.629 50.664 50.692 50.692 50.709 50.727 50.729 50.739 50.729 50.749 50.749 50.724 50.752 50.734 50.764 50.787 50.844 50.837 50.852 50.892 50.904 50.914 50.944 50.987 51.024 51.029 51.067 51.129 51.114 51.152 51.179 51.232 51.264 51.329 51.357 51.412 51.467 51.527 51.569 51.632 51.682 51.724 51.759 51.822 51.829 51.887 51.979 52.022 52.087 52.119 52.142 52.139 52.159 52.147 52.152 52.134 52.117 52.139 52.242 52.764 53.367 53.677 53.504 53.084 53.002 52.797 52.679 52.657 52.897 53.009 52.782 52.847 52.857 52.897 52.947 53.014 53.022 53.069 53.109 53.179 53.279 53.369 53.432 53.502 53.549
42.854 42.879 42.851 42.834 42.879 42.856 42.814 42.784 42.774 42.746 42.694 42.699 42.919 43.619 43.134 42.986 42.826 44.304 43.774 43.074 43.089 43.106 43.066 43.096 43.089 43.131 43.156 43.179 43.224 43.249 43.316 43.339 43.306 43.304 43.346 43.324 43.379 43.381 43.446 43.466 43.446 43.499 43.541 43.551 43.591 43.544 43.586 43.689 43.671 43.714 43.729 43.811 43.789 43.821 43.841 43.846 43.921 43.951 43.949 44.034 44.094 44.224 44.224 44.274 44.319 44.369 44.381 44.424 44.486 44.461 44.484 44.521 44.536 44.564 44.584 44.656 44.629 44.674 44.724 44.786 44.839 44.906 44.959 45.034 45.084 45.194 45.251 45.311 45.384 45.509 45.571 45.631 45.689 45.789 45.834 45.871 45.874 45.939 45.966 45.956 46.034 46.064 46.071 46.109 46.141 46.121 46.181 46.189 46.224 46.234 46.314 46.289 46.301 46.329 46.336 46.346 46.396 46.411 46.424 46.466 46.511 46.521 46.511 46.506 46.584 46.621 46.669 46.711 46.729 46.729 46.754 46.771 46.756 46.761 46.784 46.796 46.831 46.884 46.956 46.966 47.016 47.066 47.104 47.149 47.204 47.254 47.256 47.301 47.354 47.349 47.416 47.421 47.461 47.511 47.524 47.534 47.554 47.571 47.626 47.666 47.726 47.784 47.799 47.824 47.866 47.871 47.899 47.906 47.919 47.974 47.991 48.026 48.071 48.106 48.126 48.159 48.149 48.211 48.219 48.244 48.259 48.276 48.316 48.359 48.354 48.374 48.379 48.411 48.429 48.416 48.466 48.489 48.461 48.489 48.564 48.599 48.596 48.609 48.614 48.621 48.681 48.694 48.714 48.751 48.796 48.831 48.861 48.884 48.926 48.926 48.944 48.921 48.991 48.991 49.001 49.021 49.039 49.074 49.082 49.087 49.067 49.077 49.119 49.157 49.182 49.187 49.207 49.209 49.232 49.262 49.304 49.357 49.382 49.417 49.457 49.449 49.557 49.594 49.579 49.654 49.677 49.704 49.744 49.769 49.797 49.852 49.862 49.854 49.854 49.807 50.434 52.242 51.329 50.064 50.097 50.089 50.087 50.089 50.072 50.114 50.134 50.139 50.144 50.167 50.179 50.184 50.144 50.169 50.154 50.147 50.157 50.157 50.139 50.159 50.139 50.137 50.162 50.117 50.112 50.084 50.077 50.072 50.079 50.074 50.072 50.062 50.064 50.047 50.024 50.009 49.999 49.977 49.924 49.914 49.892 49.874 49.894 49.879 49.887 49.897 49.859 49.914 49.882 49.907 49.912 49.912 49.947 49.929 49.872 49.857 49.829 49.824 49.832 49.849 49.812 49.847 49.837 49.844 49.847 49.864 49.844 49.857 49.884 49.864 49.844 49.869 49.859 49.847 49.859 49.904 49.919 49.932 49.914 49.919 49.949 49.994 50.034 50.024 50.057 50.027 50.024 50.099 50.074 50.132 50.189 50.142 50.189 50.167 50.199 50.217 50.237 50.269 50.267 50.259 50.324 50.307 50.327 50.319 50.364 50.379 50.382 50.424 50.467 50.474 50.477 50.559 50.529 50.617 50.654 50.677 50.682 50.744 50.779 50.854 50.884 50.914 50.964 50.987 51.039 51.107 51.172 51.209 51.264 51.309 51.357 51.404 51.452 51.524 51.609 51.649 51.669 51.734 51.777 51.757 51.782 51.814 51.829 51.772 51.739 51.722 51.804 51.932 52.024 52.179 52.307 52.379 52.369 52.342 52.259 52.207 52.204 52.267 52.327 52.389 52.422 52.482 52.527 52.619 52.664 52.709 52.737 52.779 52.844 52.914 52.982 53.027 53.097
42.539 42.541 42.546 42.511 42.529 42.509 42.501 42.529 42.459 42.414 42.364 42.429 42.581 42.821 42.829 42.756 42.591 43.766 43.564 42.726 42.739 42.751 42.731 42.746 42.766 42.761 42.811 42.829 42.904 42.889 42.946 42.954 42.966 42.979 43.006 43.014 43.036 43.039 43.086 43.114 43.119 43.159 43.169 43.211 43.256 43.191 43.294 43.314 43.321 43.354 43.369 43.424 43.439 43.476 43.466 43.514 43.546 43.596 43.626 43.681 43.661 43.796 43.856 43.889 43.919 43.974 44.016 44.049 44.096 44.091 44.094 44.116 44.169 44.144 44.216 44.246 44.276 44.289 44.304 44.386 44.421 44.501 44.531 44.546 44.631 44.721 44.796 44.911 44.964 45.064 45.184 45.221 45.279 45.364 45.406 45.459 45.454 45.531 45.581 45.581 45.604 45.669 45.684 45.696 45.724 45.744 45.746 45.776 45.806 45.864 45.864 45.856 45.901 45.904 45.934 45.959 45.959 45.989 45.999 46.046 46.071 46.064 46.091 46.124 46.131 46.166 46.224 46.291 46.304 46.314 46.319 46.311 46.331 46.351 46.376 46.374 46.366 46.431 46.486 46.551 46.576 46.639 46.679 46.731 46.766 46.804 46.814 46.856 46.899 46.919 46.999 47.009 47.049 47.096 47.124 47.139 47.176 47.174 47.234 47.296 47.351 47.386 47.384 47.451 47.441 47.461 47.486 47.536 47.569 47.596 47.606 47.621 47.714 47.729 47.716 47.769 47.806 47.824 47.846 47.866 47.869 47.949 47.959 47.956 47.966 47.999 47.979 48.031 48.011 48.044 48.041 48.071 48.116 48.139 48.149 48.194 48.199 48.196 48.236 48.269 48.296 48.349 48.359 48.384 48.411 48.454 48.481 48.521 48.519 48.541 48.586 48.576 48.599 48.609 48.614 48.621 48.671 48.644 48.679 48.689 48.684 48.717 48.754 48.777 48.807 48.789 48.822 48.839 48.854 48.869 48.924 48.964 48.994 49.032 49.084 49.112 49.139 49.167 49.204 49.229 49.284 49.317 49.352 49.392 49.382 49.419 49.444 49.444 49.462 49.359 50.624 52.157 53.432 50.487 49.679 49.692 49.662 49.689 49.682 49.689 49.697 49.697 49.712 49.717 49.742 49.714 49.699 49.694 49.682 49.679 49.677 49.699 49.704 49.684 49.682 49.682 49.672 49.654 49.627 49.634 49.624 49.607 49.592 49.617 49.619 49.592 49.594 49.582 49.567 49.542 49.507 49.519 49.489 49.472 49.457 49.467 49.464 49.437 49.429 49.434 49.437 49.424 49.414 49.447 49.479 49.474 49.479 49.492 49.424 49.404 49.402 49.372 49.399 49.384 49.354 49.374 49.397 49.377 49.384 49.379 49.377 49.387 49.382 49.372 49.379 49.387 49.407 49.399 49.412 49.402 49.419 49.449 49.414 49.434 49.487 49.497 49.517 49.497 49.529 49.532 49.547 49.559 49.592 49.614 49.622 49.629 49.647 49.662 49.672 49.707 49.712 49.762 49.767 49.774 49.787 49.819 49.844 49.887 49.907 49.937 49.942 49.972 49.992 50.032 50.064 50.132 50.132 50.194 50.247 50.264 50.289 50.304 50.347 50.417 50.422 50.459 50.527 50.567 50.639 50.704 50.772 50.834 50.882 50.879 50.902 50.979 51.042 51.097 51.164 51.187 51.222 51.262 51.322 51.314 51.374 51.387 51.422 51.422 51.454 51.487 51.542 51.627 51.772 51.872 51.987 52.054 52.049 51.979 51.899 51.844 51.819 51.874 51.957 51.967 52.012 52.099 52.139 52.214 52.244 52.287 52.347 52.394 52.449 52.532 52.584 52.674 52.737
42.244 42.214 42.176 42.139 42.164 42.181 42.164 42.211 42.186 42.146 42.111 42.121 42.354 42.886 42.601 42.519 42.314 43.351 43.406 42.394 42.394 42.384 42.434 42.379 42.379 42.419 42.459 42.484 42.564 42.576 42.579 42.589 42.586 42.639 42.644 42.656 42.699 42.716 42.721 42.751 42.759 42.796 42.824 42.844 42.879 42.864 42.876 42.964 42.964 43.009 43.089 43.076 43.106 43.114 43.126 43.156 43.199 43.221 43.251 43.311 43.344 43.369 43.496 43.491 43.544 43.589 43.651 43.651 43.696 43.674 43.749 43.719 43.771 43.796 43.814 43.836 43.849 43.851 43.889 43.941 43.986 44.044 44.104 44.166 44.244 44.324 44.411 44.476 44.571 44.674 44.759 44.811 44.919 44.959 44.999 45.026 45.066 45.096 45.146 45.164 45.204 45.249 45.269 45.286 45.331 45.319 45.376 45.404 45.399 45.446 45.474 45.464 45.491 45.509 45.524 45.531 45.526 45.574 45.604 45.606 45.656 45.646 45.686 45.714 45.769 45.781 45.811 45.874 45.889 45.851 45.881 45.899 45.889 45.899 45.941 45.949 45.964 46.026 46.024 46.094 46.161 46.221 46.234 46.286 46.331 46.354 46.386 46.454 46.489 46.504 46.559 46.611 46.641 46.664 46.711 46.726 46.754 46.804 46.874 46.909 46.951 46.969 47.006 47.039 47.021 47.094 47.114 47.139 47.186 47.196 47.239 47.269 47.306 47.314 47.331 47.404 47.404 47.436 47.484 47.529 47.524 47.546 47.564 47.581 47.619 47.624 47.624 47.601 47.626 47.661 47.659 47.701 47.726 47.756 47.761 47.776 47.829 47.821 47.866 47.881 47.934 47.969 47.999 48.009 48.069 48.106 48.089 48.124 48.159 48.166 48.189 48.199 48.206 48.196 48.211 48.229 48.244 48.259 48.304 48.287 48.252 48.327 48.352 48.377 48.422 48.429 48.397 48.444 48.454 48.479 48.532 48.567 48.612 48.624 48.682 48.694 48.722 48.727 48.819 48.829 48.842 48.889 48.929 48.947 48.949 48.997 49.012 49.002 49.012 48.972 49.189 51.119 50.894 49.577 49.232 49.239 49.254 49.217 49.224 49.239 49.242 49.259 49.259 49.257 49.247 49.224 49.239 49.182 49.207 49.214 49.217 49.204 49.187 49.194 49.179 49.184 49.182 49.174 49.162 49.134 49.132 49.109 49.132 49.137 49.129 49.094 49.107 49.104 49.082 49.042 49.047 49.042 49.047 49.039 49.012 49.007 48.999 48.974 48.964 48.944 48.924 48.979 48.967 49.012 49.027 49.024 49.029 48.994 48.992 48.982 48.947 48.934 48.924 48.954 48.922 48.929 48.934 48.937 48.907 48.912 48.919 48.924 48.927 48.944 48.932 48.927 48.954 48.914 48.932 48.952 48.997 48.964 48.967 48.967 48.982 48.987 49.022 49.057 49.077 49.059 49.052 49.082 49.092 49.084 49.144 49.144 49.142 49.162 49.174 49.189 49.227 49.224 49.259 49.312 49.334 49.359 49.362 49.422 49.449 49.477 49.492 49.557 49.584 49.627 49.672 49.719 49.747 49.784 49.822 49.854 49.867 49.907 49.937 49.984 50.007 50.052 50.102 50.154 50.217 50.312 50.332 50.379 50.432 50.474 50.522 50.564 50.644 50.659 50.694 50.759 50.814 50.847 50.867 50.912 50.957 51.004 51.019 51.049 51.139 51.182 51.152 51.134 51.217 51.414 51.639 52.129 52.424 51.784 51.559 51.502 51.517 51.544 51.602 51.614 51.679 51.744 51.802 51.839 51.912 51.989 52.012 52.077 52.124 52.177 52.247 52.279 52.282
41.899 41.851 41.849 41.839 41.849 41.841 41.836 41.856 41.849 41.839 41.804 41.781 42.059 43.414 42.519 42.269 42.059 43.081 43.396 42.061 42.041 42.061 42.064 42.046 42.019 42.059 42.086 42.114 42.191 42.189 42.259 42.256 42.264 42.281 42.274 42.281 42.304 42.359 42.356 42.384 42.416 42.444 42.469 42.514 42.521 42.504 42.554 42.619 42.639 42.666 42.676 42.691 42.741 42.784 42.794 42.839 42.859 42.894 42.921 42.939 42.996 43.059 43.079 43.134 43.191 43.201 43.251 43.289 43.306 43.341 43.354 43.334 43.341 43.376 43.389 43.411 43.424 43.486 43.489 43.536 43.581 43.626 43.699 43.774 43.829 43.914 43.991 44.044 44.144 44.224 44.314 44.404 44.486 44.544 44.569 44.649 44.671 44.671 44.714 44.756 44.801 44.851 44.871 44.904 44.936 44.946 44.969 45.009 45.019 45.044 45.074 45.071 45.064 45.094 45.099 45.094 45.109 45.144 45.164 45.179 45.226 45.224 45.264 45.311 45.349 45.384 45.416 45.434 45.424 45.404 45.461 45.491 45.454 45.464 45.491 45.501 45.516 45.586 45.604 45.664 45.701 45.799 45.799 45.859 45.921 45.936 45.946 46.039 46.089 46.091 46.144 46.214 46.221 46.286 46.301 46.321 46.376 46.361 46.446 46.491 46.571 46.604 46.616 46.639 46.689 46.706 46.716 46.726 46.756 46.814 46.834 46.864 46.921 46.956 46.951 47.004 47.039 47.069 47.119 47.129 47.139 47.179 47.186 47.191 47.194 47.174 47.224 47.261 47.291 47.286 47.271 47.306 47.296 47.336 47.359 47.371 47.404 47.411 47.429 47.466 47.536 47.544 47.579 47.611 47.654 47.691 47.706 47.726 47.774 47.779 47.816 47.809 47.824 47.796 47.826 47.821 47.841 47.871 47.859 47.874 47.844 47.897 47.942 47.974 47.992 47.987 47.994 48.012 48.012 48.044 48.097 48.127 48.187 48.234 48.272 48.259 48.314 48.312 48.344 48.397 48.449 48.492 48.499 48.517 48.549 48.602 48.602 48.607 48.599 48.544 49.109 51.037 49.604 49.432 48.769 48.792 48.787 48.772 48.749 48.782 48.774 48.769 48.777 48.774 48.769 48.782 48.772 48.732 48.727 48.732 48.737 48.709 48.722 48.719 48.714 48.707 48.719 48.742 48.677 48.684 48.684 48.637 48.637 48.652 48.632 48.637 48.627 48.619 48.627 48.617 48.614 48.624 48.629 48.574 48.562 48.542 48.479 48.497 48.497 48.502 48.514 48.522 48.542 48.547 48.554 48.579 48.549 48.582 48.564 48.547 48.529 48.482 48.512 48.502 48.477 48.484 48.472 48.469 48.459 48.449 48.464 48.462 48.482 48.472 48.477 48.472 48.487 48.482 48.484 48.502 48.484 48.504 48.499 48.529 48.512 48.512 48.529 48.554 48.544 48.547 48.587 48.597 48.602 48.602 48.607 48.637 48.637 48.619 48.664 48.692 48.729 48.769 48.764 48.789 48.829 48.859 48.909 48.959 49.002 49.022 49.049 49.087 49.152 49.162 49.199 49.244 49.304 49.324 49.382 49.412 49.452 49.494 49.527 49.562 49.587 49.647 49.707 49.779 49.814 49.882 49.934 49.999 50.022 50.052 50.119 50.169 50.202 50.244 50.319 50.344 50.379 50.427 50.437 50.494 50.527 50.577 50.587 50.617 50.644 50.652 50.634 50.694 50.764 50.809 50.834 51.272 52.139 51.397 51.172 51.154 51.182 51.212 51.242 51.242 51.267 51.339 51.402 51.457 51.504 51.579 51.609 51.642 51.687 51.754 51.799 51.874 51.894
41.599 41.589 41.551 41.521 41.546 41.504 41.509 41.551 41.554 41.519 41.486 41.409 41.934 43.306 42.409 41.991 41.796 42.526 43.164 41.736 41.699 41.699 41.706 41.731 41.709 41.729 41.764 41.789 41.886 41.876 41.909 41.921 41.914 41.911 41.956 41.941 41.956 42.029 42.004 42.061 42.101 42.074 42.126 42.139 42.174 42.176 42.204 42.269 42.269 42.309 42.321 42.346 42.419 42.401 42.426 42.479 42.499 42.544 42.549 42.586 42.621 42.676 42.734 42.781 42.784 42.849 42.869 42.879 42.914 42.931 42.946 43.006 42.971 43.004 42.991 43.036 43.031 43.059 43.099 43.119 43.176 43.216 43.271 43.369 43.429 43.491 43.556 43.639 43.679 43.779 43.879 43.924 44.016 44.126 44.166 44.219 44.229 44.251 44.324 44.351 44.374 44.434 44.451 44.486 44.526 44.529 44.574 44.591 44.591 44.619 44.659 44.639 44.644 44.664 44.699 44.686 44.696 44.724 44.724 44.741 44.771 44.799 44.819 44.831 44.886 44.934 44.981 45.014 45.066 45.044 45.011 45.041 45.036 45.054 45.051 45.064 45.066 45.131 45.176 45.244 45.311 45.344 45.371 45.449 45.519 45.524 45.534 45.586 45.634 45.661 45.704 45.771 45.809 45.856 45.879 45.901 45.946 45.971 46.029 46.071 46.144 46.194 46.216 46.264 46.291 46.309 46.344 46.336 46.389 46.424 46.461 46.489 46.536 46.581 46.564 46.614 46.674 46.704 46.731 46.766 46.794 46.791 46.794 46.789 46.851 46.856 46.856 46.869 46.891 46.906 46.916 46.924 46.949 46.961 46.986 47.026 47.006 47.034 47.026 47.066 47.039 47.116 47.171 47.199 47.231 47.251 47.324 47.306 47.339 47.376 47.374 47.391 47.404 47.424 47.414 47.441 47.474 47.474 47.487 47.499 47.444 47.502 47.544 47.537 47.564 47.587 47.587 47.602 47.594 47.652 47.667 47.712 47.739 47.809 47.849 47.832 47.842 47.904 47.909 47.967 48.002 48.024 48.067 48.107 48.087 48.142 48.144 48.187 48.152 48.057 48.402 49.794 48.707 48.329 48.347 48.329 48.317 48.327 48.304 48.307 48.302 48.289 48.292 48.317 48.299 48.289 48.269 48.267 48.282 48.264 48.247 48.249 48.267 48.239 48.277 48.267 48.239 48.242 48.199 48.199 48.197 48.184 48.179 48.177 48.144 48.164 48.179 48.142 48.142 48.147 48.139 48.124 48.117 48.094 48.094 48.067 48.009 48.027 48.029 48.014 48.049 48.019 48.049 48.064 48.084 48.094 48.102 48.084 48.089 48.069 48.069 48.027 47.999 48.002 48.004 48.019 48.012 47.987 47.992 48.032 47.997 48.039 48.007 48.012 48.027 48.039 48.024 48.017 48.029 48.042 48.057 48.059 48.037 48.022 48.047 48.064 48.089 48.097 48.064 48.087 48.094 48.089 48.117 48.119 48.122 48.132 48.119 48.104 48.124 48.184 48.232 48.252 48.267 48.319 48.342 48.379 48.397 48.454 48.512 48.534 48.582 48.614 48.679 48.717 48.762 48.799 48.847 48.877 48.922 48.967 49.027 49.039 49.069 49.089 49.159 49.199 49.252 49.294 49.347 49.454 49.462 49.552 49.569 49.624 49.644 49.694 49.729 49.774 49.824 49.844 49.897 49.942 49.952 49.974 50.057 50.074 50.124 50.142 50.154 50.192 50.242 50.222 50.237 50.334 50.367 50.634 51.619 51.172 50.799 50.767 50.754 50.807 50.827 50.839 50.847 50.907 50.949 50.999 51.094 51.142 51.197 51.192 51.229 51.274 51.364 51.424 51.449
41.314 41.271 41.279 41.269 41.231 41.246 41.259 41.249 41.204 41.221 41.151 41.074 41.719 43.014 42.141 41.699 41.521 42.171 42.836 41.511 41.394 41.356 41.404 41.394 41.366 41.384 41.419 41.494 41.529 41.539 41.579 41.589 41.571 41.616 41.599 41.621 41.649 41.661 41.686 41.719 41.754 41.736 41.776 41.811 41.849 41.824 41.854 41.921 41.976 41.986 42.024 42.046 42.031 42.066 42.106 42.131 42.144 42.159 42.214 42.209 42.246 42.369 42.404 42.434 42.434 42.491 42.529 42.536 42.536 42.579 42.566 42.626 42.604 42.616 42.634 42.639 42.669 42.674 42.724 42.749 42.804 42.829 42.879 42.939 43.014 43.099 43.169 43.236 43.296 43.381 43.454 43.541 43.594 43.676 43.741 43.774 43.809 43.859 43.874 43.949 43.986 44.031 44.039 44.084 44.109 44.139 44.181 44.174 44.174 44.189 44.244 44.244 44.261 44.266 44.259 44.256 44.286 44.301 44.306 44.319 44.354 44.386 44.401 44.431 44.476 44.519 44.556 44.604 44.599 44.616 44.629 44.636 44.651 44.641 44.621 44.639 44.669 44.701 44.756 44.821 44.841 44.946 44.981 44.994 45.064 45.101 45.126 45.179 45.249 45.281 45.299 45.371 45.399 45.449 45.486 45.511 45.551 45.601 45.634 45.691 45.716 45.769 45.814 45.849 45.909 45.936 45.954 45.969 46.004 46.026 46.074 46.096 46.156 46.154 46.199 46.241 46.304 46.349 46.364 46.366 46.376 46.379 46.436 46.431 46.439 46.466 46.464 46.481 46.519 46.524 46.549 46.554 46.546 46.551 46.619 46.636 46.634 46.626 46.664 46.651 46.706 46.734 46.749 46.794 46.826 46.861 46.906 46.899 46.924 46.924 46.984 46.964 46.994 46.981 46.984 47.011 47.034 47.046 47.052 47.092 47.029 47.067 47.127 47.137 47.154 47.167 47.184 47.192 47.209 47.224 47.274 47.267 47.322 47.369 47.394 47.414 47.407 47.437 47.462 47.517 47.547 47.562 47.587 47.629 47.617 47.652 47.684 47.697 47.682 47.564 48.107 49.189 48.449 47.782 47.887 47.854 47.867 47.842 47.864 47.829 47.817 47.784 47.809 47.814 47.829 47.812 47.794 47.764 47.769 47.769 47.799 47.754 47.794 47.774 47.777 47.794 47.779 47.752 47.739 47.739 47.712 47.722 47.682 47.674 47.679 47.679 47.659 47.679 47.632 47.644 47.649 47.642 47.617 47.614 47.609 47.592 47.564 47.552 47.544 47.497 47.529 47.527 47.544 47.567 47.584 47.607 47.622 47.622 47.597 47.582 47.579 47.557 47.547 47.542 47.522 47.542 47.522 47.514 47.529 47.539 47.562 47.537 47.552 47.524 47.539 47.562 47.584 47.564 47.564 47.584 47.592 47.577 47.597 47.619 47.634 47.622 47.649 47.657 47.649 47.652 47.659 47.647 47.672 47.687 47.667 47.667 47.664 47.714 47.692 47.722 47.749 47.772 47.797 47.824 47.847 47.914 47.959 47.984 48.062 48.099 48.137 48.187 48.247 48.272 48.349 48.389 48.437 48.454 48.484 48.537 48.522 48.599 48.627 48.664 48.719 48.774 48.814 48.874 48.969 49.014 49.027 49.059 49.112 49.117 49.174 49.189 49.222 49.257 49.322 49.357 49.412 49.472 49.492 49.502 49.584 49.612 49.654 49.669 49.722 49.719 49.784 49.762 49.782 49.877 49.887 50.114 51.037 50.862 50.447 50.377 50.344 50.352 50.404 50.404 50.427 50.464 50.494 50.559 50.624 50.689 50.754 50.707 50.747 50.814 50.884 50.959 51.012
40.981 40.954 40.941 40.934 40.909 40.939 40.926 40.939 40.921 40.904 40.816 40.744 41.091 42.739 42.076 41.441 41.246 42.091 42.499 41.069 41.034 41.054 41.099 41.066 41.049 41.086 41.096 41.136 41.199 41.214 41.229 41.256 41.249 41.294 41.296 41.309 41.296 41.324 41.306 41.384 41.436 41.411 41.451 41.466 41.504 41.471 41.516 41.589 41.644 41.634 41.644 41.664 41.676 41.731 41.779 41.776 41.816 41.809 41.851 41.916 41.926 41.976 42.041 42.041 42.069 42.094 42.139 42.151 42.169 42.191 42.236 42.254 42.264 42.284 42.266 42.279 42.301 42.286 42.339 42.349 42.409 42.456 42.504 42.529 42.616 42.684 42.764 42.816 42.856 42.936 43.024 43.119 43.166 43.256 43.314 43.386 43.406 43.451 43.479 43.531 43.594 43.609 43.631 43.676 43.706 43.719 43.761 43.764 43.759 43.794 43.849 43.831 43.846 43.854 43.861 43.876 43.854 43.861 43.879 43.926 43.934 43.949 43.966 43.991 44.036 44.089 44.126 44.166 44.166 44.166 44.174 44.211 44.226 44.214 44.251 44.256 44.249 44.279 44.314 44.369 44.409 44.511 44.559 44.579 44.631 44.706 44.721 44.796 44.851 44.874 44.906 44.944 45.009 45.051 45.096 45.124 45.139 45.179 45.219 45.276 45.339 45.369 45.421 45.464 45.496 45.524 45.544 45.594 45.639 45.656 45.696 45.719 45.764 45.819 45.824 45.811 45.846 45.921 45.941 45.949 45.969 46.014 45.989 46.049 46.036 46.041 46.076 46.094 46.094 46.116 46.139 46.156 46.156 46.199 46.204 46.224 46.216 46.229 46.246 46.276 46.271 46.301 46.361 46.359 46.399 46.406 46.414 46.426 46.481 46.509 46.514 46.506 46.531 46.534 46.556 46.589 46.591 46.609 46.624 46.622 46.609 46.639 46.697 46.702 46.734 46.737 46.752 46.767 46.792 46.817 46.829 46.852 46.922 46.944 46.959 46.979 46.994 47.027 47.047 47.079 47.099 47.132 47.114 47.152 47.139 47.174 47.197 47.224 47.219 47.129 47.844 48.967 48.087 47.342 47.392 47.357 47.372 47.357 47.352 47.339 47.317 47.322 47.324 47.324 47.312 47.294 47.282 47.269 47.269 47.262 47.289 47.294 47.302 47.284 47.287 47.282 47.294 47.287 47.277 47.222 47.224 47.224 47.182 47.192 47.172 47.194 47.212 47.199 47.182 47.174 47.174 47.164 47.144 47.149 47.127 47.117 47.102 47.062 47.062 47.024 47.044 47.054 47.059 47.069 47.082 47.134 47.127 47.162 47.139 47.082 47.114 47.127 47.089 47.092 47.077 47.077 47.109 47.102 47.089 47.102 47.094 47.109 47.072 47.114 47.117 47.097 47.092 47.109 47.112 47.142 47.167 47.142 47.149 47.167 47.162 47.187 47.237 47.199 47.204 47.189 47.182 47.194 47.199 47.184 47.194 47.162 47.182 47.194 47.219 47.229 47.247 47.294 47.367 47.369 47.364 47.407 47.484 47.542 47.577 47.589 47.672 47.717 47.777 47.809 47.854 47.894 47.942 47.999 48.054 48.072 48.119 48.167 48.214 48.287 48.292 48.344 48.392 48.459 48.482 48.532 48.592 48.612 48.662 48.694 48.692 48.737 48.777 48.834 48.892 48.909 48.934 49.009 49.052 49.097 49.122 49.164 49.199 49.247 49.302 49.284 49.334 49.339 49.344 49.412 49.419 49.687 51.529 50.444 50.034 49.919 49.877 49.909 49.954 49.957 49.994 50.014 50.039 50.064 50.117 50.149 50.207 50.197 50.262 50.312 50.397 50.444 50.514
40.694 40.766 40.606 40.604 40.616 40.614 40.606 40.606 40.601 40.556 40.476 40.394 40.484 42.394 41.861 41.161 40.979 41.756 42.181 41.009 40.739 40.731 40.776 40.756 40.724 40.741 40.801 40.831 40.851 40.914 40.894 40.919 40.941 40.951 40.986 41.001 40.984 40.999 41.006 41.071 41.081 41.051 41.089 41.144 41.156 41.169 41.176 41.216 41.274 41.304 41.319 41.364 41.384 41.414 41.406 41.429 41.451 41.479 41.486 41.529 41.571 41.606 41.701 41.686 41.729 41.731 41.779 41.784 41.804 41.814 41.894 41.886 41.899 41.941 41.926 41.906 41.886 41.924 41.969 41.949 42.009 42.044 42.099 42.166 42.211 42.309 42.371 42.441 42.449 42.521 42.606 42.661 42.734 42.821 42.894 42.956 43.001 43.034 43.066 43.101 43.169 43.209 43.246 43.276 43.286 43.284 43.326 43.379 43.376 43.391 43.386 43.371 43.431 43.456 43.454 43.461 43.481 43.466 43.501 43.491 43.504 43.556 43.564 43.574 43.596 43.619 43.694 43.731 43.729 43.726 43.746 43.774 43.774 43.824 43.849 43.839 43.839 43.889 43.936 43.944 43.989 44.081 44.101 44.149 44.201 44.254 44.246 44.341 44.409 44.466 44.514 44.569 44.634 44.666 44.661 44.699 44.766 44.754 44.821 44.889 44.946 44.991 45.024 45.059 45.084 45.116 45.156 45.194 45.241 45.296 45.336 45.359 45.381 45.429 45.436 45.474 45.471 45.521 45.534 45.556 45.576 45.621 45.634 45.646 45.661 45.641 45.679 45.684 45.679 45.701 45.691 45.744 45.754 45.769 45.774 45.791 45.831 45.859 45.819 45.861 45.864 45.894 45.921 45.939 45.966 45.981 45.996 46.029 46.044 46.076 46.086 46.104 46.094 46.076 46.101 46.124 46.144 46.166 46.202 46.212 46.199 46.207 46.247 46.274 46.302 46.297 46.299 46.319 46.299 46.339 46.377 46.414 46.449 46.479 46.512 46.504 46.552 46.579 46.609 46.652 46.662 46.697 46.684 46.702 46.702 46.727 46.737 46.739 46.754 46.669 47.102 48.357 47.442 46.849 46.874 46.854 46.869 46.822 46.817 46.859 46.827 46.837 46.839 46.809 46.814 46.827 46.822 46.822 46.797 46.809 46.824 46.802 46.809 46.802 46.784 46.792 46.804 46.764 46.749 46.767 46.757 46.727 46.717 46.699 46.717 46.719 46.707 46.694 46.674 46.689 46.682 46.674 46.669 46.664 46.662 46.647 46.659 46.582 46.614 46.577 46.569 46.587 46.602 46.607 46.602 46.657 46.704 46.697 46.707 46.642 46.649 46.589 46.639 46.642 46.632 46.617 46.612 46.632 46.619 46.609 46.614 46.609 46.612 46.634 46.649 46.654 46.654 46.617 46.639 46.647 46.677 46.692 46.699 46.734 46.712 46.747 46.739 46.749 46.754 46.772 46.752 46.742 46.762 46.729 46.729 46.732 46.724 46.722 46.737 46.782 46.764 46.812 46.847 46.862 46.897 46.962 47.027 47.062 47.132 47.164 47.209 47.244 47.307 47.367 47.412 47.474 47.487 47.547 47.602 47.692 47.707 47.742 47.812 47.827 47.854 47.922 47.962 48.057 48.049 48.084 48.139 48.159 48.159 48.179 48.242 48.267 48.302 48.332 48.389 48.452 48.479 48.522 48.582 48.609 48.677 48.694 48.747 48.752 48.799 48.827 48.887 48.882 48.897 48.907 48.932 49.679 51.479 50.597 49.674 49.382 49.364 49.442 49.454 49.444 49.452 49.469 49.532 49.604 49.647 49.707 49.752 49.777 49.822 49.874 49.919 49.999 50.037
40.329 40.309 40.329 40.321 40.296 40.306 40.289 40.281 40.274 40.229 40.151 40.064 40.341 42.126 41.349 40.909 40.691 41.149 41.949 40.984 40.426 40.429 40.434 40.444 40.424 40.464 40.484 40.486 40.551 40.581 40.604 40.599 40.629 40.631 40.644 40.649 40.636 40.649 40.701 40.714 40.721 40.749 40.769 40.794 40.826 40.794 40.839 40.876 40.921 40.969 40.989 40.984 41.039 41.044 41.054 41.094 41.089 41.129 41.164 41.194 41.199 41.289 41.341 41.351 41.319 41.379 41.404 41.421 41.454 41.456 41.534 41.536 41.549 41.564 41.571 41.549 41.556 41.534 41.586 41.586 41.631 41.659 41.704 41.781 41.864 41.916 41.971 42.021 42.084 42.116 42.194 42.284 42.306 42.376 42.459 42.506 42.576 42.639 42.659 42.711 42.784 42.786 42.826 42.856 42.886 42.884 42.911 42.931 42.951 42.974 43.014 43.014 43.029 43.009 43.004 43.021 43.044 43.041 43.056 43.061 43.116 43.134 43.126 43.124 43.189 43.204 43.236 43.284 43.304 43.304 43.349 43.381 43.344 43.396 43.386 43.391 43.389 43.469 43.519 43.561 43.586 43.649 43.674 43.716 43.789 43.839 43.831 43.936 44.004 44.029 44.101 44.156 44.186 44.256 44.291 44.324 44.359 44.359 44.446 44.481 44.551 44.566 44.609 44.634 44.684 44.709 44.751 44.771 44.814 44.874 44.924 44.946 44.996 45.034 45.069 45.091 45.081 45.109 45.121 45.156 45.184 45.171 45.214 45.214 45.226 45.246 45.241 45.281 45.274 45.284 45.336 45.331 45.341 45.349 45.396 45.381 45.404 45.411 45.409 45.426 45.469 45.491 45.479 45.509 45.524 45.551 45.566 45.576 45.636 45.644 45.664 45.656 45.654 45.676 45.684 45.694 45.729 45.746 45.727 45.759 45.702 45.777 45.782 45.814 45.829 45.819 45.839 45.862 45.892 45.892 45.944 45.952 46.002 46.017 46.057 46.072 46.089 46.107 46.164 46.189 46.224 46.219 46.234 46.249 46.244 46.234 46.287 46.297 46.299 46.224 46.674 47.967 46.854 46.364 46.379 46.392 46.394 46.392 46.384 46.382 46.389 46.407 46.367 46.357 46.362 46.349 46.362 46.337 46.332 46.317 46.307 46.292 46.292 46.299 46.277 46.264 46.284 46.279 46.262 46.267 46.252 46.219 46.232 46.222 46.224 46.204 46.207 46.199 46.204 46.214 46.212 46.224 46.212 46.187 46.192 46.162 46.132 46.119 46.109 46.087 46.069 46.069 46.082 46.092 46.112 46.149 46.179 46.189 46.174 46.167 46.162 46.119 46.139 46.154 46.162 46.162 46.157 46.139 46.142 46.122 46.139 46.132 46.179 46.187 46.207 46.219 46.174 46.187 46.209 46.214 46.222 46.207 46.242 46.262 46.257 46.284 46.304 46.307 46.312 46.324 46.304 46.327 46.287 46.272 46.289 46.267 46.272 46.272 46.274 46.312 46.354 46.379 46.392 46.432 46.444 46.492 46.559 46.617 46.637 46.707 46.742 46.789 46.872 46.907 46.979 47.012 47.039 47.102 47.179 47.199 47.239 47.284 47.334 47.369 47.427 47.454 47.514 47.527 47.602 47.637 47.669 47.697 47.727 47.737 47.769 47.767 47.812 47.864 47.902 47.937 47.999 48.049 48.099 48.132 48.162 48.199 48.267 48.279 48.297 48.324 48.342 48.414 48.419 48.417 48.417 48.464 49.677 50.027 49.484 48.912 48.917 48.954 48.944 48.969 48.992 49.027 49.079 49.127 49.194 49.252 49.277 49.317 49.359 49.424 49.427 49.492 49.542
40.036 40.026 40.031 40.026 40.014 40.006 39.994 39.996 39.974 39.919 39.874 39.751 39.859 41.289 41.149 40.614 40.414 40.606 41.439 40.264 40.131 40.114 40.151 40.126 40.086 40.171 40.164 40.169 40.246 40.284 40.246 40.279 40.309 40.304 40.334 40.341 40.299 40.349 40.376 40.399 40.379 40.404 40.401 40.429 40.481 40.501 40.546 40.569 40.606 40.624 40.639 40.684 40.679 40.701 40.721 40.744 40.769 40.829 40.826 40.859 40.906 40.936 40.971 40.999 40.969 40.999 41.066 41.051 41.086 41.129 41.149 41.159 41.206 41.201 41.186 41.194 41.226 41.194 41.181 41.204 41.236 41.274 41.326 41.394 41.454 41.526 41.574 41.629 41.691 41.746 41.789 41.831 41.891 41.961 42.026 42.076 42.126 42.184 42.251 42.314 42.366 42.409 42.441 42.444 42.486 42.471 42.504 42.506 42.504 42.574 42.566 42.571 42.556 42.594 42.599 42.609 42.609 42.611 42.631 42.674 42.686 42.694 42.736 42.744 42.749 42.731 42.779 42.851 42.881 42.861 42.914 42.931 42.926 42.989 42.979 42.984 42.986 43.054 43.086 43.104 43.144 43.216 43.286 43.301 43.376 43.411 43.446 43.506 43.581 43.639 43.641 43.746 43.811 43.871 43.936 43.941 43.984 44.014 44.049 44.094 44.159 44.184 44.221 44.229 44.234 44.269 44.361 44.389 44.449 44.486 44.536 44.564 44.601 44.634 44.654 44.674 44.704 44.721 44.761 44.756 44.779 44.776 44.784 44.819 44.806 44.834 44.861 44.839 44.904 44.894 44.906 44.906 44.924 44.946 44.959 44.969 44.954 44.999 44.974 44.999 45.031 45.036 45.041 45.059 45.089 45.089 45.111 45.131 45.176 45.199 45.206 45.196 45.221 45.244 45.246 45.246 45.284 45.299 45.344 45.329 45.309 45.324 45.349 45.394 45.397 45.374 45.404 45.429 45.439 45.434 45.454 45.497 45.527 45.574 45.592 45.604 45.617 45.654 45.714 45.727 45.739 45.757 45.769 45.804 45.772 45.769 45.772 45.797 45.839 45.824 46.027 47.434 46.519 45.864 45.934 45.904 45.904 45.904 45.879 45.872 45.899 45.889 45.887 45.879 45.879 45.882 45.857 45.832 45.834 45.809 45.794 45.809 45.837 45.794 45.794 45.777 45.794 45.782 45.774 45.772 45.749 45.722 45.714 45.717 45.714 45.712 45.692 45.674 45.704 45.707 45.734 45.717 45.697 45.699 45.709 45.677 45.679 45.637 45.637 45.627 45.604 45.604 45.579 45.619 45.629 45.657 45.697 45.714 45.702 45.697 45.694 45.662 45.687 45.669 45.704 45.694 45.689 45.682 45.717 45.687 45.699 45.684 45.722 45.737 45.744 45.764 45.764 45.764 45.762 45.754 45.779 45.802 45.819 45.832 45.864 45.864 45.867 45.874 45.884 45.869 45.844 45.832 45.827 45.804 45.804 45.777 45.802 45.824 45.822 45.844 45.844 45.899 45.959 45.964 46.014 46.037 46.114 46.159 46.204 46.222 46.279 46.359 46.419 46.472 46.512 46.567 46.632 46.652 46.694 46.757 46.777 46.859 46.887 46.907 46.969 47.007 47.097 47.134 47.162 47.179 47.247 47.239 47.294 47.304 47.349 47.337 47.364 47.402 47.462 47.499 47.524 47.567 47.589 47.652 47.672 47.727 47.784 47.832 47.844 47.849 47.919 47.907 47.929 47.934 47.964 48.007 49.117 50.324 51.354 48.559 48.487 48.539 48.564 48.594 48.584 48.607 48.622 48.689 48.719 48.787 48.837 48.874 48.919 48.949 48.972 49.047 49.089
39.759 39.744 39.706 39.686 39.724 39.726 39.706 39.706 39.674 39.606 39.534 39.424 39.319 41.354 41.081 40.336 40.134 40.166 41.426 40.069 39.799 39.809 39.834 39.809 39.806 39.816 39.836 39.846 39.931 39.969 39.934 39.994 39.956 39.974 40.004 40.011 40.001 40.026 40.039 40.071 40.076 40.081 40.099 40.139 40.166 40.134 40.169 40.226 40.264 40.306 40.301 40.304 40.339 40.371 40.391 40.411 40.446 40.474 40.499 40.514 40.539 40.606 40.626 40.666 40.659 40.669 40.689 40.709 40.764 40.769 40.784 40.789 40.791 40.824 40.826 40.809 40.849 40.816 40.839 40.859 40.886 40.921 40.949 40.999 41.041 41.079 41.184 41.219 41.236 41.309 41.369 41.416 41.471 41.531 41.609 41.656 41.739 41.761 41.824 41.901 41.949 41.994 42.014 42.034 42.099 42.084 42.089 42.116 42.101 42.136 42.141 42.156 42.156 42.144 42.176 42.176 42.194 42.196 42.209 42.234 42.289 42.296 42.316 42.321 42.344 42.356 42.399 42.429 42.429 42.434 42.499 42.499 42.514 42.534 42.569 42.564 42.539 42.606 42.639 42.659 42.704 42.791 42.844 42.894 42.964 43.009 43.021 43.089 43.164 43.196 43.226 43.321 43.391 43.466 43.496 43.519 43.556 43.601 43.639 43.694 43.766 43.766 43.766 43.819 43.861 43.919 43.946 43.999 44.051 44.101 44.116 44.154 44.201 44.209 44.246 44.289 44.314 44.331 44.344 44.381 44.381 44.394 44.424 44.444 44.459 44.449 44.491 44.459 44.466 44.466 44.489 44.504 44.511 44.524 44.544 44.531 44.549 44.534 44.559 44.549 44.589 44.599 44.619 44.626 44.641 44.671 44.671 44.696 44.741 44.744 44.744 44.771 44.789 44.781 44.786 44.809 44.824 44.831 44.892 44.877 44.837 44.884 44.949 44.969 44.954 44.942 44.962 44.977 44.987 44.982 45.022 45.059 45.074 45.112 45.139 45.172 45.179 45.199 45.224 45.259 45.277 45.279 45.299 45.302 45.297 45.317 45.299 45.299 45.327 45.342 45.367 46.722 45.957 45.369 45.447 45.434 45.439 45.414 45.414 45.407 45.407 45.424 45.399 45.384 45.409 45.379 45.364 45.359 45.317 45.289 45.284 45.274 45.299 45.282 45.307 45.272 45.257 45.264 45.274 45.269 45.232 45.272 45.267 45.242 45.269 45.244 45.222 45.227 45.262 45.257 45.284 45.292 45.299 45.272 45.257 45.244 45.239 45.194 45.219 45.184 45.174 45.162 45.157 45.187 45.199 45.209 45.234 45.212 45.222 45.217 45.232 45.207 45.199 45.229 45.242 45.244 45.242 45.229 45.207 45.237 45.232 45.227 45.254 45.259 45.277 45.279 45.324 45.312 45.279 45.312 45.327 45.367 45.344 45.392 45.394 45.382 45.384 45.419 45.422 45.397 45.382 45.382 45.364 45.322 45.317 45.307 45.319 45.299 45.339 45.354 45.397 45.424 45.427 45.517 45.564 45.574 45.624 45.717 45.742 45.774 45.817 45.849 45.914 45.972 46.054 46.059 46.104 46.194 46.229 46.267 46.334 46.359 46.412 46.442 46.489 46.544 46.587 46.639 46.669 46.699 46.712 46.759 46.772 46.807 46.864 46.857 46.889 46.932 46.962 46.969 47.037 47.077 47.097 47.162 47.177 47.229 47.267 47.317 47.374 47.382 47.394 47.424 47.412 47.454 47.467 47.469 48.477 50.759 52.142 49.547 48.054 48.147 48.132 48.139 48.142 48.112 48.159 48.209 48.249 48.287 48.372 48.442 48.429 48.419 48.502 48.569 48.597
39.454 39.431 39.404 39.429 39.411 39.406 39.409 39.379 39.359 39.326 39.249 39.114 38.994 39.914 40.899 40.069 39.859 39.754 41.064 40.009 39.521 39.526 39.526 39.541 39.499 39.574 39.576 39.519 39.614 39.674 39.629 39.641 39.651 39.644 39.704 39.649 39.706 39.671 39.701 39.726 39.771 39.776 39.774 39.794 39.814 39.831 39.834 39.874 39.931 39.951 39.974 39.979 40.034 40.044 40.074 40.099 40.101 40.146 40.161 40.176 40.204 40.251 40.284 40.284 40.309 40.336 40.324 40.344 40.366 40.396 40.436 40.444 40.446 40.436 40.484 40.476 40.464 40.444 40.461 40.489 40.516 40.536 40.599 40.609 40.634 40.681 40.776 40.804 40.844 40.899 40.951 41.014 41.071 41.136 41.176 41.241 41.304 41.351 41.414 41.474 41.516 41.549 41.584 41.624 41.631 41.676 41.694 41.716 41.694 41.709 41.699 41.721 41.706 41.724 41.726 41.746 41.756 41.801 41.796 41.819 41.854 41.851 41.851 41.874 41.901 41.934 41.974 41.996 42.016 42.036 42.059 42.064 42.079 42.126 42.149 42.141 42.129 42.166 42.196 42.241 42.291 42.369 42.429 42.449 42.536 42.589 42.626 42.684 42.756 42.786 42.836 42.904 42.956 43.041 43.081 43.129 43.129 43.194 43.204 43.264 43.339 43.389 43.419 43.451 43.489 43.529 43.524 43.594 43.639 43.686 43.709 43.714 43.786 43.811 43.804 43.871 43.884 43.896 43.916 43.934 43.944 43.971 44.001 44.016 44.024 44.039 44.054 44.046 44.059 44.084 44.124 44.089 44.101 44.111 44.139 44.116 44.151 44.111 44.139 44.124 44.136 44.141 44.171 44.159 44.174 44.194 44.224 44.236 44.266 44.289 44.291 44.314 44.346 44.341 44.341 44.369 44.374 44.411 44.432 44.432 44.397 44.457 44.472 44.499 44.487 44.482 44.519 44.514 44.524 44.537 44.557 44.614 44.627 44.674 44.709 44.739 44.774 44.779 44.792 44.809 44.844 44.844 44.862 44.844 44.844 44.792 44.844 44.869 44.882 44.919 44.829 46.089 46.542 44.894 44.972 45.004 44.947 44.942 44.954 44.962 44.967 44.962 44.972 44.967 44.949 44.939 44.919 44.894 44.874 44.867 44.834 44.839 44.809 44.807 44.814 44.802 44.802 44.782 44.802 44.817 44.789 44.789 44.782 44.792 44.817 44.787 44.772 44.804 44.832 44.819 44.827 44.854 44.829 44.857 44.827 44.802 44.822 44.767 44.752 44.722 44.717 44.722 44.712 44.739 44.724 44.744 44.742 44.767 44.754 44.764 44.779 44.744 44.732 44.759 44.759 44.759 44.767 44.762 44.759 44.759 44.772 44.774 44.789 44.794 44.832 44.829 44.812 44.847 44.832 44.847 44.862 44.874 44.914 44.959 44.957 44.939 44.957 44.972 44.979 44.962 44.942 44.924 44.912 44.872 44.887 44.867 44.867 44.874 44.922 44.934 44.947 44.944 45.009 45.074 45.109 45.152 45.182 45.247 45.299 45.339 45.372 45.397 45.477 45.539 45.582 45.602 45.644 45.682 45.729 45.812 45.862 45.897 45.952 45.967 46.007 46.074 46.102 46.134 46.174 46.192 46.234 46.247 46.264 46.317 46.352 46.379 46.359 46.412 46.444 46.482 46.559 46.594 46.639 46.702 46.722 46.762 46.799 46.854 46.857 46.932 46.944 46.952 46.944 46.982 46.987 47.007 47.822 50.137 51.222 48.647 47.632 47.647 47.672 47.652 47.647 47.677 47.669 47.737 47.777 47.812 47.874 47.937 47.934 47.952 47.989 48.079 48.082
39.146 39.131 39.124 39.119 39.086 39.091 39.084 39.079 39.084 39.031 38.949 38.824 38.706 39.849 40.816 39.859 39.611 39.406 40.494 39.821 39.231 39.194 39.214 39.234 39.239 39.234 39.236 39.271 39.346 39.341 39.334 39.344 39.371 39.361 39.389 39.379 39.374 39.354 39.394 39.424 39.414 39.439 39.479 39.494 39.511 39.481 39.511 39.574 39.586 39.611 39.651 39.694 39.691 39.704 39.744 39.771 39.794 39.796 39.841 39.831 39.876 39.889 39.929 39.926 39.899 39.949 39.974 39.979 40.011 40.024 40.044 40.059 40.076 40.086 40.014 40.066 40.054 40.064 40.076 40.111 40.141 40.184 40.184 40.229 40.269 40.316 40.359 40.401 40.431 40.524 40.544 40.611 40.659 40.716 40.814 40.809 40.871 40.929 40.979 41.036 41.071 41.111 41.131 41.199 41.224 41.244 41.294 41.311 41.276 41.301 41.309 41.281 41.296 41.286 41.279 41.299 41.329 41.321 41.371 41.379 41.396 41.394 41.434 41.436 41.471 41.466 41.529 41.561 41.559 41.634 41.649 41.684 41.714 41.719 41.749 41.726 41.709 41.776 41.784 41.821 41.876 41.934 41.981 42.066 42.119 42.124 42.196 42.281 42.319 42.391 42.449 42.519 42.564 42.571 42.639 42.721 42.704 42.764 42.801 42.864 42.911 42.944 43.004 43.039 43.081 43.111 43.156 43.201 43.231 43.281 43.309 43.319 43.371 43.414 43.406 43.384 43.414 43.454 43.476 43.481 43.506 43.539 43.574 43.601 43.599 43.596 43.634 43.671 43.654 43.661 43.684 43.689 43.684 43.714 43.706 43.706 43.709 43.716 43.731 43.736 43.741 43.736 43.741 43.739 43.741 43.754 43.744 43.794 43.856 43.849 43.869 43.864 43.871 43.894 43.866 43.906 43.914 43.964 43.989 43.972 43.952 43.977 43.979 44.014 44.019 43.994 44.032 44.049 44.062 44.074 44.094 44.127 44.174 44.214 44.259 44.267 44.299 44.314 44.339 44.372 44.374 44.382 44.394 44.397 44.379 44.379 44.399 44.422 44.442 44.462 45.649 48.439 47.864 44.479 44.527 44.559 44.542 44.539 44.537 44.527 44.522 44.514 44.517 44.519 44.517 44.509 44.477 44.404 44.369 44.404 44.374 44.354 44.362 44.357 44.367 44.354 44.374 44.347 44.367 44.359 44.359 44.339 44.347 44.327 44.339 44.359 44.364 44.357 44.384 44.397 44.387 44.407 44.402 44.407 44.392 44.389 44.357 44.352 44.332 44.309 44.267 44.269 44.254 44.269 44.269 44.297 44.299 44.312 44.307 44.297 44.279 44.279 44.267 44.302 44.299 44.277 44.279 44.309 44.297 44.317 44.309 44.334 44.337 44.344 44.339 44.339 44.384 44.379 44.392 44.409 44.427 44.447 44.477 44.489 44.529 44.537 44.549 44.537 44.527 44.517 44.507 44.497 44.464 44.434 44.459 44.434 44.442 44.474 44.462 44.444 44.514 44.527 44.569 44.599 44.662 44.702 44.792 44.819 44.837 44.884 44.952 45.014 45.034 45.077 45.104 45.147 45.207 45.259 45.302 45.347 45.402 45.444 45.477 45.522 45.532 45.599 45.667 45.669 45.707 45.762 45.782 45.814 45.817 45.849 45.879 45.874 45.874 45.907 45.947 46.047 46.084 46.114 46.139 46.182 46.234 46.287 46.334 46.384 46.402 46.422 46.437 46.464 46.459 46.474 46.484 46.497 46.692 48.184 49.129 48.332 47.194 47.219 47.232 47.217 47.209 47.212 47.247 47.272 47.314 47.352 47.417 47.469 47.484 47.477 47.522 47.592 47.614
38.841 38.849 38.819 38.809 38.804 38.796 38.776 38.794 38.779 38.704 38.649 38.499 38.416 39.344 40.754 39.751 39.334 39.126 40.096 39.929 38.864 38.866 38.891 38.934 38.894 38.906 38.956 38.994 38.991 39.021 39.046 39.041 39.044 39.059 39.074 39.084 39.049 39.059 39.054 39.081 39.051 39.106 39.121 39.166 39.144 39.156 39.176 39.246 39.284 39.289 39.316 39.351 39.346 39.344 39.401 39.439 39.469 39.464 39.471 39.504 39.526 39.534 39.601 39.604 39.584 39.589 39.611 39.639 39.631 39.624 39.676 39.674 39.684 39.686 39.669 39.706 39.661 39.676 39.681 39.731 39.746 39.784 39.824 39.871 39.914 39.914 39.966 40.009 40.049 40.104 40.161 40.204 40.271 40.351 40.421 40.426 40.474 40.521 40.544 40.581 40.624 40.664 40.716 40.759 40.791 40.809 40.841 40.869 40.856 40.826 40.879 40.881 40.861 40.884 40.904 40.911 40.894 40.891 40.936 40.936 40.979 40.956 40.986 40.979 40.996 41.041 41.104 41.141 41.141 41.186 41.236 41.236 41.276 41.299 41.304 41.301 41.294 41.339 41.356 41.394 41.434 41.509 41.556 41.621 41.679 41.754 41.784 41.856 41.901 41.971 42.009 42.109 42.154 42.191 42.234 42.279 42.304 42.336 42.376 42.441 42.489 42.536 42.596 42.631 42.664 42.714 42.756 42.781 42.829 42.881 42.919 42.939 42.979 42.989 42.971 42.986 43.016 43.031 43.046 43.049 43.076 43.099 43.109 43.139 43.181 43.171 43.189 43.206 43.219 43.234 43.239 43.249 43.226 43.261 43.261 43.251 43.226 43.241 43.241 43.264 43.244 43.246 43.314 43.289 43.306 43.336 43.369 43.396 43.441 43.416 43.429 43.449 43.446 43.459 43.481 43.454 43.474 43.494 43.514 43.524 43.492 43.519 43.532 43.557 43.549 43.554 43.552 43.579 43.592 43.609 43.604 43.669 43.717 43.762 43.787 43.814 43.854 43.852 43.884 43.912 43.914 43.927 43.914 43.907 43.904 43.924 43.949 43.949 44.014 44.194 46.694 48.372 47.897 44.462 44.072 44.084 44.097 44.097 44.082 44.092 44.089 44.089 44.084 44.064 44.054 44.039 44.009 43.964 43.944 43.932 43.927 43.934 43.932 43.912 43.887 43.909 43.924 43.922 43.922 43.867 43.872 43.899 43.902 43.887 43.907 43.904 43.927 43.909 43.952 43.974 43.967 43.977 43.964 43.954 43.952 43.929 43.924 43.892 43.874 43.867 43.864 43.829 43.812 43.827 43.839 43.874 43.854 43.837 43.824 43.862 43.849 43.837 43.847 43.819 43.819 43.812 43.802 43.849 43.844 43.829 43.817 43.854 43.849 43.897 43.892 43.919 43.894 43.917 43.922 43.949 43.974 44.009 44.034 44.044 44.077 44.077 44.097 44.092 44.082 44.067 44.032 44.057 43.994 43.974 43.964 43.977 43.987 43.994 44.007 43.984 44.052 44.079 44.112 44.162 44.174 44.234 44.272 44.322 44.397 44.439 44.489 44.499 44.587 44.632 44.664 44.707 44.727 44.792 44.807 44.884 44.927 44.952 44.979 45.064 45.089 45.082 45.174 45.197 45.242 45.287 45.299 45.379 45.357 45.334 45.349 45.359 45.397 45.409 45.462 45.467 45.539 45.602 45.607 45.667 45.719 45.772 45.842 45.867 45.899 45.939 45.947 45.967 45.989 46.039 46.032 46.049 46.087 47.404 48.792 48.487 46.824 46.767 46.774 46.762 46.767 46.784 46.784 46.807 46.852 46.867 46.917 47.004 46.987 47.037 47.064 47.074 47.119
38.529 38.511 38.516 38.514 38.516 38.509 38.481 38.441 38.436 38.411 38.351 38.244 38.136 39.054 40.639 39.571 39.074 38.839 40.039 39.886 38.596 38.581 38.564 38.596 38.566 38.556 38.604 38.626 38.704 38.716 38.721 38.721 38.766 38.751 38.711 38.749 38.711 38.706 38.729 38.751 38.731 38.784 38.799 38.796 38.834 38.819 38.856 38.949 38.971 38.959 38.949 38.989 39.036 39.024 39.074 39.101 39.109 39.129 39.134 39.136 39.136 39.206 39.224 39.229 39.236 39.254 39.234 39.261 39.249 39.276 39.294 39.304 39.329 39.309 39.296 39.281 39.296 39.309 39.319 39.344 39.359 39.404 39.431 39.534 39.496 39.529 39.589 39.586 39.624 39.706 39.766 39.784 39.874 39.906 39.964 40.019 40.049 40.091 40.141 40.176 40.221 40.264 40.291 40.316 40.326 40.344 40.396 40.441 40.421 40.416 40.431 40.444 40.434 40.431 40.481 40.471 40.469 40.486 40.524 40.531 40.504 40.521 40.511 40.536 40.584 40.596 40.666 40.691 40.699 40.739 40.804 40.844 40.854 40.854 40.889 40.874 40.869 40.894 40.936 40.984 41.031 41.071 41.166 41.216 41.274 41.314 41.351 41.426 41.506 41.551 41.609 41.691 41.749 41.771 41.824 41.866 41.896 41.904 41.966 42.019 42.064 42.136 42.181 42.241 42.251 42.314 42.319 42.374 42.421 42.456 42.489 42.526 42.586 42.571 42.606 42.596 42.571 42.596 42.636 42.619 42.651 42.654 42.709 42.714 42.764 42.744 42.739 42.784 42.771 42.779 42.784 42.769 42.786 42.789 42.801 42.816 42.809 42.796 42.796 42.794 42.826 42.856 42.859 42.851 42.856 42.899 42.911 42.939 42.949 42.971 42.979 42.974 42.986 42.984 42.979 42.981 43.021 43.051 43.042 43.032 43.029 43.079 43.082 43.114 43.124 43.117 43.119 43.114 43.149 43.147 43.177 43.219 43.274 43.304 43.334 43.362 43.364 43.404 43.417 43.419 43.449 43.464 43.459 43.449 43.432 43.434 43.452 43.477 43.492 43.997 43.879 44.972 45.499 43.942 43.652 43.627 43.647 43.642 43.604 43.624 43.627 43.644 43.627 43.607 43.614 43.612 43.572 43.562 43.537 43.482 43.489 43.487 43.487 43.487 43.494 43.502 43.494 43.494 43.489 43.469 43.489 43.497 43.467 43.474 43.492 43.514 43.512 43.527 43.509 43.537 43.529 43.554 43.552 43.544 43.567 43.542 43.507 43.492 43.477 43.442 43.452 43.404 43.374 43.379 43.412 43.397 43.419 43.409 43.399 43.369 43.394 43.354 43.312 43.317 43.362 43.354 43.339 43.344 43.352 43.349 43.372 43.367 43.372 43.397 43.402 43.412 43.457 43.457 43.459 43.482 43.492 43.517 43.547 43.579 43.624 43.642 43.617 43.634 43.627 43.602 43.584 43.587 43.557 43.527 43.544 43.557 43.527 43.539 43.617 43.669 43.662 43.657 43.672 43.729 43.737 43.809 43.849 43.849 43.917 43.969 44.029 44.054 44.129 44.172 44.219 44.229 44.279 44.347 44.374 44.409 44.439 44.502 44.554 44.564 44.594 44.627 44.669 44.714 44.754 44.789 44.797 44.844 44.842 44.859 44.859 44.872 44.909 44.949 45.004 45.022 45.087 45.134 45.187 45.207 45.222 45.269 45.337 45.372 45.417 45.442 45.437 45.482 45.537 45.569 45.562 45.567 45.612 46.707 47.707 48.159 46.484 46.282 46.314 46.274 46.292 46.307 46.309 46.322 46.357 46.409 46.469 46.497 46.502 46.564 46.597 46.592 46.674
38.224 38.206 38.234 38.226 38.201 38.159 38.194 38.169 38.171 38.144 38.071 37.966 37.859 39.106 40.346 39.431 38.794 38.591 39.856 39.751 38.286 38.241 38.274 38.294 38.249 38.231 38.279 38.344 38.379 38.391 38.401 38.441 38.459 38.446 38.411 38.409 38.414 38.391 38.384 38.401 38.414 38.424 38.461 38.471 38.506 38.486 38.526 38.546 38.609 38.644 38.666 38.661 38.671 38.704 38.714 38.726 38.751 38.759 38.771 38.804 38.796 38.821 38.866 38.871 38.824 38.884 38.886 38.874 38.859 38.876 38.916 38.911 38.931 38.924 38.901 38.906 38.914 38.929 38.956 38.984 39.009 39.001 39.084 39.099 39.111 39.171 39.184 39.204 39.256 39.311 39.356 39.416 39.436 39.531 39.596 39.614 39.654 39.704 39.711 39.751 39.796 39.844 39.869 39.901 39.919 39.939 39.986 40.001 39.979 39.964 39.981 40.009 40.006 40.014 40.024 40.006 39.999 40.029 40.049 40.071 40.106 40.106 40.106 40.144 40.159 40.129 40.196 40.236 40.279 40.286 40.339 40.404 40.389 40.421 40.429 40.446 40.431 40.486 40.524 40.559 40.621 40.681 40.719 40.784 40.831 40.881 40.921 40.996 41.064 41.119 41.181 41.241 41.311 41.354 41.411 41.436 41.491 41.506 41.539 41.574 41.624 41.709 41.741 41.771 41.804 41.889 41.901 41.951 41.986 42.031 42.066 42.076 42.141 42.146 42.136 42.141 42.166 42.176 42.211 42.234 42.224 42.234 42.284 42.294 42.301 42.319 42.289 42.326 42.316 42.336 42.344 42.369 42.349 42.356 42.369 42.344 42.359 42.364 42.369 42.359 42.371 42.386 42.396 42.411 42.411 42.434 42.456 42.489 42.504 42.509 42.534 42.534 42.549 42.546 42.556 42.556 42.574 42.574 42.567 42.574 42.559 42.592 42.604 42.627 42.632 42.639 42.644 42.674 42.687 42.692 42.712 42.762 42.807 42.867 42.894 42.909 42.929 42.952 43.004 43.002 43.002 43.017 43.029 42.997 42.989 42.979 43.017 43.009 43.024 43.092 43.254 44.752 47.057 45.014 43.177 43.184 43.164 43.137 43.139 43.162 43.154 43.177 43.224 43.214 43.192 43.184 43.164 43.152 43.119 43.092 43.104 43.104 43.104 43.097 43.119 43.132 43.092 43.107 43.099 43.112 43.107 43.117 43.107 43.087 43.097 43.127 43.114 43.124 43.147 43.157 43.127 43.129 43.134 43.157 43.159 43.099 43.102 43.047 43.004 42.989 42.987 42.964 42.944 42.929 42.939 42.937 42.902 42.939 42.909 42.932 42.894 42.889 42.884 42.857 42.859 42.882 42.889 42.867 42.849 42.864 42.864 42.887 42.904 42.889 42.934 42.969 42.979 42.979 43.014 43.049 43.074 43.117 43.129 43.164 43.187 43.209 43.202 43.214 43.212 43.209 43.179 43.144 43.117 43.117 43.119 43.112 43.137 43.147 43.164 43.167 43.179 43.202 43.229 43.262 43.289 43.322 43.399 43.417 43.454 43.504 43.572 43.612 43.662 43.719 43.767 43.799 43.837 43.904 43.947 43.954 44.022 44.037 44.079 44.102 44.139 44.199 44.197 44.244 44.272 44.297 44.349 44.364 44.359 44.372 44.379 44.404 44.407 44.484 44.497 44.552 44.597 44.637 44.684 44.757 44.762 44.824 44.862 44.897 44.929 44.969 45.032 45.004 45.037 45.084 45.067 45.119 45.159 45.587 47.337 48.214 46.592 45.909 45.872 45.849 45.862 45.857 45.849 45.844 45.897 45.949 45.987 45.999 46.032 46.034 46.069 46.092 46.157
37.979 37.931 37.939 37.906 37.899 37.859 37.886 37.889 37.879 37.836 37.764 37.664 37.571 38.134 39.931 39.074 38.521 38.336 39.274 39.641 38.081 37.904 37.966 37.964 37.969 37.976 38.021 38.061 38.131 38.111 38.114 38.131 38.134 38.134 38.114 38.091 38.094 38.081 38.069 38.059 38.089 38.091 38.104 38.164 38.174 38.161 38.171 38.206 38.246 38.289 38.294 38.299 38.301 38.334 38.356 38.379 38.381 38.401 38.391 38.411 38.441 38.449 38.509 38.491 38.506 38.481 38.469 38.534 38.516 38.526 38.529 38.529 38.519 38.556 38.541 38.521 38.529 38.511 38.501 38.564 38.601 38.604 38.659 38.711 38.739 38.784 38.801 38.849 38.866 38.901 38.966 39.006 38.999 39.116 39.164 39.206 39.249 39.249 39.311 39.349 39.374 39.441 39.484 39.481 39.484 39.516 39.534 39.571 39.544 39.546 39.551 39.546 39.541 39.534 39.594 39.589 39.601 39.604 39.639 39.614 39.646 39.674 39.696 39.711 39.729 39.751 39.769 39.829 39.844 39.851 39.886 39.929 39.949 39.999 40.014 40.024 40.026 40.056 40.084 40.096 40.179 40.259 40.294 40.356 40.416 40.464 40.496 40.579 40.659 40.684 40.754 40.784 40.861 40.924 40.996 41.041 41.006 41.071 41.136 41.181 41.229 41.291 41.334 41.384 41.396 41.429 41.464 41.511 41.526 41.586 41.644 41.684 41.736 41.709 41.711 41.734 41.744 41.734 41.776 41.771 41.841 41.809 41.851 41.861 41.899 41.894 41.926 41.934 41.911 41.916 41.906 41.911 41.914 41.914 41.926 41.936 41.936 41.954 41.919 41.944 41.964 41.959 41.969 41.981 42.006 41.999 42.044 42.066 42.064 42.094 42.089 42.094 42.111 42.106 42.114 42.124 42.099 42.119 42.124 42.139 42.089 42.134 42.154 42.154 42.177 42.152 42.142 42.159 42.222 42.247 42.259 42.299 42.347 42.364 42.437 42.449 42.477 42.487 42.527 42.547 42.547 42.582 42.572 42.537 42.529 42.542 42.557 42.602 42.662 43.762 44.444 45.319 45.777 42.909 42.664 42.692 42.677 42.654 42.622 42.657 42.657 42.714 42.754 42.802 42.807 42.759 42.744 42.739 42.719 42.694 42.712 42.697 42.717 42.714 42.704 42.732 42.712 42.717 42.727 42.722 42.702 42.714 42.729 42.699 42.709 42.749 42.722 42.714 42.734 42.742 42.737 42.769 42.767 42.772 42.714 42.707 42.679 42.652 42.592 42.567 42.559 42.534 42.499 42.519 42.472 42.514 42.489 42.514 42.487 42.484 42.459 42.459 42.407 42.404 42.394 42.412 42.422 42.399 42.404 42.404 42.404 42.437 42.439 42.439 42.509 42.527 42.512 42.544 42.547 42.594 42.619 42.657 42.694 42.719 42.727 42.754 42.742 42.727 42.762 42.742 42.732 42.707 42.694 42.662 42.682 42.657 42.672 42.684 42.689 42.707 42.717 42.759 42.779 42.794 42.869 42.874 42.907 42.939 42.997 43.059 43.104 43.119 43.174 43.232 43.292 43.329 43.359 43.407 43.474 43.494 43.539 43.597 43.617 43.639 43.649 43.712 43.747 43.749 43.787 43.802 43.869 43.827 43.867 43.874 43.904 43.939 43.934 43.962 43.987 44.042 44.109 44.167 44.199 44.234 44.254 44.329 44.379 44.422 44.464 44.482 44.519 44.537 44.552 44.597 44.637 44.642 44.652 45.844 48.934 47.789 47.152 45.582 45.407 45.429 45.407 45.379 45.374 45.389 45.417 45.464 45.499 45.487 45.522 45.552 45.559 45.572 45.642
37.654 37.671 37.624 37.651 37.611 37.621 37.621 37.589 37.564 37.549 37.494 37.381 37.294 37.976 39.716 38.379 38.271 38.061 38.666 39.399 37.914 37.669 37.696 37.689 37.681 37.691 37.689 37.729 37.756 37.791 37.859 37.831 37.859 37.816 37.781 37.776 37.739 37.754 37.791 37.761 37.741 37.776 37.794 37.811 37.834 37.811 37.854 37.836 37.871 37.934 37.944 37.976 37.964 37.969 37.986 37.999 38.006 38.011 38.016 38.026 38.059 38.061 38.099 38.099 38.076 38.061 38.131 38.124 38.139 38.129 38.174 38.171 38.154 38.154 38.141 38.154 38.184 38.121 38.136 38.184 38.204 38.229 38.264 38.314 38.344 38.369 38.429 38.486 38.499 38.549 38.586 38.586 38.649 38.709 38.771 38.796 38.831 38.871 38.946 38.954 38.949 38.996 39.056 39.099 39.116 39.119 39.141 39.136 39.111 39.126 39.116 39.129 39.149 39.141 39.129 39.139 39.176 39.186 39.191 39.216 39.261 39.266 39.256 39.259 39.304 39.309 39.364 39.409 39.424 39.451 39.474 39.506 39.569 39.569 39.581 39.581 39.591 39.636 39.664 39.666 39.766 39.826 39.879 39.946 39.969 40.019 40.084 40.124 40.219 40.269 40.324 40.371 40.429 40.499 40.569 40.561 40.596 40.639 40.674 40.709 40.776 40.844 40.901 40.979 40.969 41.024 41.044 41.069 41.074 41.149 41.186 41.209 41.264 41.239 41.271 41.259 41.309 41.294 41.301 41.356 41.399 41.411 41.416 41.429 41.456 41.464 41.474 41.476 41.474 41.479 41.466 41.496 41.451 41.479 41.504 41.484 41.499 41.506 41.524 41.551 41.589 41.569 41.611 41.589 41.586 41.616 41.649 41.679 41.674 41.696 41.686 41.691 41.686 41.689 41.681 41.681 41.696 41.696 41.682 41.707 41.659 41.719 41.694 41.717 41.702 41.707 41.727 41.717 41.737 41.772 41.792 41.834 41.907 41.929 41.954 42.014 42.014 42.069 42.072 42.082 42.084 42.074 42.097 42.084 42.059 42.112 42.162 42.159 42.369 43.534 43.719 44.972 45.534 44.119 42.422 42.142 42.109 42.099 42.032 42.042 42.099 42.162 42.229 42.272 42.334 42.319 42.334 42.322 42.317 42.304 42.319 42.314 42.324 42.324 42.329 42.327 42.322 42.332 42.342 42.314 42.317 42.302 42.299 42.294 42.307 42.317 42.309 42.344 42.347 42.362 42.367 42.337 42.312 42.324 42.314 42.294 42.257 42.214 42.184 42.179 42.139 42.129 42.109 42.094 42.079 42.064 42.059 42.039 42.022 42.017 41.979 41.974 41.937 41.922 41.902 41.919 41.879 41.922 41.922 41.932 41.917 41.959 41.954 41.969 42.002 41.979 42.012 42.042 42.069 42.117 42.119 42.172 42.194 42.229 42.257 42.264 42.312 42.317 42.292 42.272 42.274 42.264 42.239 42.242 42.229 42.202 42.252 42.234 42.289 42.292 42.322 42.312 42.367 42.407 42.419 42.437 42.492 42.539 42.557 42.627 42.697 42.699 42.787 42.819 42.849 42.902 42.919 42.972 43.002 43.069 43.099 43.137 43.207 43.242 43.202 43.274 43.284 43.299 43.354 43.382 43.414 43.424 43.417 43.439 43.452 43.462 43.462 43.509 43.592 43.604 43.649 43.687 43.744 43.792 43.839 43.862 43.922 43.957 43.964 43.982 44.032 44.084 44.114 44.124 44.179 44.172 44.202 44.174 45.354 46.282 47.124 46.737 45.024 44.999 44.974 44.934 44.944 44.939 44.947 44.947 45.007 45.004 45.074 45.102 45.067 45.112 45.152
37.434 37.411 37.389 37.359 37.344 37.329 37.319 37.304 37.281 37.244 37.189 37.106 37.004 37.856 39.354 38.399 38.021 37.816 38.384 39.201 37.864 37.349 37.349 37.351 37.434 37.436 37.389 37.421 37.471 37.546 37.564 37.531 37.514 37.489 37.496 37.471 37.499 37.436 37.484 37.441 37.444 37.459 37.479 37.499 37.476 37.504 37.519 37.524 37.551 37.599 37.624 37.664 37.639 37.659 37.636 37.639 37.696 37.676 37.664 37.659 37.656 37.689 37.719 37.721 37.736 37.724 37.766 37.764 37.766 37.769 37.769 37.784 37.781 37.784 37.774 37.754 37.749 37.726 37.774 37.806 37.814 37.851 37.896 37.936 37.979 38.014 38.031 38.061 38.106 38.141 38.201 38.244 38.254 38.336 38.399 38.419 38.439 38.484 38.506 38.579 38.566 38.599 38.619 38.674 38.656 38.686 38.726 38.746 38.726 38.754 38.721 38.734 38.749 38.729 38.729 38.731 38.749 38.761 38.764 38.799 38.811 38.804 38.841 38.889 38.899 38.911 38.944 39.006 39.016 39.039 39.071 39.134 39.139 39.166 39.186 39.169 39.156 39.181 39.246 39.279 39.331 39.394 39.469 39.526 39.569 39.624 39.669 39.724 39.816 39.856 39.874 39.951 40.024 40.071 40.121 40.149 40.144 40.194 40.214 40.284 40.364 40.409 40.444 40.504 40.531 40.591 40.629 40.644 40.686 40.726 40.776 40.801 40.829 40.811 40.831 40.831 40.851 40.879 40.876 40.889 40.931 40.951 40.961 40.969 40.989 40.991 41.034 41.011 40.989 40.984 41.019 41.029 41.041 41.059 41.054 41.084 41.099 41.091 41.056 41.091 41.124 41.151 41.146 41.169 41.186 41.204 41.229 41.249 41.256 41.284 41.291 41.274 41.254 41.254 41.284 41.246 41.259 41.249 41.274 41.242 41.202 41.267 41.279 41.289 41.269 41.282 41.284 41.307 41.322 41.337 41.359 41.414 41.464 41.492 41.524 41.529 41.609 41.584 41.624 41.659 41.639 41.664 41.652 41.662 41.652 41.657 41.699 41.724 41.742 41.842 42.424 45.929 45.394 42.159 42.842 41.672 41.562 41.472 41.417 41.447 41.489 41.547 41.667 41.769 41.839 41.859 41.889 41.909 41.909 41.904 41.912 41.909 41.927 41.942 41.937 41.934 41.927 41.937 41.944 41.957 41.942 41.912 41.947 41.969 41.949 41.967 41.989 41.977 41.959 41.964 41.974 41.959 41.952 41.924 41.917 41.912 41.879 41.857 41.869 41.819 41.752 41.704 41.689 41.654 41.647 41.637 41.629 41.619 41.567 41.539 41.489 41.484 41.464 41.432 41.444 41.447 41.417 41.422 41.467 41.469 41.477 41.494 41.467 41.542 41.559 41.532 41.564 41.574 41.619 41.637 41.667 41.742 41.739 41.779 41.799 41.844 41.847 41.847 41.842 41.847 41.827 41.847 41.832 41.819 41.849 41.839 41.837 41.832 41.852 41.887 41.917 41.919 41.942 41.987 41.974 42.034 42.067 42.069 42.132 42.167 42.214 42.244 42.314 42.384 42.394 42.434 42.467 42.517 42.552 42.634 42.669 42.707 42.737 42.749 42.797 42.804 42.867 42.857 42.854 42.887 42.927 42.929 42.929 42.937 42.967 42.967 42.984 43.047 43.082 43.132 43.189 43.232 43.257 43.307 43.349 43.352 43.422 43.447 43.467 43.552 43.547 43.584 43.632 43.652 43.694 43.714 43.732 43.712 44.014 45.752 46.754 46.589 44.682 44.572 44.559 44.512 44.532 44.512 44.479 44.444 44.504 44.534 44.587 44.569 44.572 44.599 44.637
37.141 37.139 37.126 37.101 37.074 37.031 37.029 37.024 37.031 36.976 36.906 36.851 36.714 37.234 39.106 38.484 37.769 37.554 37.756 38.809 37.821 37.016 37.064 37.039 37.071 37.086 37.099 37.121 37.156 37.194 37.234 37.234 37.229 37.239 37.236 37.204 37.149 37.136 37.139 37.104 37.146 37.124 37.129 37.144 37.156 37.144 37.156 37.194 37.224 37.251 37.289 37.314 37.316 37.331 37.329 37.311 37.309 37.334 37.334 37.319 37.296 37.331 37.349 37.354 37.374 37.356 37.369 37.376 37.384 37.376 37.389 37.401 37.396 37.406 37.414 37.404 37.404 37.386 37.401 37.424 37.449 37.489 37.539 37.574 37.596 37.626 37.661 37.691 37.691 37.754 37.811 37.834 37.894 37.946 37.981 38.006 38.029 38.081 38.091 38.099 38.154 38.199 38.246 38.256 38.254 38.239 38.296 38.334 38.311 38.314 38.326 38.354 38.359 38.329 38.351 38.339 38.356 38.359 38.366 38.379 38.419 38.401 38.426 38.454 38.466 38.494 38.551 38.594 38.594 38.609 38.624 38.714 38.716 38.766 38.759 38.796 38.796 38.836 38.879 38.894 38.911 38.969 39.031 39.071 39.141 39.186 39.244 39.309 39.394 39.424 39.484 39.526 39.614 39.646 39.706 39.726 39.754 39.771 39.799 39.879 39.911 39.979 40.029 40.069 40.091 40.131 40.176 40.219 40.271 40.316 40.346 40.361 40.419 40.454 40.466 40.459 40.441 40.441 40.469 40.459 40.479 40.496 40.519 40.539 40.549 40.544 40.574 40.536 40.564 40.554 40.591 40.576 40.589 40.601 40.641 40.644 40.651 40.671 40.661 40.654 40.694 40.734 40.726 40.749 40.786 40.781 40.806 40.829 40.841 40.841 40.819 40.839 40.841 40.851 40.816 40.824 40.831 40.834 40.814 40.812 40.769 40.809 40.817 40.839 40.844 40.814 40.837 40.867 40.882 40.884 40.927 40.974 41.009 41.042 41.102 41.112 41.157 41.174 41.192 41.239 41.224 41.219 41.194 41.192 41.237 41.254 41.262 41.284 41.319 41.374 42.669 46.149 42.414 40.974 41.342 41.002 40.904 40.784 40.752 40.719 40.792 40.909 41.107 41.247 41.337 41.414 41.462 41.527 41.529 41.564 41.559 41.549 41.567 41.577 41.577 41.554 41.539 41.577 41.589 41.564 41.572 41.567 41.602 41.614 41.597 41.599 41.602 41.569 41.589 41.597 41.572 41.559 41.544 41.514 41.489 41.542 41.474 41.447 41.429 41.399 41.347 41.284 41.269 41.224 41.189 41.162 41.159 41.134 41.094 41.074 41.027 41.012 40.992 40.999 40.982 40.984 40.972 40.977 40.989 41.009 41.014 41.034 41.042 41.062 41.079 41.064 41.112 41.132 41.144 41.149 41.217 41.232 41.279 41.347 41.374 41.359 41.389 41.389 41.387 41.374 41.379 41.382 41.399 41.379 41.407 41.407 41.399 41.417 41.454 41.452 41.494 41.534 41.549 41.532 41.562 41.574 41.622 41.634 41.684 41.697 41.734 41.784 41.812 41.869 41.927 41.974 42.012 42.074 42.107 42.144 42.194 42.244 42.302 42.312 42.354 42.367 42.404 42.392 42.407 42.422 42.437 42.457 42.489 42.517 42.482 42.539 42.582 42.612 42.649 42.684 42.742 42.764 42.812 42.837 42.849 42.912 42.949 42.962 43.014 43.047 43.072 43.112 43.154 43.204 43.227 43.247 43.264 43.272 43.232 44.359 46.122 46.259 44.524 44.152 44.129 44.077 44.057 44.044 44.032 44.004 44.042 44.082 44.072 44.097 44.124 44.137 44.177
36.889 36.861 36.836 36.806 36.779 36.761 36.759 36.741 36.719 36.726 36.629 36.571 36.449 36.661 38.469 38.229 37.506 37.321 37.171 38.671 37.951 36.719 36.759 36.754 36.766 36.831 36.796 36.846 36.851 36.874 36.924 36.924 36.929 36.921 36.904 36.906 36.869 36.826 36.806 36.801 36.836 36.831 36.806 36.819 36.874 36.824 36.816 36.849 36.879 36.899 36.946 36.961 36.949 36.959 36.976 36.989 36.981 36.989 36.964 36.956 36.986 36.959 36.991 37.004 37.004 36.994 36.999 36.979 36.999 36.984 36.996 36.996 37.009 36.996 37.009 36.996 37.026 36.994 37.019 37.086 37.071 37.104 37.166 37.214 37.236 37.249 37.311 37.314 37.341 37.391 37.449 37.474 37.511 37.554 37.624 37.659 37.649 37.689 37.731 37.736 37.799 37.829 37.811 37.856 37.871 37.879 37.934 37.944 37.906 37.904 37.919 37.914 37.966 37.959 37.954 37.936 37.926 37.971 37.964 37.991 38.014 37.994 38.021 38.066 38.084 38.104 38.156 38.174 38.194 38.179 38.201 38.236 38.296 38.339 38.366 38.394 38.381 38.429 38.471 38.531 38.576 38.601 38.641 38.691 38.726 38.771 38.814 38.896 38.964 39.014 39.076 39.139 39.181 39.251 39.289 39.321 39.334 39.354 39.381 39.464 39.539 39.576 39.576 39.611 39.666 39.709 39.751 39.814 39.834 39.876 39.911 39.944 39.996 39.986 39.984 40.011 40.026 40.026 40.066 40.054 40.076 40.076 40.109 40.139 40.101 40.131 40.116 40.131 40.139 40.144 40.161 40.151 40.174 40.169 40.211 40.219 40.241 40.261 40.261 40.254 40.286 40.316 40.329 40.336 40.356 40.359 40.379 40.414 40.411 40.414 40.396 40.399 40.391 40.409 40.409 40.401 40.389 40.394 40.389 40.372 40.344 40.369 40.359 40.387 40.384 40.407 40.399 40.397 40.442 40.482 40.489 40.519 40.589 40.629 40.634 40.699 40.714 40.754 40.779 40.774 40.792 40.784 40.809 40.779 40.779 40.824 40.867 40.884 40.917 41.002 43.464 48.229 46.564 42.347 41.172 40.382 40.307 40.147 40.114 40.087 40.152 40.262 40.449 40.662 40.837 40.927 41.019 41.104 41.142 41.137 41.127 41.174 41.149 41.142 41.112 41.152 41.154 41.179 41.172 41.172 41.169 41.159 41.172 41.179 41.164 41.189 41.197 41.172 41.157 41.182 41.147 41.132 41.097 41.094 41.087 41.067 41.049 41.034 40.992 40.972 40.912 40.897 40.882 40.832 40.802 40.779 40.774 40.707 40.662 40.662 40.607 40.579 40.554 40.522 40.492 40.499 40.537 40.517 40.547 40.584 40.564 40.554 40.564 40.604 40.582 40.624 40.632 40.659 40.652 40.722 40.744 40.794 40.837 40.874 40.882 40.912 40.959 40.939 40.944 40.952 40.972 40.964 40.969 40.972 40.979 40.999 40.994 41.039 41.059 41.074 41.079 41.099 41.134 41.172 41.172 41.194 41.197 41.229 41.269 41.284 41.307 41.364 41.404 41.447 41.467 41.537 41.572 41.624 41.714 41.732 41.757 41.834 41.859 41.867 41.929 41.919 41.919 41.954 41.987 42.012 42.014 42.077 42.037 42.079 42.077 42.107 42.144 42.179 42.242 42.254 42.264 42.352 42.359 42.384 42.399 42.427 42.467 42.484 42.537 42.567 42.579 42.639 42.684 42.737 42.774 42.794 42.809 42.819 42.744 43.694 45.869 46.332 45.814 43.887 43.714 43.702 43.629 43.637 43.599 43.587 43.549 43.552 43.572 43.629 43.644 43.649 43.664
36.619 36.626 36.581 36.559 36.499 36.501 36.486 36.464 36.464 36.446 36.396 36.306 36.181 36.159 37.969 38.139 37.276 37.086 36.839 38.351 37.994 36.504 36.421 36.454 36.474 36.476 36.469 36.489 36.559 36.604 36.651 36.631 36.654 36.631 36.604 36.569 36.569 36.536 36.494 36.484 36.476 36.509 36.499 36.524 36.519 36.479 36.501 36.509 36.556 36.596 36.616 36.599 36.596 36.631 36.624 36.626 36.611 36.656 36.624 36.601 36.589 36.624 36.664 36.664 36.641 36.649 36.659 36.666 36.661 36.649 36.651 36.649 36.614 36.636 36.641 36.634 36.634 36.636 36.664 36.699 36.739 36.764 36.789 36.831 36.896 36.899 36.924 36.961 36.989 37.041 37.081 37.131 37.151 37.196 37.266 37.294 37.296 37.331 37.361 37.394 37.416 37.429 37.416 37.454 37.466 37.461 37.516 37.529 37.506 37.496 37.539 37.541 37.526 37.526 37.561 37.546 37.554 37.569 37.554 37.634 37.644 37.636 37.651 37.674 37.681 37.724 37.721 37.784 37.801 37.794 37.821 37.859 37.881 37.949 37.979 38.011 37.981 38.014 38.084 38.139 38.179 38.234 38.261 38.294 38.361 38.376 38.424 38.484 38.569 38.604 38.656 38.681 38.771 38.821 38.841 38.881 38.924 38.946 38.996 39.039 39.084 39.124 39.151 39.191 39.251 39.294 39.326 39.371 39.444 39.444 39.491 39.541 39.564 39.579 39.564 39.594 39.596 39.606 39.616 39.624 39.639 39.681 39.691 39.686 39.699 39.669 39.709 39.691 39.699 39.714 39.714 39.756 39.766 39.774 39.784 39.794 39.836 39.819 39.844 39.894 39.856 39.916 39.936 39.951 39.959 39.956 39.979 39.969 39.979 39.989 39.996 39.986 39.974 39.986 40.001 39.964 39.964 39.974 39.979 39.957 39.927 39.964 39.934 39.962 39.982 39.967 39.959 39.994 40.012 40.037 40.069 40.119 40.159 40.177 40.209 40.257 40.262 40.292 40.342 40.329 40.354 40.364 40.352 40.352 40.332 40.327 40.414 40.434 40.484 40.534 41.462 46.742 46.987 43.037 39.892 39.842 39.719 39.617 39.549 39.512 39.572 39.712 39.882 40.089 40.294 40.467 40.597 40.662 40.679 40.694 40.719 40.722 40.717 40.724 40.707 40.727 40.734 40.732 40.757 40.764 40.744 40.734 40.747 40.752 40.747 40.772 40.777 40.759 40.754 40.747 40.719 40.709 40.722 40.717 40.659 40.649 40.629 40.607 40.587 40.554 40.529 40.494 40.474 40.409 40.382 40.354 40.307 40.284 40.249 40.262 40.167 40.137 40.094 40.067 40.074 40.064 40.052 40.079 40.087 40.104 40.127 40.112 40.122 40.194 40.192 40.192 40.184 40.209 40.244 40.292 40.304 40.362 40.409 40.447 40.467 40.494 40.512 40.524 40.524 40.564 40.537 40.554 40.534 40.569 40.587 40.589 40.627 40.614 40.629 40.652 40.662 40.707 40.699 40.709 40.742 40.722 40.749 40.779 40.804 40.839 40.884 40.912 40.924 40.984 41.042 41.102 41.149 41.137 41.189 41.252 41.287 41.339 41.367 41.402 41.462 41.444 41.482 41.519 41.542 41.547 41.582 41.609 41.639 41.667 41.667 41.679 41.702 41.759 41.787 41.784 41.844 41.849 41.899 41.932 41.939 41.914 41.969 42.017 42.034 42.072 42.117 42.127 42.172 42.247 42.274 42.304 42.332 42.324 42.327 42.719 45.349 45.627 45.962 45.069 43.364 43.267 43.249 43.179 43.147 43.162 43.109 43.124 43.137 43.149 43.174 43.167 43.184
36.359 36.339 36.311 36.261 36.234 36.234 36.216 36.186 36.166 36.169 36.114 36.031 35.899 35.734 37.506 37.711 37.016 36.829 36.606 37.839 37.859 36.199 36.054 36.129 36.141 36.104 36.134 36.171 36.241 36.291 36.294 36.279 36.296 36.331 36.286 36.254 36.241 36.214 36.201 36.196 36.176 36.141 36.141 36.191 36.181 36.156 36.176 36.181 36.206 36.234 36.246 36.284 36.274 36.261 36.271 36.296 36.294 36.286 36.296 36.281 36.289 36.281 36.304 36.304 36.289 36.281 36.281 36.289 36.296 36.294 36.276 36.266 36.291 36.276 36.274 36.261 36.269 36.286 36.299 36.334 36.381 36.416 36.476 36.506 36.544 36.551 36.581 36.584 36.624 36.669 36.709 36.761 36.806 36.841 36.891 36.934 36.944 36.971 37.024 37.066 37.049 37.059 37.059 37.081 37.101 37.109 37.121 37.164 37.144 37.134 37.159 37.151 37.169 37.184 37.184 37.194 37.196 37.174 37.196 37.236 37.261 37.256 37.284 37.301 37.316 37.351 37.396 37.444 37.439 37.444 37.461 37.491 37.534 37.574 37.594 37.609 37.594 37.626 37.721 37.749 37.811 37.859 37.891 37.919 37.966 38.036 38.031 38.096 38.141 38.194 38.234 38.281 38.341 38.389 38.446 38.464 38.524 38.521 38.574 38.614 38.684 38.714 38.789 38.821 38.864 38.896 38.956 38.981 39.011 39.041 39.071 39.086 39.119 39.131 39.154 39.146 39.151 39.196 39.199 39.194 39.206 39.226 39.254 39.274 39.284 39.264 39.279 39.276 39.279 39.276 39.316 39.309 39.326 39.354 39.396 39.406 39.376 39.401 39.429 39.479 39.481 39.506 39.511 39.539 39.561 39.574 39.569 39.584 39.596 39.576 39.614 39.591 39.591 39.599 39.576 39.564 39.554 39.546 39.564 39.507 39.524 39.547 39.579 39.567 39.584 39.572 39.574 39.602 39.632 39.647 39.667 39.694 39.732 39.769 39.797 39.877 39.889 39.897 39.919 39.909 39.947 39.929 39.949 39.947 39.914 39.942 39.994 39.979 39.939 39.952 39.822 43.194 44.689 39.244 39.327 39.304 39.192 39.127 39.027 39.044 39.077 39.167 39.372 39.564 39.844 40.034 40.142 40.227 40.304 40.297 40.294 40.302 40.307 40.319 40.314 40.314 40.342 40.322 40.324 40.349 40.354 40.352 40.342 40.327 40.329 40.342 40.359 40.337 40.327 40.332 40.334 40.319 40.309 40.287 40.234 40.232 40.194 40.179 40.119 40.112 40.089 40.039 39.982 39.969 39.947 39.904 39.917 39.849 39.799 39.762 39.699 39.672 39.634 39.647 39.637 39.647 39.614 39.629 39.614 39.642 39.639 39.664 39.682 39.682 39.699 39.729 39.722 39.742 39.797 39.794 39.837 39.884 39.924 39.989 39.999 40.037 40.042 40.092 40.092 40.099 40.079 40.077 40.092 40.152 40.114 40.154 40.162 40.152 40.204 40.182 40.237 40.237 40.262 40.284 40.304 40.322 40.307 40.354 40.329 40.404 40.429 40.487 40.497 40.552 40.574 40.624 40.662 40.684 40.729 40.779 40.824 40.857 40.884 40.942 40.947 40.997 41.017 41.067 41.077 41.142 41.144 41.177 41.174 41.197 41.224 41.229 41.239 41.302 41.324 41.377 41.387 41.409 41.454 41.469 41.487 41.492 41.479 41.532 41.584 41.589 41.654 41.654 41.704 41.754 41.772 41.834 41.864 41.854 41.854 41.819 42.304 43.719 45.749 47.994 43.442 42.897 42.882 42.832 42.779 42.727 42.682 42.689 42.674 42.697 42.712 42.687 42.727
36.094 36.066 36.039 36.034 35.964 35.991 35.936 35.931 35.909 35.889 35.854 35.726 35.619 35.479 37.151 37.444 36.781 36.579 36.391 37.224 37.284 35.859 35.766 35.839 35.809 35.771 35.811 35.851 35.906 35.979 36.009 36.014 36.049 36.011 36.006 35.966 35.931 35.919 35.896 35.901 35.906 35.864 35.869 35.876 35.879 35.871 35.879 35.879 35.871 35.894 35.939 35.974 35.974 35.941 35.934 35.956 35.964 35.956 35.914 35.914 35.964 35.999 35.966 35.941 35.929 35.911 35.914 35.924 35.934 35.936 35.919 35.901 35.939 35.916 35.909 35.914 35.921 35.934 35.944 35.989 36.016 36.079 36.141 36.144 36.209 36.229 36.259 36.271 36.296 36.324 36.374 36.419 36.466 36.514 36.529 36.564 36.574 36.614 36.639 36.664 36.689 36.724 36.729 36.736 36.729 36.711 36.744 36.761 36.806 36.771 36.769 36.799 36.789 36.799 36.804 36.819 36.821 36.841 36.824 36.849 36.884 36.874 36.884 36.889 36.931 36.971 36.999 37.071 37.081 37.081 37.099 37.116 37.149 37.184 37.221 37.226 37.224 37.271 37.324 37.366 37.409 37.466 37.494 37.521 37.579 37.631 37.684 37.729 37.791 37.821 37.866 37.906 37.946 38.004 38.054 38.094 38.131 38.119 38.211 38.234 38.271 38.326 38.366 38.421 38.459 38.519 38.544 38.619 38.634 38.646 38.674 38.706 38.739 38.741 38.751 38.741 38.766 38.784 38.759 38.799 38.764 38.801 38.809 38.841 38.849 38.844 38.854 38.856 38.864 38.861 38.874 38.899 38.916 38.939 38.951 38.981 38.991 39.009 39.011 39.064 39.066 39.091 39.114 39.131 39.114 39.139 39.139 39.146 39.181 39.176 39.169 39.176 39.159 39.151 39.159 39.121 39.131 39.134 39.139 39.097 39.109 39.142 39.157 39.182 39.187 39.204 39.199 39.197 39.224 39.264 39.262 39.312 39.357 39.397 39.427 39.447 39.467 39.487 39.519 39.537 39.537 39.549 39.564 39.557 39.522 39.564 39.604 39.612 39.659 39.474 40.327 41.167 41.497 38.779 38.757 38.787 38.754 38.712 38.669 38.672 38.694 38.814 38.952 39.147 39.419 39.634 39.767 39.854 39.904 39.919 39.919 39.934 39.897 39.917 39.939 39.924 39.914 39.997 39.957 39.969 39.962 39.977 39.949 39.924 39.937 39.944 39.927 39.934 39.927 39.914 39.872 39.839 39.834 39.807 39.764 39.764 39.737 39.689 39.669 39.609 39.589 39.574 39.519 39.512 39.484 39.437 39.452 39.429 39.389 39.329 39.262 39.222 39.209 39.194 39.174 39.172 39.144 39.177 39.169 39.184 39.162 39.197 39.204 39.254 39.232 39.277 39.297 39.304 39.339 39.369 39.389 39.427 39.472 39.507 39.572 39.567 39.602 39.614 39.619 39.679 39.652 39.657 39.667 39.687 39.709 39.722 39.732 39.727 39.767 39.774 39.807 39.829 39.829 39.852 39.854 39.904 39.879 39.904 39.937 39.939 39.937 40.012 40.079 40.117 40.119 40.177 40.214 40.257 40.292 40.359 40.367 40.422 40.474 40.497 40.517 40.549 40.554 40.624 40.609 40.674 40.702 40.729 40.742 40.749 40.794 40.794 40.784 40.829 40.909 40.929 40.974 40.989 40.997 41.007 41.004 40.987 41.022 41.037 41.067 41.099 41.127 41.172 41.189 41.222 41.252 41.302 41.329 41.332 41.369 41.337 41.319 41.684 44.482 46.004 44.469 43.084 42.492 42.474 42.409 42.332 42.259 42.244 42.204 42.239 42.224 42.219 42.247
35.814 35.841 35.784 35.766 35.724 35.686 35.674 35.651 35.624 35.579 35.546 35.434 35.329 35.191 37.011 37.436 36.531 36.339 36.204 36.314 36.091 35.684 35.556 35.541 35.559 35.551 35.534 35.539 35.601 35.656 35.709 35.764 35.754 35.744 35.699 35.664 35.656 35.609 35.574 35.571 35.579 35.576 35.569 35.531 35.511 35.546 35.504 35.564 35.531 35.586 35.621 35.664 35.686 35.676 35.624 35.631 35.604 35.619 35.621 35.629 35.631 35.639 35.654 35.639 35.639 35.611 35.574 35.581 35.556 35.589 35.584 35.544 35.581 35.581 35.574 35.564 35.571 35.574 35.594 35.641 35.676 35.724 35.744 35.789 35.841 35.881 35.919 35.906 35.941 35.976 36.016 36.044 36.084 36.134 36.169 36.186 36.216 36.224 36.254 36.324 36.324 36.361 36.376 36.416 36.406 36.406 36.424 36.429 36.441 36.439 36.461 36.459 36.469 36.446 36.449 36.471 36.474 36.489 36.466 36.461 36.521 36.516 36.541 36.541 36.559 36.601 36.646 36.686 36.731 36.704 36.719 36.776 36.764 36.831 36.861 36.866 36.869 36.896 36.956 36.986 37.019 37.064 37.129 37.174 37.189 37.239 37.286 37.326 37.391 37.449 37.469 37.544 37.566 37.634 37.661 37.694 37.726 37.726 37.786 37.824 37.876 37.926 38.006 38.031 38.051 38.106 38.124 38.186 38.214 38.239 38.279 38.306 38.344 38.341 38.376 38.386 38.376 38.374 38.401 38.401 38.414 38.431 38.424 38.421 38.429 38.446 38.431 38.434 38.469 38.449 38.476 38.486 38.506 38.529 38.549 38.566 38.599 38.549 38.596 38.631 38.659 38.656 38.676 38.716 38.674 38.679 38.716 38.716 38.741 38.726 38.761 38.736 38.751 38.736 38.734 38.706 38.724 38.721 38.714 38.709 38.687 38.739 38.759 38.784 38.792 38.822 38.822 38.814 38.827 38.887 38.869 38.912 38.959 38.994 39.024 39.062 39.064 39.089 39.082 39.139 39.144 39.154 39.129 39.122 39.109 39.114 39.149 39.167 39.177 40.507 42.034 42.359 42.159 41.272 38.842 38.367 38.492 38.464 38.452 38.452 38.499 38.552 38.657 38.849 39.059 39.252 39.379 39.457 39.504 39.537 39.497 39.517 39.509 39.477 39.492 39.507 39.524 39.557 39.529 39.539 39.512 39.489 39.507 39.494 39.492 39.512 39.464 39.474 39.434 39.414 39.414 39.409 39.364 39.339 39.327 39.314 39.279 39.219 39.219 39.189 39.137 39.122 39.107 39.039 39.052 39.032 39.019 38.987 38.947 38.897 38.824 38.797 38.787 38.749 38.737 38.732 38.719 38.722 38.712 38.709 38.757 38.769 38.777 38.789 38.807 38.804 38.837 38.894 38.904 38.954 38.967 39.009 39.042 39.069 39.129 39.142 39.194 39.184 39.202 39.219 39.242 39.254 39.257 39.272 39.294 39.309 39.329 39.337 39.354 39.389 39.399 39.404 39.452 39.447 39.434 39.439 39.462 39.479 39.527 39.517 39.559 39.557 39.597 39.642 39.682 39.699 39.749 39.814 39.854 39.897 39.934 39.944 39.989 40.014 40.014 40.042 40.049 40.112 40.162 40.212 40.229 40.269 40.227 40.279 40.312 40.324 40.372 40.382 40.387 40.474 40.492 40.552 40.552 40.564 40.587 40.572 40.592 40.547 40.587 40.642 40.662 40.689 40.707 40.729 40.744 40.804 40.819 40.844 40.869 40.894 40.862 40.777 41.394 43.207 43.899 42.769 42.187 42.042 42.009 41.929 41.874 41.827 41.797 41.802 41.777 41.747 41.792
35.559 35.571 35.531 35.499 35.451 35.411 35.359 35.344 35.321 35.296 35.249 35.151 35.061 34.944 36.046 37.226 36.219 36.129 36.011 35.839 35.789 35.704 35.454 35.404 35.376 35.346 35.321 35.381 35.371 35.384 35.461 35.491 35.474 35.464 35.451 35.439 35.391 35.354 35.319 35.304 35.291 35.271 35.276 35.274 35.256 35.286 35.284 35.276 35.284 35.279 35.339 35.349 35.339 35.361 35.339 35.341 35.329 35.301 35.329 35.344 35.316 35.324 35.354 35.349 35.354 35.339 35.339 35.289 35.276 35.261 35.214 35.196 35.214 35.244 35.234 35.234 35.251 35.256 35.296 35.326 35.366 35.409 35.434 35.489 35.526 35.549 35.594 35.619 35.641 35.649 35.679 35.729 35.766 35.769 35.814 35.844 35.846 35.894 35.929 35.954 35.974 35.984 36.021 36.059 36.069 36.044 36.091 36.106 36.086 36.131 36.114 36.114 36.134 36.164 36.159 36.174 36.174 36.174 36.121 36.111 36.151 36.179 36.181 36.196 36.214 36.256 36.304 36.341 36.354 36.369 36.386 36.421 36.441 36.489 36.516 36.541 36.529 36.546 36.611 36.634 36.651 36.711 36.756 36.789 36.839 36.871 36.919 36.966 37.009 37.029 37.056 37.131 37.171 37.261 37.289 37.309 37.339 37.356 37.406 37.436 37.496 37.536 37.601 37.606 37.646 37.696 37.729 37.774 37.811 37.854 37.894 37.906 37.956 37.949 37.941 37.961 37.921 37.951 37.986 37.989 38.036 38.036 38.051 38.036 38.014 38.024 38.009 38.056 38.056 38.079 38.091 38.104 38.116 38.169 38.156 38.174 38.166 38.176 38.214 38.239 38.244 38.249 38.251 38.294 38.274 38.274 38.296 38.301 38.349 38.359 38.351 38.334 38.321 38.339 38.326 38.344 38.299 38.311 38.312 38.327 38.317 38.382 38.404 38.424 38.437 38.442 38.449 38.477 38.502 38.519 38.514 38.537 38.547 38.627 38.609 38.642 38.684 38.694 38.717 38.747 38.724 38.714 38.699 38.672 38.657 38.719 38.717 38.717 38.937 41.087 42.089 42.394 42.377 39.059 37.889 38.057 38.184 38.264 38.277 38.272 38.279 38.377 38.464 38.592 38.777 38.882 39.019 39.077 39.119 39.132 39.097 39.092 39.077 39.087 39.079 39.079 39.092 39.117 39.102 39.087 39.097 39.097 39.082 39.072 39.067 39.072 39.042 39.059 39.024 39.014 38.982 38.957 38.949 38.924 38.874 38.842 38.824 38.792 38.744 38.729 38.677 38.644 38.609 38.599 38.562 38.534 38.547 38.479 38.472 38.434 38.417 38.362 38.369 38.344 38.327 38.332 38.302 38.317 38.347 38.352 38.349 38.354 38.334 38.357 38.369 38.382 38.424 38.472 38.469 38.512 38.539 38.597 38.627 38.629 38.652 38.704 38.714 38.737 38.794 38.814 38.819 38.807 38.822 38.852 38.867 38.887 38.894 38.924 38.917 38.909 38.947 38.969 38.989 38.989 38.984 38.979 38.992 39.027 39.057 39.057 39.069 39.094 39.132 39.162 39.242 39.234 39.294 39.322 39.349 39.429 39.452 39.504 39.527 39.539 39.572 39.597 39.617 39.639 39.684 39.732 39.757 39.779 39.809 39.827 39.869 39.884 39.927 39.949 39.974 40.039 40.042 40.097 40.134 40.107 40.132 40.167 40.134 40.129 40.139 40.179 40.184 40.212 40.207 40.252 40.239 40.297 40.324 40.374 40.404 40.399 40.384 40.322 40.252 40.902 42.104 42.009 41.842 41.769 41.672 41.639 41.559 41.479 41.402 41.422 41.349 41.329 41.309
35.286 35.281 35.244 35.221 35.181 35.116 35.071 35.029 35.009 34.986 34.926 34.856 34.776 34.621 35.114 36.851 36.154 35.921 35.761 35.626 36.561 36.584 35.694 35.279 35.174 35.129 35.124 35.111 35.109 35.134 35.174 35.219 35.181 35.151 35.114 35.089 35.064 35.031 34.976 34.971 34.956 34.956 34.941 34.971 34.951 34.941 34.936 34.934 34.976 34.981 35.001 35.006 35.019 35.001 35.024 35.024 35.029 35.009 35.034 35.001 34.984 35.024 35.046 35.009 35.024 35.001 34.991 35.001 34.949 34.964 34.946 34.931 34.921 34.906 34.929 34.924 34.926 34.944 34.966 34.984 35.009 35.061 35.099 35.124 35.176 35.226 35.256 35.281 35.294 35.336 35.374 35.381 35.394 35.474 35.494 35.484 35.516 35.561 35.574 35.609 35.636 35.674 35.706 35.716 35.729 35.719 35.721 35.769 35.754 35.761 35.756 35.791 35.814 35.844 35.846 35.871 35.861 35.871 35.826 35.831 35.846 35.841 35.824 35.834 35.844 35.899 35.946 35.979 36.009 36.031 36.044 36.069 36.081 36.101 36.161 36.181 36.176 36.234 36.261 36.294 36.339 36.376 36.419 36.436 36.469 36.514 36.529 36.574 36.641 36.656 36.704 36.769 36.809 36.859 36.879 36.914 36.964 36.986 37.026 37.071 37.124 37.201 37.211 37.259 37.286 37.301 37.346 37.381 37.421 37.461 37.489 37.516 37.541 37.549 37.536 37.564 37.546 37.554 37.566 37.581 37.609 37.619 37.624 37.626 37.611 37.616 37.631 37.636 37.666 37.654 37.691 37.711 37.696 37.729 37.734 37.754 37.779 37.784 37.774 37.799 37.821 37.831 37.836 37.844 37.874 37.864 37.889 37.911 37.944 37.959 37.949 37.941 37.936 37.931 37.949 37.956 37.931 37.949 37.957 37.952 37.977 38.022 38.067 38.072 38.112 38.124 38.132 38.129 38.147 38.152 38.164 38.184 38.209 38.214 38.277 38.257 38.282 38.344 38.344 38.339 38.297 38.329 38.319 38.279 38.274 38.282 38.294 38.282 39.144 40.632 41.347 41.772 42.002 40.309 37.609 37.799 37.969 38.087 38.124 38.172 38.174 38.214 38.299 38.419 38.487 38.592 38.704 38.752 38.767 38.769 38.732 38.714 38.707 38.709 38.699 38.689 38.704 38.732 38.734 38.697 38.697 38.699 38.664 38.672 38.679 38.659 38.637 38.594 38.602 38.567 38.552 38.519 38.492 38.432 38.397 38.397 38.347 38.297 38.277 38.252 38.219 38.192 38.129 38.144 38.117 38.082 38.077 38.072 38.032 38.019 38.002 37.954 37.932 37.904 37.919 37.902 37.894 37.889 37.907 37.907 37.914 37.924 37.937 37.959 37.964 38.002 38.029 38.049 38.042 38.082 38.072 38.134 38.184 38.197 38.234 38.269 38.267 38.317 38.362 38.372 38.394 38.427 38.444 38.447 38.467 38.497 38.467 38.494 38.512 38.532 38.512 38.569 38.567 38.559 38.564 38.579 38.579 38.569 38.584 38.614 38.654 38.674 38.689 38.724 38.794 38.829 38.842 38.882 38.894 38.927 38.982 39.002 39.012 39.059 39.079 39.119 39.147 39.137 39.192 39.214 39.252 39.264 39.297 39.377 39.357 39.397 39.422 39.464 39.537 39.577 39.579 39.632 39.644 39.629 39.684 39.689 39.684 39.662 39.684 39.707 39.704 39.724 39.752 39.792 39.789 39.852 39.877 39.887 39.902 39.904 39.914 39.874 39.849 39.787 40.279 41.472 42.512 41.582 41.499 41.249 41.204 41.132 41.034 41.002 40.962 40.892 40.874
34.991 35.009 34.976 34.921 34.856 34.814 34.774 34.764 34.764 34.714 34.634 34.536 34.449 34.374 34.306 36.169 36.414 35.754 35.534 35.431 35.769 36.864 36.056 35.301 35.034 34.974 34.931 34.886 34.839 34.881 34.874 34.901 34.879 34.849 34.839 34.809 34.746 34.729 34.709 34.694 34.649 34.641 34.636 34.601 34.574 34.581 34.569 34.621 34.606 34.614 34.649 34.669 34.646 34.659 34.664 34.681 34.689 34.664 34.666 34.669 34.651 34.716 34.709 34.676 34.689 34.661 34.646 34.634 34.626 34.624 34.624 34.624 34.616 34.619 34.609 34.606 34.579 34.616 34.606 34.651 34.649 34.701 34.701 34.769 34.841 34.864 34.899 34.919 34.941 34.994 34.999 35.031 35.074 35.079 35.114 35.124 35.154 35.159 35.181 35.214 35.259 35.281 35.314 35.369 35.354 35.356 35.366 35.389 35.384 35.421 35.451 35.491 35.516 35.559 35.569 35.579 35.584 35.549 35.544 35.521 35.514 35.494 35.506 35.524 35.534 35.579 35.591 35.636 35.656 35.651 35.729 35.739 35.729 35.786 35.801 35.811 35.831 35.864 35.929 35.949 35.991 36.024 36.046 36.091 36.124 36.161 36.164 36.219 36.274 36.299 36.319 36.374 36.419 36.481 36.519 36.561 36.604 36.611 36.671 36.721 36.774 36.826 36.856 36.886 36.909 36.956 37.009 37.054 37.049 37.101 37.111 37.136 37.189 37.164 37.164 37.191 37.164 37.169 37.196 37.211 37.204 37.209 37.219 37.231 37.216 37.211 37.229 37.224 37.246 37.234 37.271 37.279 37.314 37.311 37.334 37.359 37.359 37.369 37.361 37.384 37.404 37.431 37.424 37.449 37.446 37.446 37.441 37.476 37.514 37.504 37.516 37.511 37.549 37.569 37.524 37.554 37.541 37.559 37.604 37.622 37.639 37.682 37.724 37.719 37.759 37.767 37.792 37.777 37.819 37.799 37.809 37.837 37.882 37.887 37.904 37.927 37.922 37.967 37.969 37.984 37.962 37.979 37.944 37.907 37.892 37.912 37.877 37.902 39.904 40.152 41.114 40.339 41.277 41.004 37.612 37.577 37.739 37.877 37.942 37.992 38.017 38.024 38.079 38.122 38.172 38.302 38.392 38.419 38.394 38.384 38.372 38.354 38.317 38.337 38.327 38.319 38.337 38.307 38.312 38.314 38.299 38.292 38.262 38.262 38.234 38.204 38.189 38.149 38.189 38.142 38.079 38.044 38.042 37.982 37.959 37.932 37.912 37.842 37.817 37.804 37.769 37.729 37.704 37.709 37.699 37.674 37.662 37.659 37.612 37.557 37.532 37.544 37.512 37.497 37.477 37.484 37.477 37.459 37.489 37.479 37.509 37.527 37.547 37.552 37.557 37.604 37.599 37.644 37.657 37.714 37.722 37.754 37.782 37.807 37.822 37.864 37.882 37.929 37.964 37.987 37.959 37.997 38.024 38.054 38.072 38.054 38.082 38.072 38.079 38.094 38.132 38.142 38.137 38.127 38.142 38.177 38.172 38.179 38.192 38.212 38.209 38.242 38.282 38.309 38.359 38.354 38.402 38.407 38.452 38.462 38.522 38.559 38.589 38.612 38.609 38.632 38.674 38.692 38.702 38.757 38.804 38.812 38.844 38.847 38.909 38.932 38.984 39.042 39.052 39.102 39.119 39.172 39.202 39.192 39.234 39.252 39.254 39.222 39.252 39.259 39.277 39.269 39.297 39.329 39.349 39.404 39.384 39.407 39.459 39.434 39.444 39.449 39.419 39.369 39.402 40.284 41.889 45.184 45.364 41.727 40.807 40.782 40.724 40.639 40.567 40.497 40.449
34.701 34.721 34.649 34.636 34.616 34.564 34.541 34.539 34.491 34.431 34.396 34.326 34.266 34.184 34.199 35.981 36.446 36.174 35.439 35.269 35.001 35.911 36.384 35.699 34.926 34.826 34.839 34.709 34.696 34.646 34.611 34.639 34.624 34.579 34.556 34.514 34.486 34.464 34.416 34.404 34.366 34.364 34.361 34.351 34.349 34.291 34.274 34.304 34.299 34.314 34.341 34.334 34.349 34.354 34.346 34.336 34.316 34.341 34.354 34.314 34.311 34.349 34.379 34.381 34.351 34.334 34.334 34.349 34.354 34.321 34.306 34.291 34.314 34.311 34.281 34.316 34.289 34.276 34.289 34.314 34.349 34.351 34.389 34.426 34.474 34.526 34.541 34.589 34.601 34.589 34.634 34.684 34.736 34.741 34.771 34.816 34.819 34.821 34.829 34.871 34.889 34.916 34.914 34.946 34.929 34.924 34.991 34.996 35.061 35.051 35.041 35.086 35.176 35.239 35.226 35.259 35.236 35.241 35.254 35.236 35.216 35.199 35.196 35.199 35.191 35.196 35.279 35.294 35.324 35.331 35.376 35.429 35.431 35.481 35.499 35.489 35.506 35.536 35.586 35.599 35.659 35.689 35.719 35.776 35.796 35.829 35.804 35.899 35.926 35.954 35.971 35.979 36.059 36.146 36.176 36.216 36.239 36.269 36.279 36.331 36.376 36.436 36.451 36.511 36.549 36.586 36.634 36.681 36.701 36.731 36.776 36.794 36.804 36.801 36.789 36.796 36.796 36.796 36.829 36.811 36.819 36.806 36.816 36.839 36.869 36.846 36.849 36.856 36.856 36.841 36.876 36.901 36.919 36.911 36.931 36.929 36.941 36.946 36.976 36.971 36.979 37.014 37.016 37.024 37.021 37.019 37.026 37.051 37.099 37.099 37.134 37.121 37.121 37.109 37.141 37.124 37.164 37.171 37.202 37.244 37.269 37.337 37.377 37.409 37.417 37.427 37.427 37.444 37.444 37.477 37.467 37.499 37.492 37.544 37.549 37.549 37.539 37.599 37.567 37.577 37.582 37.569 37.539 37.507 37.482 37.499 37.479 37.724 40.239 38.722 37.427 37.659 41.579 41.662 37.719 37.317 37.507 37.624 37.707 37.767 37.799 37.832 37.842 37.877 37.917 37.977 38.012 38.017 38.017 38.002 37.954 37.919 37.914 37.914 37.912 37.884 37.909 37.934 37.937 37.897 37.892 37.879 37.824 37.814 37.804 37.759 37.777 37.764 37.717 37.687 37.659 37.614 37.592 37.574 37.512 37.507 37.459 37.452 37.389 37.359 37.322 37.294 37.269 37.267 37.257 37.239 37.189 37.177 37.152 37.144 37.139 37.129 37.102 37.082 37.102 37.097 37.082 37.097 37.097 37.137 37.147 37.137 37.159 37.172 37.182 37.237 37.259 37.257 37.294 37.317 37.342 37.349 37.372 37.409 37.459 37.497 37.472 37.502 37.527 37.567 37.589 37.602 37.622 37.619 37.659 37.629 37.659 37.664 37.679 37.674 37.692 37.722 37.712 37.724 37.719 37.719 37.732 37.739 37.752 37.797 37.812 37.837 37.864 37.877 37.909 37.937 37.932 37.987 38.032 38.002 38.074 38.119 38.122 38.167 38.182 38.207 38.239 38.237 38.272 38.327 38.329 38.359 38.407 38.407 38.444 38.509 38.542 38.587 38.574 38.634 38.632 38.682 38.727 38.752 38.779 38.782 38.799 38.804 38.847 38.814 38.834 38.864 38.864 38.882 38.902 38.919 38.904 38.959 38.992 38.954 38.962 39.009 38.979 38.952 38.927 38.882 41.734 45.912 43.582 41.364 40.347 40.374 40.374 40.312 40.212 40.084 39.992
