ncols 377
nrows 31
xllcorner    251078
yllcorner    139246
cellsize     2
NODATA_value -9999
139.119 139.201 139.279 139.354 139.439 139.534 139.609 139.696 139.774 139.886 139.941 140.044 140.154 140.244 140.324 140.481 140.604 140.869 141.321 141.694 142.091 142.376 142.336 142.031 141.589 141.566 141.464 141.424 141.384 141.326 141.424 141.451 141.524 141.636 141.914 142.176 142.394 142.304 142.366 142.486 142.519 142.571 142.669 142.754 142.834 142.956 143.051 143.169 143.284 143.346 143.471 143.584 143.664 143.796 143.864 143.966 144.081 144.156 144.236 144.321 144.371 144.434 144.501 144.544 144.601 144.689 144.766 144.834 144.886 144.949 145.046 145.121 145.194 145.244 145.311 145.391 145.446 145.511 145.599 145.691 145.781 145.856 145.951 146.074 146.194 146.326 146.436 146.546 146.639 146.759 146.824 146.929 147.029 147.129 147.196 147.271 147.341 147.431 147.566 147.644 147.724 147.789 147.856 147.871 147.891 147.939 147.899 147.991 148.589 148.396 148.356 148.421 148.526 148.661 148.869 148.911 149.039 149.116 149.231 149.339 149.444 149.556 149.636 149.714 149.779 149.821 149.909 149.936 149.996 150.076 150.129 150.174 150.241 150.301 150.389 150.476 150.536 150.621 150.659 150.744 150.784 150.856 150.929 150.966 151.029 151.086 151.161 151.209 151.281 151.346 151.416 151.466 151.516 151.549 151.629 151.684 151.739 151.776 151.789 151.819 151.841 151.911 151.851 151.971 152.001 152.081 152.134 152.191 152.211 152.251 152.261 152.271 152.339 152.379 152.426 152.489 152.551 152.584 152.589 152.594 152.624 152.639 152.651 152.654 152.666 152.701 152.754 152.779 152.809 152.849 152.884 152.926 152.936 152.996 153.069 153.084 153.149 153.176 153.211 153.269 153.296 153.314 153.354 153.394 153.404 153.446 153.491 153.531 153.556 153.626 153.649 153.669 153.714 153.731 153.786 153.806 153.836 153.864 153.911 153.951 153.994 154.031 154.021 154.041 154.066 154.094 154.156 154.196 154.236 154.296 154.364 154.406 154.484 154.499 154.546 154.589 154.629 154.629 154.666 154.699 154.764 154.809 154.881 154.951 154.964 155.069 155.456 155.506 155.379 155.204 155.186 155.206 155.209 155.224 155.254 155.306 155.316 155.356 155.386 155.411 155.464 155.536 155.626 155.714 155.784 155.814 155.841 155.876 155.896 155.949 155.979 156.024 156.049 156.091 156.114 156.134 156.196 156.236 156.246 156.241 156.251 156.254 156.294 156.349 156.436 156.441 156.474 156.494 156.514 156.534 156.566 156.586 156.611 156.606 156.606 156.621 156.651 156.646 156.651 156.619 156.621 156.619 156.629 156.619 156.591 156.569 156.561 156.511 156.456 156.401 156.376 156.373 156.356 156.341 156.311 156.246 156.216 156.158 156.126 156.111 156.108 156.096 156.091 156.101 156.081 156.056 156.043 155.993 155.963 155.918 155.913 155.858 155.871 155.808 155.781 155.713 155.646 155.571 155.498 155.513 155.376 155.436 155.436 155.401 155.313 155.228 155.193 155.151 155.121 155.098 155.063 155.026 155.021 154.976 154.906 154.901 154.853 154.801 154.761 154.738 154.656 154.641 154.568 154.551 154.511 154.473 154.461 154.423 154.371 154.346 154.311 154.263 154.218 154.196 154.158 154.101 154.088
139.064 139.136 139.239 139.334 139.441 139.551 139.661 139.716 139.846 139.914 139.976 140.081 140.169 140.266 140.354 140.436 140.516 140.624 140.749 140.856 140.974 141.271 141.711 142.081 142.529 142.359 142.051 142.049 141.739 141.594 141.594 141.649 141.639 141.684 141.739 141.764 141.839 141.954 142.326 142.541 142.716 143.004 142.781 142.714 142.806 142.906 143.001 143.101 143.199 143.311 143.414 143.519 143.601 143.716 143.809 143.914 144.024 144.109 144.199 144.279 144.359 144.451 144.504 144.604 144.674 144.736 144.821 144.876 144.946 144.994 145.079 145.136 145.216 145.259 145.344 145.404 145.459 145.529 145.621 145.691 145.779 145.866 145.976 146.096 146.211 146.334 146.429 146.544 146.661 146.746 146.829 146.921 147.034 147.089 147.206 147.294 147.369 147.431 147.526 147.619 147.724 147.799 147.889 147.921 147.979 148.016 148.036 148.044 148.074 148.524 148.699 148.489 148.566 148.624 148.729 148.936 149.276 149.314 149.219 149.291 149.391 149.461 149.576 149.671 149.759 149.834 149.894 149.929 150.034 150.076 150.146 150.224 150.259 150.301 150.399 150.451 150.531 150.574 150.644 150.674 150.734 150.819 150.869 150.921 150.979 151.034 151.126 151.186 151.271 151.329 151.361 151.409 151.476 151.511 151.574 151.636 151.691 151.744 151.776 151.784 151.814 151.856 151.811 151.911 151.981 152.034 152.091 152.136 152.196 152.196 152.189 152.239 152.294 152.351 152.404 152.451 152.499 152.531 152.564 152.586 152.594 152.611 152.606 152.626 152.644 152.661 152.721 152.746 152.779 152.821 152.841 152.871 152.919 152.949 152.979 153.039 153.079 153.119 153.196 153.211 153.259 153.276 153.306 153.314 153.346 153.416 153.436 153.471 153.519 153.561 153.579 153.634 153.646 153.694 153.729 153.761 153.791 153.831 153.869 153.914 153.954 153.954 153.966 154.001 154.006 154.044 154.059 154.134 154.196 154.241 154.301 154.349 154.409 154.439 154.496 154.531 154.564 154.589 154.614 154.666 154.699 154.781 154.836 154.909 154.949 154.881 155.051 155.099 155.086 155.159 155.146 155.161 155.171 155.204 155.216 155.244 155.286 155.329 155.359 155.366 155.436 155.506 155.596 155.671 155.726 155.754 155.801 155.821 155.869 155.916 155.949 156.009 156.041 156.076 156.099 156.146 156.174 156.206 156.204 156.171 156.186 156.211 156.261 156.326 156.391 156.409 156.401 156.434 156.499 156.516 156.529 156.561 156.559 156.566 156.589 156.609 156.629 156.616 156.641 156.614 156.591 156.609 156.616 156.606 156.589 156.581 156.554 156.496 156.431 156.374 156.356 156.378 156.381 156.371 156.323 156.273 156.251 156.213 156.188 156.148 156.141 156.138 156.118 156.136 156.103 156.111 156.058 156.023 156.016 155.988 155.941 155.921 155.901 155.863 155.816 155.773 155.701 155.633 155.556 155.548 155.426 155.466 155.483 155.438 155.376 155.251 155.233 155.201 155.161 155.123 155.126 155.086 155.093 155.021 155.001 154.951 154.931 154.901 154.846 154.801 154.743 154.711 154.653 154.611 154.558 154.528 154.538 154.483 154.456 154.396 154.368 154.336 154.286 154.246 154.223 154.211 154.176
138.981 139.091 139.164 139.264 139.394 139.514 139.611 139.704 139.831 139.904 139.999 140.089 140.169 140.266 140.376 140.464 140.604 140.666 140.739 140.846 140.901 140.989 141.096 141.234 141.509 141.979 142.519 142.896 142.659 142.191 142.234 142.086 141.721 141.874 141.974 141.909 141.931 141.976 142.001 142.089 142.164 142.334 142.751 142.854 143.029 143.261 143.426 143.046 143.149 143.266 143.334 143.456 143.589 143.649 143.761 143.834 143.951 144.051 144.136 144.216 144.324 144.401 144.489 144.586 144.656 144.779 144.849 144.914 145.014 145.056 145.126 145.199 145.246 145.306 145.381 145.429 145.509 145.576 145.621 145.711 145.784 145.881 146.001 146.084 146.224 146.329 146.416 146.541 146.649 146.759 146.844 146.921 146.991 147.076 147.179 147.276 147.361 147.449 147.516 147.581 147.671 147.774 147.871 147.941 147.999 148.061 148.116 148.146 148.171 148.169 148.356 148.986 149.331 148.934 148.764 148.826 148.869 149.369 149.734 149.479 149.341 149.441 149.511 149.584 149.691 149.791 149.864 149.936 150.036 150.099 150.179 150.249 150.289 150.336 150.381 150.439 150.514 150.556 150.616 150.651 150.704 150.784 150.821 150.874 150.921 150.991 151.051 151.136 151.199 151.274 151.304 151.369 151.441 151.471 151.549 151.589 151.661 151.709 151.754 151.761 151.769 151.851 151.739 151.879 151.924 152.001 152.046 152.091 152.136 152.151 152.174 152.224 152.261 152.291 152.354 152.431 152.444 152.491 152.514 152.541 152.561 152.566 152.586 152.591 152.629 152.621 152.671 152.711 152.756 152.784 152.811 152.851 152.866 152.894 152.936 152.976 153.024 153.066 153.121 153.171 153.219 153.246 153.256 153.286 153.334 153.374 153.379 153.446 153.471 153.514 153.541 153.594 153.616 153.654 153.679 153.724 153.734 153.774 153.844 153.876 153.904 153.916 153.914 153.954 153.939 154.004 154.021 154.106 154.144 154.184 154.261 154.306 154.354 154.389 154.416 154.469 154.476 154.549 154.584 154.604 154.656 154.721 154.789 154.846 154.899 154.866 154.821 154.969 155.001 155.109 155.109 155.111 155.154 155.161 155.209 155.224 155.266 155.304 155.329 155.341 155.409 155.489 155.551 155.619 155.654 155.691 155.731 155.779 155.816 155.851 155.916 155.984 156.036 156.074 156.081 156.124 156.144 156.159 156.146 156.126 156.119 156.186 156.229 156.294 156.354 156.364 156.369 156.389 156.456 156.454 156.494 156.506 156.506 156.549 156.564 156.576 156.574 156.589 156.601 156.584 156.566 156.576 156.584 156.559 156.569 156.554 156.521 156.459 156.391 156.334 156.334 156.353 156.381 156.383 156.356 156.331 156.276 156.258 156.206 156.188 156.168 156.138 156.156 156.168 156.161 156.118 156.068 156.053 156.011 156.001 155.978 155.966 155.933 155.923 155.868 155.818 155.763 155.678 155.636 155.643 155.503 155.556 155.531 155.511 155.458 155.323 155.301 155.246 155.211 155.193 155.183 155.151 155.168 155.111 155.068 155.033 154.986 154.946 154.898 154.876 154.818 154.778 154.723 154.688 154.643 154.586 154.591 154.541 154.506 154.471 154.438 154.406 154.356 154.318 154.288 154.236 154.233
138.941 139.031 139.144 139.224 139.349 139.469 139.549 139.676 139.794 139.854 139.974 140.066 140.161 140.264 140.361 140.494 140.586 140.701 140.796 140.894 140.986 141.039 141.111 141.196 141.281 141.396 141.551 141.896 142.451 142.851 143.119 143.029 142.981 142.674 142.914 142.506 142.004 142.211 142.161 142.256 142.286 142.266 142.316 142.379 142.519 142.646 142.836 143.244 143.616 143.634 143.901 143.854 143.591 143.611 143.734 143.814 143.909 143.994 144.059 144.179 144.259 144.331 144.429 144.514 144.601 144.691 144.781 144.871 144.981 145.049 145.144 145.226 145.289 145.366 145.421 145.489 145.534 145.596 145.666 145.729 145.809 145.901 146.004 146.099 146.196 146.349 146.471 146.569 146.664 146.749 146.856 146.931 146.989 147.079 147.156 147.229 147.329 147.419 147.506 147.604 147.696 147.759 147.829 147.939 148.016 148.101 148.146 148.236 148.251 148.291 148.299 148.346 148.936 148.834 149.016 148.971 148.886 148.964 149.094 149.384 149.579 149.481 149.464 149.566 149.651 149.704 149.801 149.906 149.989 150.071 150.156 150.204 150.296 150.341 150.406 150.449 150.511 150.574 150.621 150.661 150.694 150.744 150.781 150.836 150.894 150.951 150.979 151.074 151.131 151.206 151.259 151.319 151.364 151.416 151.481 151.539 151.601 151.669 151.719 151.719 151.746 151.794 151.711 151.819 151.864 151.946 151.989 152.039 152.111 152.124 152.151 152.179 152.231 152.274 152.329 152.376 152.411 152.454 152.491 152.496 152.514 152.521 152.531 152.549 152.591 152.594 152.641 152.684 152.724 152.729 152.766 152.806 152.821 152.864 152.889 152.936 152.964 153.021 153.079 153.101 153.144 153.179 153.209 153.254 153.266 153.309 153.356 153.384 153.411 153.474 153.489 153.526 153.556 153.574 153.616 153.659 153.689 153.749 153.801 153.834 153.864 153.869 153.861 153.901 153.916 153.934 153.971 154.046 154.091 154.134 154.206 154.279 154.289 154.324 154.361 154.386 154.441 154.481 154.521 154.571 154.611 154.661 154.741 154.799 154.856 154.856 154.806 154.809 154.984 155.069 155.046 155.076 155.109 155.144 155.179 155.199 155.246 155.309 155.301 155.321 155.376 155.441 155.491 155.546 155.594 155.634 155.659 155.699 155.751 155.826 155.881 155.956 155.996 156.041 156.071 156.114 156.119 156.139 156.139 156.114 156.114 156.149 156.199 156.264 156.334 156.346 156.329 156.336 156.349 156.386 156.429 156.471 156.501 156.499 156.509 156.529 156.566 156.536 156.554 156.541 156.551 156.546 156.546 156.554 156.534 156.529 156.474 156.426 156.336 156.316 156.319 156.341 156.388 156.386 156.371 156.356 156.318 156.288 156.236 156.223 156.193 156.193 156.193 156.173 156.158 156.138 156.111 156.061 156.041 156.006 156.016 155.983 155.981 155.938 155.913 155.851 155.801 155.743 155.671 155.678 155.563 155.596 155.571 155.541 155.518 155.406 155.373 155.323 155.288 155.251 155.246 155.216 155.193 155.176 155.103 155.081 155.031 154.993 154.951 154.926 154.868 154.833 154.771 154.748 154.721 154.688 154.621 154.581 154.548 154.546 154.506 154.463 154.416 154.391 154.341 154.328 154.311
138.959 139.026 139.126 139.229 139.314 139.441 139.544 139.656 139.726 139.841 139.924 140.034 140.121 140.241 140.329 140.454 140.541 140.669 140.799 140.894 140.991 141.094 141.181 141.256 141.371 141.416 141.491 141.569 141.661 141.804 142.036 142.526 142.911 143.364 143.751 143.829 143.381 142.999 142.671 142.386 142.564 142.749 142.739 142.869 142.849 142.804 142.739 142.796 142.846 142.956 143.104 143.261 143.726 143.674 143.921 144.231 144.126 144.114 144.104 144.134 144.199 144.286 144.369 144.464 144.554 144.634 144.711 144.824 144.909 144.999 145.096 145.166 145.284 145.356 145.429 145.506 145.579 145.641 145.719 145.769 145.866 145.951 146.029 146.151 146.241 146.366 146.499 146.586 146.661 146.756 146.839 146.931 146.996 147.086 147.149 147.231 147.306 147.389 147.479 147.559 147.649 147.739 147.841 147.904 147.996 148.084 148.181 148.261 148.316 148.371 148.401 148.444 148.479 148.554 148.629 149.199 149.424 149.266 149.059 149.121 149.211 149.346 149.526 149.601 149.626 149.651 149.774 149.861 149.906 150.019 150.096 150.179 150.274 150.334 150.416 150.474 150.501 150.546 150.594 150.646 150.671 150.719 150.754 150.806 150.861 150.886 150.981 151.004 151.066 151.136 151.211 151.281 151.341 151.376 151.429 151.489 151.561 151.631 151.661 151.664 151.684 151.758 151.661 151.776 151.818 151.904 151.951 151.996 152.036 152.076 152.111 152.139 152.191 152.239 152.283 152.316 152.381 152.428 152.434 152.443 152.443 152.479 152.481 152.514 152.538 152.559 152.601 152.631 152.674 152.676 152.716 152.751 152.754 152.821 152.836 152.891 152.943 152.984 153.019 153.049 153.099 153.116 153.171 153.188 153.214 153.251 153.279 153.341 153.386 153.413 153.439 153.484 153.496 153.541 153.569 153.599 153.654 153.696 153.736 153.766 153.814 153.816 153.806 153.831 153.866 153.886 153.916 153.981 154.056 154.098 154.163 154.221 154.236 154.281 154.324 154.354 154.406 154.459 154.479 154.521 154.579 154.626 154.671 154.704 154.779 154.809 154.773 154.834 154.881 155.051 155.024 155.054 155.081 155.104 155.141 155.171 155.221 155.273 155.294 155.301 155.354 155.381 155.436 155.476 155.491 155.529 155.576 155.626 155.674 155.749 155.821 155.878 155.941 156.014 156.034 156.084 156.091 156.091 156.094 156.081 156.079 156.118 156.161 156.231 156.296 156.329 156.306 156.291 156.321 156.378 156.456 156.449 156.489 156.491 156.506 156.529 156.541 156.551 156.531 156.524 156.526 156.521 156.503 156.501 156.508 156.476 156.426 156.356 156.324 156.306 156.321 156.351 156.398 156.421 156.406 156.364 156.366 156.321 156.291 156.243 156.236 156.206 156.184 156.176 156.159 156.116 156.129 156.081 156.044 156.016 156.004 156.008 156.014 155.964 155.946 155.889 155.851 155.794 155.736 155.711 155.584 155.636 155.589 155.579 155.576 155.461 155.436 155.383 155.351 155.326 155.279 155.253 155.258 155.204 155.141 155.114 155.101 155.051 155.006 154.943 154.894 154.891 154.821 154.836 154.758 154.726 154.688 154.661 154.656 154.596 154.548 154.496 154.491 154.441 154.416 154.416 154.401
138.901 139.019 139.099 139.186 139.306 139.434 139.534 139.619 139.716 139.786 139.881 140.019 140.089 140.211 140.306 140.394 140.514 140.629 140.744 140.851 140.971 141.071 141.171 141.271 141.379 141.481 141.546 141.641 141.711 141.786 141.841 141.929 142.019 142.089 142.339 142.656 142.984 143.731 143.621 143.084 142.716 142.709 142.736 142.969 143.751 143.631 143.729 143.706 143.239 143.231 143.171 143.194 143.249 143.276 143.416 143.536 143.729 144.034 144.204 144.381 144.686 144.511 144.319 144.426 144.494 144.579 144.681 144.774 144.851 144.954 145.034 145.126 145.209 145.299 145.401 145.474 145.546 145.621 145.679 145.786 145.871 145.971 146.064 146.179 146.289 146.391 146.496 146.601 146.674 146.764 146.849 146.919 146.996 147.084 147.154 147.236 147.314 147.406 147.479 147.556 147.631 147.714 147.804 147.891 147.979 148.034 148.126 148.249 148.364 148.439 148.514 148.529 148.599 148.644 148.656 148.696 148.759 149.089 149.446 149.591 149.264 149.271 149.339 149.451 149.889 149.774 149.809 149.799 149.881 149.986 150.051 150.139 150.194 150.296 150.369 150.426 150.476 150.531 150.549 150.621 150.681 150.699 150.736 150.774 150.834 150.879 150.929 150.959 151.024 151.094 151.154 151.196 151.279 151.321 151.379 151.429 151.501 151.564 151.584 151.591 151.626 151.696 151.584 151.719 151.766 151.839 151.913 151.941 151.994 152.038 152.059 152.086 152.158 152.189 152.234 152.288 152.344 152.361 152.389 152.398 152.389 152.424 152.461 152.459 152.499 152.531 152.568 152.594 152.616 152.654 152.656 152.686 152.721 152.764 152.806 152.844 152.881 152.924 152.959 152.986 153.029 153.061 153.109 153.136 153.169 153.181 153.226 153.294 153.311 153.354 153.396 153.419 153.421 153.491 153.516 153.546 153.586 153.621 153.689 153.696 153.739 153.764 153.776 153.776 153.788 153.846 153.856 153.931 153.993 154.051 154.109 154.151 154.186 154.239 154.271 154.294 154.356 154.404 154.449 154.484 154.519 154.581 154.629 154.656 154.739 154.786 154.726 154.779 154.913 155.008 154.984 154.981 155.021 155.051 155.109 155.149 155.191 155.258 155.261 155.284 155.303 155.341 155.356 155.399 155.409 155.454 155.471 155.531 155.584 155.656 155.754 155.806 155.861 155.909 155.976 156.003 156.026 156.051 156.044 156.066 156.059 156.118 156.131 156.206 156.286 156.321 156.329 156.544 156.814 156.816 156.544 156.451 156.461 156.499 156.523 156.519 156.533 156.541 156.529 156.534 156.511 156.491 156.494 156.491 156.489 156.461 156.399 156.354 156.341 156.334 156.351 156.394 156.439 156.436 156.441 156.419 156.379 156.364 156.321 156.276 156.234 156.214 156.186 156.176 156.151 156.146 156.111 156.086 156.046 156.026 156.026 156.026 156.003 155.991 155.964 155.921 155.881 155.811 155.764 155.719 155.659 155.671 155.669 155.626 155.589 155.493 155.503 155.431 155.399 155.368 155.334 155.318 155.284 155.256 155.206 155.201 155.114 155.101 155.074 154.991 154.946 154.928 154.878 154.848 154.838 154.793 154.768 154.721 154.703 154.663 154.631 154.571 154.553 154.556 154.516 154.488 154.468
138.891 138.981 139.046 139.166 139.261 139.376 139.504 139.559 139.676 139.764 139.869 139.941 140.079 140.194 140.274 140.369 140.499 140.586 140.689 140.816 140.919 141.066 141.136 141.259 141.364 141.439 141.569 141.704 141.806 141.871 141.954 141.979 142.029 142.076 142.099 142.101 142.219 143.094 144.114 144.051 143.776 143.551 142.934 143.081 143.494 143.384 145.354 143.139 143.234 143.394 143.579 143.699 143.654 143.649 143.661 143.666 143.669 143.709 143.779 143.821 143.916 144.096 144.186 144.496 144.821 144.869 144.881 144.761 144.801 144.889 144.986 145.094 145.161 145.249 145.326 145.421 145.506 145.576 145.646 145.744 145.831 145.936 146.046 146.174 146.286 146.399 146.529 146.614 146.721 146.811 146.869 146.974 147.036 147.096 147.174 147.241 147.311 147.381 147.471 147.554 147.606 147.701 147.789 147.851 147.951 148.054 148.169 148.229 148.339 148.441 148.516 148.594 148.671 148.706 148.764 148.796 148.851 148.874 148.894 149.164 149.794 149.846 149.619 149.454 149.499 149.571 149.736 150.064 150.009 150.039 150.061 150.126 150.189 150.264 150.271 150.349 150.394 150.446 150.504 150.561 150.629 150.646 150.714 150.766 150.814 150.861 150.899 150.926 151.011 151.074 151.114 151.156 151.216 151.281 151.324 151.391 151.429 151.466 151.519 151.511 151.554 151.679 151.521 151.641 151.696 151.774 151.836 151.894 151.931 151.951 152.016 152.056 152.104 152.154 152.189 152.253 152.286 152.291 152.331 152.341 152.348 152.371 152.401 152.413 152.461 152.479 152.508 152.529 152.556 152.568 152.616 152.626 152.656 152.689 152.743 152.796 152.831 152.876 152.894 152.939 152.969 152.999 153.044 153.054 153.111 153.133 153.163 153.231 153.264 153.294 153.314 153.368 153.386 153.411 153.451 153.491 153.533 153.554 153.621 153.636 153.686 153.686 153.719 153.716 153.729 153.784 153.824 153.881 153.924 153.991 154.053 154.101 154.146 154.189 154.221 154.256 154.304 154.344 154.383 154.441 154.491 154.519 154.566 154.629 154.661 154.739 154.719 154.726 154.848 154.956 154.926 154.941 154.981 155.019 155.071 155.121 155.178 155.206 155.234 155.243 155.239 155.271 155.284 155.314 155.326 155.348 155.394 155.416 155.504 155.549 155.624 155.686 155.749 155.819 155.894 155.946 155.966 155.989 156.008 155.999 156.046 156.076 156.119 156.186 156.229 156.296 156.286 156.503 156.739 156.874 156.559 156.424 156.461 156.526 156.519 156.534 156.521 156.544 156.551 156.549 156.526 156.521 156.489 156.491 156.474 156.458 156.389 156.356 156.346 156.383 156.391 156.434 156.451 156.449 156.441 156.409 156.391 156.356 156.344 156.279 156.249 156.216 156.206 156.178 156.166 156.139 156.119 156.094 156.059 156.033 156.059 156.041 156.034 156.021 155.986 155.946 155.889 155.841 155.788 155.746 155.729 155.711 155.681 155.648 155.626 155.566 155.516 155.489 155.421 155.419 155.389 155.346 155.311 155.276 155.239 155.193 155.151 155.131 155.071 155.006 154.993 154.966 154.916 154.891 154.863 154.846 154.843 154.788 154.763 154.713 154.701 154.663 154.631 154.623 154.596 154.553 154.558
138.849 138.981 139.066 139.159 139.276 139.364 139.454 139.546 139.654 139.734 139.846 139.961 140.049 140.151 140.234 140.341 140.454 140.564 140.671 140.801 140.891 140.991 141.124 141.209 141.319 141.451 141.529 141.621 141.754 141.859 141.956 142.056 142.079 142.106 142.086 142.076 142.126 143.184 143.811 143.749 144.729 144.459 144.476 143.941 143.276 143.194 143.376 143.306 143.434 143.479 143.589 143.719 143.624 143.756 143.966 143.951 143.859 143.936 143.874 143.826 143.869 143.919 143.981 144.061 144.121 144.246 144.554 144.799 145.254 145.339 145.319 145.231 145.196 145.226 145.289 145.366 145.451 145.519 145.604 145.716 145.786 145.886 145.979 146.119 146.221 146.334 146.479 146.594 146.716 146.806 146.904 147.011 147.091 147.159 147.234 147.319 147.354 147.441 147.491 147.569 147.629 147.699 147.771 147.824 147.956 148.031 148.164 148.251 148.354 148.414 148.524 148.614 148.669 148.746 148.824 148.886 148.949 148.969 149.016 149.054 149.066 149.124 149.416 149.884 150.069 149.671 149.669 149.769 149.856 150.206 150.369 150.201 150.226 150.241 150.299 150.339 150.364 150.366 150.396 150.444 150.511 150.566 150.624 150.704 150.759 150.821 150.851 150.916 150.966 151.039 151.079 151.119 151.139 151.199 151.259 151.319 151.359 151.399 151.436 151.436 151.479 151.584 151.466 151.576 151.654 151.674 151.769 151.844 151.891 151.916 151.969 151.993 152.046 152.111 152.178 152.206 152.251 152.254 152.264 152.291 152.309 152.334 152.339 152.359 152.419 152.436 152.464 152.481 152.501 152.508 152.541 152.549 152.601 152.646 152.689 152.744 152.781 152.821 152.829 152.859 152.891 152.924 152.971 152.991 153.034 153.081 153.106 153.169 153.219 153.249 153.274 153.289 153.324 153.346 153.366 153.438 153.449 153.484 153.544 153.538 153.598 153.619 153.648 153.654 153.699 153.744 153.758 153.844 153.879 153.959 153.979 154.051 154.081 154.131 154.176 154.209 154.261 154.311 154.344 154.383 154.451 154.489 154.526 154.549 154.576 154.626 154.658 154.714 154.809 154.926 154.889 154.904 154.924 154.974 155.021 155.086 155.151 155.174 155.196 155.176 155.174 155.189 155.184 155.221 155.234 155.249 155.286 155.344 155.383 155.439 155.501 155.574 155.629 155.706 155.771 155.839 155.859 155.901 155.934 155.966 155.996 156.026 156.086 156.131 156.216 156.261 156.256 156.256 156.304 156.381 156.386 156.431 156.486 156.536 156.549 156.541 156.544 156.579 156.579 156.579 156.544 156.529 156.499 156.508 156.501 156.446 156.411 156.386 156.416 156.429 156.446 156.461 156.459 156.451 156.449 156.394 156.394 156.359 156.334 156.291 156.239 156.224 156.174 156.171 156.156 156.158 156.124 156.106 156.074 156.053 156.046 156.046 156.051 156.014 155.986 155.964 155.913 155.868 155.816 155.744 155.704 155.684 155.696 155.693 155.666 155.594 155.559 155.501 155.499 155.421 155.406 155.381 155.336 155.303 155.244 155.264 155.176 155.176 155.139 155.074 155.036 155.021 154.991 154.998 154.921 154.891 154.883 154.853 154.836 154.821 154.776 154.763 154.711 154.696 154.661 154.638 154.643
138.846 138.959 139.036 139.169 139.261 139.374 139.469 139.549 139.669 139.769 139.856 139.956 140.076 140.154 140.256 140.336 140.449 140.566 140.686 140.799 140.909 140.996 141.111 141.196 141.314 141.416 141.466 141.559 141.649 141.789 141.869 141.971 142.076 142.139 142.121 142.129 142.269 143.326 143.569 143.199 143.881 144.329 144.534 144.996 144.841 145.201 144.909 144.604 144.576 144.286 144.324 144.434 144.049 143.649 143.794 143.959 143.869 143.854 143.986 143.909 143.866 143.934 144.044 144.136 144.281 144.274 144.281 144.314 144.424 144.559 144.801 145.181 145.544 145.801 145.871 145.779 145.464 145.469 145.541 145.646 145.746 145.826 145.936 146.051 146.174 146.279 146.404 146.524 146.619 146.731 146.836 146.954 147.079 147.149 147.229 147.344 147.429 147.496 147.569 147.621 147.684 147.731 147.794 147.856 147.926 148.044 148.099 148.191 148.324 148.401 148.491 148.559 148.644 148.731 148.791 148.866 148.946 149.041 149.059 149.134 149.201 149.226 149.239 149.244 149.311 149.756 150.081 150.344 149.914 149.954 150.029 150.094 150.389 150.459 150.529 150.619 150.309 150.331 150.384 150.409 150.446 150.466 150.534 150.596 150.666 150.721 150.779 150.844 150.901 150.964 151.009 151.069 151.109 151.164 151.211 151.229 151.304 151.359 151.354 151.376 151.379 151.461 151.391 151.511 151.549 151.584 151.699 151.784 151.831 151.848 151.913 151.954 152.004 152.071 152.101 152.151 152.196 152.223 152.214 152.244 152.273 152.274 152.296 152.348 152.381 152.386 152.411 152.411 152.434 152.449 152.441 152.484 152.531 152.591 152.626 152.679 152.724 152.729 152.764 152.786 152.818 152.839 152.881 152.891 152.926 152.976 153.056 153.109 153.159 153.178 153.194 153.226 153.231 153.276 153.301 153.336 153.371 153.383 153.426 153.454 153.506 153.531 153.556 153.574 153.611 153.674 153.723 153.786 153.844 153.898 153.934 153.959 154.021 154.076 154.106 154.141 154.219 154.266 154.303 154.361 154.401 154.441 154.464 154.506 154.549 154.571 154.594 154.639 154.726 154.824 154.834 154.836 154.866 154.924 155.006 155.036 155.096 155.111 155.099 155.109 155.121 155.114 155.128 155.146 155.139 155.159 155.199 155.243 155.284 155.336 155.398 155.456 155.501 155.594 155.651 155.716 155.776 155.824 155.876 155.911 155.946 155.989 156.044 156.114 156.169 156.221 156.236 156.269 156.281 156.361 156.401 156.481 156.536 156.536 156.564 156.568 156.551 156.559 156.576 156.564 156.571 156.564 156.529 156.514 156.511 156.476 156.461 156.439 156.471 156.471 156.486 156.486 156.491 156.454 156.424 156.378 156.389 156.359 156.329 156.279 156.258 156.236 156.199 156.174 156.171 156.158 156.131 156.126 156.101 156.089 156.056 156.056 156.041 156.023 155.996 155.959 155.921 155.878 155.834 155.764 155.758 155.706 155.711 155.719 155.699 155.631 155.566 155.534 155.526 155.479 155.469 155.386 155.374 155.351 155.286 155.251 155.211 155.211 155.148 155.116 155.094 155.058 155.031 155.016 154.986 154.993 154.956 154.891 154.858 154.841 154.838 154.811 154.803 154.753 154.733 154.706 154.703
138.834 138.931 139.039 139.141 139.261 139.381 139.466 139.556 139.679 139.751 139.889 139.981 140.041 140.169 140.246 140.334 140.456 140.571 140.676 140.824 140.886 141.009 141.111 141.209 141.329 141.429 141.476 141.584 141.654 141.759 141.864 141.926 142.014 142.114 142.136 142.144 142.256 143.336 143.056 143.056 143.301 143.556 143.866 144.241 144.566 144.699 145.149 144.984 144.904 144.646 144.561 144.874 144.919 144.749 144.539 144.619 144.249 144.394 144.341 144.136 143.859 143.976 144.164 144.419 144.639 144.736 144.691 144.579 144.531 144.544 144.596 144.656 144.741 144.854 144.974 145.301 145.506 145.851 145.896 146.154 146.001 145.901 145.896 146.009 146.116 146.201 146.351 146.481 146.564 146.666 146.776 146.874 147.009 147.086 147.174 147.279 147.396 147.479 147.554 147.616 147.679 147.769 147.836 147.896 147.974 148.036 148.124 148.224 148.296 148.379 148.471 148.534 148.606 148.689 148.776 148.864 148.921 149.011 149.099 149.161 149.236 149.261 149.306 149.359 149.404 149.409 149.436 149.644 150.081 150.189 150.389 150.049 150.061 150.086 150.139 150.329 150.479 150.479 150.346 150.394 150.399 150.426 150.469 150.496 150.526 150.609 150.679 150.771 150.836 150.894 150.956 150.984 151.021 151.084 151.156 151.171 151.211 151.264 151.296 151.336 151.269 151.349 151.319 151.416 151.441 151.511 151.589 151.681 151.736 151.799 151.851 151.889 151.934 151.999 152.054 152.101 152.131 152.166 152.166 152.209 152.201 152.239 152.273 152.296 152.331 152.336 152.366 152.366 152.376 152.366 152.381 152.406 152.439 152.508 152.546 152.599 152.626 152.651 152.674 152.693 152.729 152.739 152.783 152.834 152.878 152.894 152.943 153.041 153.066 153.111 153.124 153.156 153.158 153.204 153.221 153.246 153.286 153.279 153.348 153.371 153.409 153.424 153.459 153.489 153.549 153.604 153.654 153.716 153.776 153.824 153.859 153.926 153.969 154.024 154.059 154.099 154.149 154.231 154.254 154.281 154.354 154.374 154.413 154.451 154.466 154.504 154.529 154.576 154.651 154.773 154.746 154.744 154.781 154.846 154.926 154.999 155.034 155.051 155.041 155.024 155.034 155.049 155.044 155.066 155.061 155.061 155.114 155.163 155.174 155.223 155.286 155.321 155.371 155.454 155.541 155.586 155.669 155.709 155.764 155.836 155.886 155.966 156.006 156.086 156.154 156.201 156.236 156.269 156.361 156.381 156.438 156.481 156.521 156.549 156.568 156.561 156.584 156.576 156.576 156.561 156.571 156.568 156.554 156.546 156.514 156.494 156.474 156.496 156.506 156.506 156.511 156.479 156.451 156.416 156.381 156.354 156.361 156.329 156.329 156.281 156.241 156.204 156.201 156.201 156.201 156.146 156.161 156.129 156.109 156.098 156.081 156.061 156.064 156.026 155.999 155.971 155.934 155.894 155.824 155.791 155.751 155.721 155.741 155.736 155.714 155.676 155.611 155.561 155.526 155.514 155.469 155.428 155.396 155.366 155.304 155.256 155.266 155.239 155.189 155.189 155.139 155.088 155.096 155.068 155.038 155.043 154.993 154.961 154.928 154.933 154.891 154.846 154.841 154.791 154.786 154.781 154.751
138.831 138.901 139.026 139.136 139.254 139.364 139.471 139.579 139.679 139.754 139.846 139.984 140.046 140.149 140.246 140.351 140.451 140.554 140.689 140.779 140.894 141.004 141.109 141.184 141.286 141.381 141.481 141.551 141.624 141.776 141.866 141.926 141.994 142.056 142.124 142.146 142.429 143.531 143.039 142.981 143.256 143.221 143.681 143.589 143.786 144.164 144.384 144.481 144.304 144.149 144.094 144.394 144.519 144.644 144.806 144.941 144.964 145.136 145.274 144.926 143.939 144.634 145.141 145.114 144.901 144.844 144.751 144.656 144.711 144.986 144.974 144.924 145.019 145.006 144.986 145.009 145.034 145.164 145.244 145.499 145.759 145.974 146.356 146.066 146.279 146.414 146.396 146.411 146.524 146.639 146.729 146.836 146.931 147.024 147.129 147.226 147.311 147.409 147.496 147.589 147.664 147.719 147.786 147.854 147.959 148.036 148.116 148.219 148.311 148.421 148.491 148.534 148.629 148.704 148.769 148.866 148.939 149.009 149.089 149.181 149.221 149.291 149.376 149.404 149.436 149.474 149.529 149.556 149.586 149.684 150.129 150.409 150.421 150.294 150.106 150.129 150.151 150.166 150.284 150.571 150.629 150.554 150.496 150.414 150.474 150.559 150.571 150.636 150.706 150.781 150.854 150.906 150.969 151.029 151.069 151.111 151.184 151.196 151.234 151.246 151.166 151.211 151.226 151.326 151.378 151.451 151.508 151.579 151.663 151.734 151.791 151.819 151.891 151.928 152.001 152.041 152.099 152.089 152.131 152.159 152.166 152.211 152.251 152.258 152.258 152.306 152.306 152.304 152.311 152.304 152.319 152.341 152.381 152.449 152.486 152.531 152.549 152.576 152.594 152.619 152.646 152.663 152.696 152.709 152.756 152.816 152.886 152.943 152.991 153.016 153.051 153.074 153.081 153.116 153.136 153.171 153.184 153.171 153.249 153.251 153.316 153.324 153.351 153.411 153.466 153.536 153.586 153.646 153.706 153.756 153.796 153.861 153.901 153.941 153.991 154.036 154.069 154.116 154.159 154.219 154.281 154.309 154.321 154.383 154.394 154.399 154.441 154.501 154.556 154.684 154.649 154.656 154.696 154.776 154.836 154.913 154.943 154.964 154.941 154.946 154.961 154.973 154.973 154.999 154.984 155.006 155.051 155.084 155.079 155.126 155.176 155.229 155.269 155.331 155.404 155.486 155.556 155.601 155.691 155.766 155.816 155.901 155.969 156.051 156.114 156.161 156.221 156.284 156.351 156.391 156.426 156.464 156.516 156.529 156.523 156.541 156.566 156.574 156.564 156.574 156.579 156.566 156.553 156.549 156.526 156.514 156.496 156.521 156.529 156.508 156.496 156.456 156.429 156.368 156.344 156.331 156.301 156.291 156.273 156.256 156.221 156.211 156.221 156.204 156.201 156.191 156.166 156.169 156.131 156.119 156.106 156.068 156.071 156.046 156.004 155.996 155.946 155.891 155.844 155.818 155.809 155.693 155.764 155.758 155.758 155.674 155.639 155.591 155.566 155.511 155.484 155.466 155.443 155.409 155.336 155.314 155.288 155.261 155.243 155.249 155.199 155.188 155.126 155.101 155.088 155.056 155.033 155.018 155.001 154.936 154.936 154.916 154.871 154.846 154.828 154.836 154.803
138.824 138.914 139.019 139.134 139.261 139.344 139.446 139.554 139.649 139.734 139.846 139.914 140.019 140.129 140.216 140.284 140.411 140.499 140.656 140.751 140.861 140.961 141.076 141.159 141.266 141.391 141.446 141.504 141.631 141.741 141.851 141.926 141.964 142.061 142.099 142.149 142.401 143.784 142.724 142.774 143.041 142.999 143.226 143.276 143.339 143.626 143.689 143.579 143.631 143.571 143.604 143.609 143.701 143.894 144.011 144.144 144.166 144.176 144.326 144.469 144.039 144.291 145.596 145.794 145.871 146.006 146.036 146.461 146.271 146.351 146.331 146.301 146.341 146.354 146.199 146.159 145.916 145.766 145.604 145.446 145.414 145.479 145.614 145.694 145.844 146.014 146.269 146.569 146.691 146.974 146.804 146.789 146.854 146.991 147.086 147.174 147.259 147.351 147.431 147.539 147.606 147.661 147.719 147.799 147.856 147.939 148.064 148.176 148.276 148.344 148.436 148.496 148.591 148.661 148.739 148.814 148.919 149.019 149.129 149.169 149.211 149.299 149.366 149.439 149.471 149.516 149.544 149.596 149.656 149.691 149.699 149.744 149.824 150.139 150.299 150.369 150.261 150.144 150.171 150.181 150.246 150.294 150.384 150.626 150.756 150.664 150.511 150.559 150.614 150.659 150.696 150.761 150.861 150.914 150.959 151.031 151.101 151.124 151.176 151.144 151.099 151.114 151.131 151.224 151.291 151.351 151.416 151.501 151.594 151.663 151.716 151.758 151.806 151.859 151.924 151.994 152.008 152.051 152.091 152.119 152.136 152.166 152.184 152.204 152.234 152.236 152.241 152.251 152.251 152.246 152.231 152.249 152.304 152.356 152.416 152.449 152.479 152.504 152.511 152.544 152.574 152.556 152.589 152.609 152.671 152.719 152.784 152.846 152.896 152.916 152.956 152.951 152.989 153.011 153.014 153.038 153.068 153.089 153.141 153.166 153.209 153.243 153.279 153.306 153.389 153.456 153.519 153.568 153.616 153.656 153.723 153.753 153.796 153.846 153.926 153.934 153.976 154.038 154.101 154.148 154.209 154.221 154.251 154.299 154.291 154.324 154.351 154.396 154.461 154.584 154.566 154.551 154.596 154.676 154.751 154.821 154.854 154.864 154.861 154.859 154.876 154.874 154.883 154.908 154.909 154.961 154.969 155.001 155.044 155.033 155.086 155.121 155.174 155.236 155.304 155.368 155.409 155.476 155.581 155.649 155.734 155.821 155.926 155.964 156.046 156.121 156.196 156.246 156.289 156.331 156.379 156.426 156.476 156.491 156.479 156.511 156.536 156.536 156.534 156.529 156.561 156.544 156.556 156.516 156.514 156.496 156.501 156.511 156.504 156.481 156.461 156.398 156.369 156.316 156.291 156.294 156.269 156.266 156.266 156.234 156.201 156.229 156.204 156.211 156.209 156.209 156.193 156.193 156.148 156.141 156.133 156.101 156.096 156.064 156.051 156.029 155.951 155.919 155.856 155.831 155.821 155.736 155.818 155.774 155.774 155.709 155.644 155.591 155.584 155.526 155.516 155.464 155.441 155.446 155.401 155.334 155.329 155.288 155.291 155.264 155.184 155.183 155.143 155.156 155.161 155.121 155.071 155.056 155.013 155.001 154.966 154.956 154.893 154.911 154.861 154.863 154.846
138.809 138.881 138.991 139.131 139.239 139.339 139.446 139.539 139.644 139.729 139.844 139.924 139.984 140.089 140.189 140.274 140.379 140.469 140.599 140.704 140.821 140.904 141.001 141.101 141.209 141.319 141.399 141.479 141.574 141.716 141.816 141.909 141.951 142.036 142.096 142.144 142.421 143.789 142.634 142.731 143.039 143.161 143.096 143.014 143.081 143.129 143.279 143.411 143.449 143.494 143.616 143.721 143.729 143.861 143.904 143.884 143.989 144.096 144.064 144.086 144.059 144.034 144.404 144.666 144.879 145.216 145.514 145.786 145.974 146.031 145.889 146.214 146.161 146.486 146.474 146.814 146.871 146.851 146.936 146.829 146.761 146.514 146.109 145.984 145.809 145.804 145.869 146.019 146.159 146.429 146.614 146.961 147.181 147.186 147.139 147.186 147.344 147.396 147.399 147.461 147.529 147.594 147.654 147.734 147.809 147.906 147.976 148.059 148.184 148.279 148.349 148.426 148.494 148.574 148.646 148.734 148.841 148.954 149.051 149.129 149.189 149.259 149.316 149.401 149.464 149.514 149.561 149.611 149.659 149.689 149.719 149.741 149.771 149.764 149.771 149.956 150.366 150.391 150.481 150.241 150.206 150.251 150.259 150.306 150.339 150.401 150.509 150.646 150.599 150.591 150.606 150.659 150.731 150.796 150.851 150.911 150.961 151.006 151.061 151.076 151.056 151.066 151.066 151.184 151.231 151.286 151.336 151.421 151.501 151.556 151.633 151.699 151.734 151.766 151.861 151.904 151.941 151.984 152.023 152.049 152.089 152.114 152.151 152.161 152.189 152.193 152.196 152.184 152.184 152.169 152.169 152.208 152.254 152.284 152.316 152.383 152.404 152.431 152.449 152.466 152.479 152.494 152.491 152.536 152.571 152.648 152.676 152.746 152.791 152.821 152.856 152.854 152.883 152.904 152.913 152.956 152.971 152.993 153.054 153.059 153.096 153.111 153.206 153.236 153.314 153.376 153.439 153.484 153.526 153.589 153.616 153.651 153.696 153.758 153.806 153.836 153.881 153.919 153.999 154.059 154.089 154.126 154.151 154.181 154.169 154.223 154.249 154.276 154.344 154.441 154.449 154.443 154.491 154.568 154.641 154.706 154.719 154.741 154.758 154.753 154.771 154.806 154.811 154.831 154.866 154.881 154.889 154.924 154.934 154.956 155.008 155.031 155.051 155.126 155.199 155.254 155.294 155.366 155.454 155.541 155.624 155.729 155.829 155.894 155.951 156.021 156.111 156.161 156.219 156.246 156.296 156.341 156.404 156.454 156.461 156.471 156.486 156.476 156.516 156.529 156.523 156.536 156.519 156.506 156.499 156.501 156.506 156.519 156.479 156.464 156.398 156.339 156.291 156.281 156.258 156.246 156.254 156.209 156.206 156.189 156.201 156.216 156.226 156.226 156.236 156.246 156.239 156.231 156.206 156.193 156.174 156.126 156.121 156.099 156.086 156.041 155.993 155.951 155.896 155.859 155.841 155.769 155.834 155.816 155.794 155.773 155.666 155.606 155.594 155.561 155.534 155.496 155.479 155.408 155.406 155.361 155.341 155.336 155.309 155.281 155.266 155.231 155.198 155.161 155.173 155.138 155.098 155.093 155.066 155.056 154.991 154.993 154.936 154.928 154.891 154.881 154.863
138.811 138.896 139.021 139.124 139.236 139.324 139.429 139.519 139.614 139.729 139.824 139.894 139.976 140.056 140.159 140.254 140.369 140.451 140.581 140.699 140.774 140.881 140.974 141.034 141.171 141.254 141.331 141.466 141.529 141.646 141.784 141.839 141.914 142.001 142.064 142.151 142.531 143.469 142.724 142.789 143.281 143.166 143.016 142.979 143.031 143.094 143.396 143.584 143.511 143.551 143.756 143.969 144.141 144.121 144.116 144.094 144.276 144.374 144.314 144.091 144.124 144.041 144.124 144.244 144.356 144.429 144.596 144.754 144.874 144.936 145.121 145.261 145.251 145.331 145.479 145.866 146.346 146.591 146.586 146.506 146.756 147.111 147.174 147.324 146.876 146.569 146.361 146.201 146.194 146.256 146.416 146.499 146.621 146.741 146.859 147.054 147.414 147.759 147.456 147.509 147.541 147.564 147.561 147.639 147.719 147.834 147.904 148.004 148.114 148.179 148.291 148.349 148.424 148.489 148.571 148.666 148.781 148.869 148.941 149.011 149.094 149.159 149.216 149.304 149.401 149.474 149.549 149.589 149.639 149.679 149.719 149.744 149.746 149.761 149.814 149.824 149.884 149.896 150.169 150.459 150.506 150.196 150.249 150.294 150.299 150.339 150.336 150.379 150.419 150.509 150.629 150.641 150.671 150.679 150.761 150.809 150.856 150.909 150.986 151.004 151.006 150.966 151.021 151.126 151.169 151.256 151.314 151.364 151.404 151.481 151.541 151.574 151.639 151.696 151.766 151.831 151.859 151.929 151.951 152.004 152.031 152.051 152.089 152.114 152.121 152.154 152.129 152.114 152.121 152.126 152.114 152.149 152.184 152.211 152.246 152.309 152.341 152.374 152.386 152.413 152.408 152.424 152.434 152.456 152.516 152.544 152.606 152.631 152.684 152.714 152.746 152.761 152.788 152.801 152.806 152.848 152.871 152.908 152.946 152.961 153.001 153.016 153.089 153.146 153.241 153.291 153.339 153.386 153.409 153.451 153.496 153.541 153.596 153.631 153.671 153.706 153.769 153.846 153.898 153.941 153.976 154.031 154.049 154.064 154.091 154.109 154.131 154.169 154.221 154.283 154.324 154.321 154.369 154.443 154.531 154.574 154.601 154.601 154.624 154.661 154.684 154.711 154.736 154.756 154.776 154.818 154.818 154.886 154.883 154.901 154.919 154.966 154.989 155.023 155.076 155.154 155.204 155.274 155.351 155.454 155.521 155.621 155.699 155.769 155.836 155.906 155.976 156.041 156.098 156.163 156.211 156.264 156.313 156.369 156.394 156.399 156.413 156.451 156.454 156.479 156.491 156.499 156.489 156.499 156.501 156.499 156.484 156.469 156.443 156.406 156.349 156.288 156.249 156.236 156.214 156.223 156.191 156.174 156.146 156.159 156.186 156.199 156.209 156.223 156.253 156.251 156.261 156.251 156.243 156.231 156.193 156.149 156.154 156.131 156.109 156.076 156.021 155.964 155.911 155.891 155.878 155.844 155.859 155.829 155.836 155.781 155.719 155.656 155.601 155.584 155.521 155.508 155.486 155.456 155.434 155.421 155.386 155.371 155.318 155.301 155.266 155.253 155.223 155.186 155.208 155.146 155.146 155.113 155.096 155.053 155.011 154.996 154.988 154.961 154.883 154.886 154.868
138.769 138.881 138.976 139.091 139.201 139.316 139.421 139.484 139.614 139.689 139.779 139.861 139.924 140.016 140.114 140.231 140.324 140.396 140.516 140.649 140.736 140.816 140.921 141.011 141.144 141.226 141.309 141.416 141.519 141.624 141.734 141.806 141.876 141.956 142.069 142.134 142.664 143.214 142.634 142.736 143.224 143.071 142.874 142.949 142.976 143.071 143.389 143.799 143.651 143.714 144.064 144.296 144.386 144.594 144.696 144.646 144.554 144.494 144.404 144.146 144.119 144.064 144.109 144.134 144.154 144.279 144.391 144.524 144.636 144.774 144.909 144.989 145.099 145.206 145.389 145.409 145.599 145.694 145.716 145.746 145.864 145.999 146.346 146.494 147.054 147.406 147.504 147.504 147.241 146.949 146.786 146.736 146.711 146.766 146.779 146.876 146.929 147.029 147.104 147.249 147.366 147.431 147.549 147.601 147.826 147.909 147.894 147.989 148.029 148.119 148.194 148.266 148.349 148.439 148.514 148.594 148.681 148.749 148.831 148.899 148.974 149.044 149.101 149.204 149.296 149.391 149.481 149.549 149.576 149.621 149.674 149.731 149.739 149.736 149.756 149.809 149.861 149.906 149.916 150.101 150.214 150.166 150.114 150.214 150.324 150.366 150.376 150.366 150.401 150.416 150.444 150.499 150.649 151.044 150.714 150.699 150.719 150.791 150.814 150.894 150.894 150.916 151.011 151.114 151.114 151.209 151.296 151.351 151.383 151.446 151.469 151.519 151.561 151.616 151.663 151.709 151.801 151.834 151.891 151.936 151.943 151.979 152.021 152.038 152.056 152.061 152.061 152.071 152.056 152.061 152.079 152.089 152.121 152.159 152.211 152.249 152.279 152.309 152.311 152.351 152.359 152.351 152.364 152.391 152.436 152.449 152.514 152.546 152.596 152.628 152.646 152.661 152.684 152.686 152.734 152.766 152.774 152.804 152.836 152.871 152.891 152.931 152.999 153.068 153.131 153.186 153.241 153.273 153.311 153.324 153.389 153.413 153.454 153.496 153.554 153.591 153.651 153.701 153.769 153.816 153.864 153.904 153.916 153.946 153.974 154.008 154.033 154.054 154.136 154.191 154.226 154.201 154.256 154.339 154.404 154.429 154.484 154.479 154.514 154.524 154.584 154.609 154.633 154.654 154.706 154.736 154.774 154.821 154.846 154.854 154.859 154.881 154.921 154.971 154.993 155.066 155.114 155.151 155.229 155.309 155.389 155.506 155.551 155.621 155.693 155.758 155.831 155.894 155.979 156.008 156.076 156.158 156.191 156.276 156.288 156.294 156.324 156.346 156.374 156.399 156.416 156.421 156.421 156.436 156.449 156.459 156.441 156.439 156.386 156.354 156.284 156.241 156.201 156.204 156.176 156.163 156.146 156.146 156.119 156.126 156.141 156.163 156.199 156.221 156.249 156.271 156.279 156.258 156.246 156.239 156.231 156.214 156.176 156.156 156.126 156.094 156.049 156.003 155.949 155.921 155.896 155.836 155.886 155.868 155.841 155.811 155.721 155.678 155.641 155.584 155.538 155.519 155.491 155.466 155.459 155.426 155.399 155.368 155.361 155.329 155.306 155.271 155.238 155.221 155.188 155.176 155.151 155.118 155.141 155.073 155.038 155.048 154.988 154.976 154.931 154.913 154.913
138.759 138.834 138.956 139.081 139.191 139.266 139.389 139.469 139.584 139.664 139.734 139.814 139.896 139.976 140.056 140.204 140.261 140.346 140.451 140.574 140.676 140.754 140.869 140.966 141.096 141.179 141.271 141.404 141.509 141.601 141.716 141.791 141.856 141.959 142.044 142.124 142.569 143.001 142.556 142.739 143.091 142.996 142.856 142.834 142.936 142.996 143.106 143.261 143.354 143.456 143.559 143.681 143.841 143.941 144.049 144.081 144.064 144.106 144.324 144.189 144.116 144.004 144.134 144.151 144.294 144.331 144.424 144.549 144.676 144.789 144.886 144.989 145.104 145.179 145.271 145.319 145.401 145.466 145.516 145.604 145.714 145.789 145.856 145.984 146.094 146.311 146.619 147.089 147.519 147.846 147.906 147.991 147.854 147.571 147.324 147.306 147.151 147.164 147.196 147.191 147.201 147.246 147.321 147.371 147.461 147.531 147.644 147.806 147.879 148.091 148.159 148.236 148.359 148.544 148.536 148.624 148.664 148.699 148.784 148.821 148.879 148.956 149.011 149.096 149.174 149.266 149.351 149.426 149.469 149.551 149.624 149.656 149.684 149.711 149.734 149.754 149.771 149.811 149.854 149.981 150.059 150.051 150.056 150.114 150.176 150.259 150.279 150.311 150.324 150.344 150.376 150.429 150.474 150.481 150.564 150.674 150.716 150.706 150.696 150.761 150.816 150.836 151.061 151.041 151.096 151.161 151.241 151.288 151.354 151.401 151.449 151.486 151.526 151.568 151.584 151.639 151.696 151.764 151.791 151.831 151.883 151.924 151.936 151.966 151.969 151.969 151.986 152.011 151.986 152.011 152.019 152.044 152.059 152.086 152.151 152.191 152.209 152.241 152.266 152.284 152.301 152.324 152.301 152.321 152.351 152.383 152.413 152.456 152.514 152.514 152.538 152.554 152.596 152.601 152.609 152.656 152.711 152.736 152.741 152.769 152.801 152.831 152.916 152.976 153.031 153.091 153.116 153.176 153.181 153.209 153.254 153.286 153.336 153.361 153.406 153.451 153.514 153.579 153.633 153.674 153.741 153.781 153.804 153.824 153.874 153.886 153.926 153.964 154.019 154.066 154.129 154.098 154.141 154.211 154.269 154.301 154.334 154.351 154.374 154.401 154.441 154.499 154.564 154.559 154.626 154.651 154.701 154.741 154.773 154.774 154.816 154.831 154.869 154.906 154.939 154.993 155.021 155.084 155.139 155.214 155.299 155.361 155.434 155.493 155.556 155.611 155.701 155.746 155.826 155.866 155.928 156.019 156.071 156.141 156.176 156.201 156.219 156.246 156.271 156.306 156.304 156.359 156.368 156.396 156.399 156.419 156.376 156.369 156.331 156.296 156.234 156.179 156.151 156.118 156.124 156.109 156.091 156.094 156.054 156.066 156.086 156.121 156.154 156.196 156.236 156.269 156.279 156.258 156.261 156.234 156.229 156.221 156.209 156.178 156.156 156.101 156.071 156.044 155.986 155.943 155.894 155.909 155.886 155.881 155.841 155.814 155.736 155.666 155.628 155.589 155.551 155.538 155.516 155.456 155.459 155.441 155.406 155.398 155.351 155.364 155.329 155.281 155.276 155.258 155.216 155.233 155.148 155.161 155.141 155.116 155.088 155.041 155.018 155.003 154.971 154.938 154.933
138.684 138.786 138.914 139.019 139.131 139.221 139.321 139.416 139.524 139.616 139.704 139.769 139.859 139.914 140.036 140.114 140.229 140.321 140.431 140.549 140.626 140.704 140.839 140.949 141.069 141.144 141.251 141.369 141.481 141.576 141.689 141.766 141.831 141.936 142.019 142.084 142.724 143.724 142.531 142.639 142.859 143.226 143.071 142.826 142.941 143.006 143.099 143.211 143.324 143.329 143.439 143.446 143.549 143.656 143.694 143.756 143.856 143.909 144.026 144.081 144.156 144.121 144.134 144.264 144.354 144.449 144.529 144.619 144.759 144.881 144.936 145.034 145.149 145.209 145.274 145.376 145.421 145.491 145.551 145.634 145.676 145.829 145.896 145.961 146.031 146.084 146.179 146.259 146.439 146.639 147.289 147.516 147.841 148.329 148.284 148.406 148.424 148.439 148.206 148.061 147.799 147.579 147.529 147.399 147.446 147.489 147.556 147.609 147.704 147.776 147.831 147.934 147.999 148.139 148.229 148.349 148.414 148.539 148.681 148.846 148.864 149.069 149.244 149.014 149.064 149.089 149.126 149.204 149.304 149.396 149.434 149.524 149.589 149.616 149.644 149.679 149.939 149.876 149.844 149.946 149.996 150.046 149.976 149.954 150.039 150.024 150.126 150.159 150.191 150.209 150.226 150.279 150.379 150.436 150.484 150.521 150.586 150.659 150.701 150.754 150.716 150.701 150.811 150.904 150.946 151.059 151.163 151.193 151.261 151.334 151.374 151.401 151.466 151.516 151.591 151.636 151.651 151.666 151.689 151.739 151.786 151.834 151.866 151.866 151.876 151.886 151.901 151.931 151.943 151.961 151.969 151.993 152.011 152.061 152.096 152.146 152.184 152.181 152.216 152.269 152.279 152.264 152.241 152.231 152.288 152.301 152.331 152.383 152.399 152.428 152.451 152.456 152.493 152.504 152.538 152.581 152.609 152.631 152.656 152.693 152.704 152.781 152.821 152.876 152.936 152.981 153.023 153.044 153.066 153.101 153.121 153.148 153.211 153.239 153.288 153.334 153.404 153.473 153.514 153.569 153.618 153.666 153.674 153.714 153.741 153.766 153.811 153.861 153.894 153.964 154.003 153.993 154.008 154.098 154.144 154.196 154.216 154.236 154.269 154.314 154.346 154.409 154.456 154.484 154.529 154.574 154.639 154.679 154.711 154.736 154.766 154.766 154.818 154.833 154.876 154.916 154.943 155.011 155.049 155.131 155.191 155.231 155.311 155.366 155.426 155.471 155.534 155.611 155.654 155.731 155.769 155.854 155.931 155.981 156.031 156.064 156.096 156.114 156.144 156.176 156.211 156.256 156.266 156.281 156.311 156.304 156.294 156.274 156.241 156.196 156.151 156.126 156.116 156.076 156.071 156.079 156.041 156.021 156.019 156.021 156.021 156.074 156.111 156.141 156.206 156.231 156.239 156.229 156.221 156.221 156.231 156.224 156.193 156.201 156.146 156.116 156.086 156.046 155.993 155.959 155.908 155.961 155.896 155.879 155.874 155.836 155.758 155.691 155.639 155.586 155.561 155.551 155.521 155.516 155.486 155.443 155.451 155.419 155.376 155.364 155.334 155.308 155.301 155.273 155.258 155.223 155.191 155.176 155.138 155.141 155.128 155.081 155.048 155.018 154.976 154.946 154.936
138.679 138.756 138.854 138.986 139.046 139.146 139.266 139.351 139.459 139.556 139.609 139.704 139.824 139.876 139.966 140.071 140.176 140.281 140.401 140.496 140.579 140.704 140.809 140.919 141.031 141.104 141.234 141.349 141.429 141.551 141.656 141.741 141.821 141.911 142.016 142.046 142.666 144.101 143.191 142.624 142.799 143.206 142.919 142.786 142.899 143.059 143.229 143.229 143.259 143.369 143.531 143.489 143.436 143.566 143.641 143.754 143.799 143.889 143.931 143.949 144.039 144.159 144.184 144.249 144.316 144.424 144.531 144.654 144.786 144.849 144.946 145.056 145.149 145.206 145.301 145.386 145.446 145.534 145.576 145.679 145.739 145.796 145.874 145.936 146.034 146.126 146.194 146.266 146.341 146.401 146.511 146.626 146.761 147.051 147.106 147.589 148.001 148.206 148.271 148.549 148.849 148.964 148.866 148.616 148.551 148.511 148.556 148.521 148.434 148.424 148.361 148.319 148.299 148.244 148.256 148.296 148.326 148.351 148.401 148.469 148.541 148.634 148.686 148.716 148.781 148.904 148.971 148.996 149.031 149.116 149.171 149.269 149.321 149.334 149.356 149.404 149.434 149.489 149.551 149.626 149.691 149.751 149.824 149.919 149.964 149.959 150.009 150.006 150.034 150.061 150.071 150.121 150.171 150.261 150.336 150.441 150.504 150.549 150.586 150.631 150.669 150.721 150.729 150.743 150.816 150.898 150.971 151.059 151.131 151.191 151.269 151.318 151.366 151.449 151.534 151.579 151.621 151.646 151.678 151.688 151.711 151.734 151.749 151.791 151.811 151.829 151.839 151.844 151.856 151.878 151.904 151.926 151.951 151.991 152.041 152.083 152.104 152.136 152.178 152.214 152.223 152.221 152.199 152.181 152.209 152.254 152.283 152.286 152.344 152.334 152.351 152.351 152.386 152.411 152.424 152.491 152.534 152.566 152.553 152.584 152.619 152.651 152.731 152.769 152.816 152.876 152.911 152.921 152.961 152.971 153.001 153.038 153.061 153.118 153.156 153.216 153.271 153.331 153.399 153.431 153.481 153.516 153.556 153.594 153.609 153.661 153.711 153.753 153.791 153.841 153.909 153.866 153.926 153.971 154.031 154.054 154.081 154.098 154.149 154.199 154.244 154.291 154.349 154.389 154.441 154.496 154.546 154.621 154.646 154.686 154.701 154.741 154.758 154.784 154.831 154.871 154.911 154.931 154.993 155.026 155.106 155.148 155.199 155.251 155.313 155.366 155.419 155.474 155.538 155.584 155.641 155.711 155.769 155.821 155.874 155.901 155.959 155.984 156.026 156.031 156.064 156.131 156.141 156.169 156.166 156.163 156.159 156.163 156.148 156.109 156.086 156.068 156.044 156.041 156.031 156.008 155.984 155.946 155.949 155.961 155.971 156.006 156.064 156.079 156.139 156.163 156.163 156.171 156.178 156.156 156.169 156.166 156.166 156.166 156.133 156.101 156.074 156.038 155.999 155.951 155.901 155.956 155.883 155.894 155.879 155.859 155.751 155.686 155.639 155.589 155.559 155.561 155.546 155.536 155.489 155.451 155.443 155.413 155.416 155.408 155.366 155.373 155.311 155.303 155.258 155.241 155.218 155.186 155.156 155.148 155.141 155.118 155.033 155.038 155.021 154.981 154.956
138.596 138.701 138.821 138.906 139.014 139.114 139.194 139.299 139.386 139.464 139.561 139.651 139.711 139.819 139.914 140.004 140.114 140.209 140.329 140.436 140.529 140.641 140.754 140.829 140.969 141.071 141.176 141.314 141.396 141.506 141.619 141.726 141.779 141.864 141.966 142.029 142.859 144.046 143.176 142.619 142.789 142.849 142.744 142.739 143.069 143.096 143.191 143.154 143.189 143.266 143.381 143.501 143.434 143.544 143.624 143.716 143.751 143.791 143.864 143.964 144.044 144.139 144.179 144.236 144.311 144.416 144.539 144.659 144.759 144.906 145.004 145.069 145.151 145.214 145.286 145.351 145.411 145.491 145.554 145.646 145.736 145.811 145.859 145.959 146.071 146.131 146.229 146.296 146.376 146.439 146.504 146.601 146.671 146.759 146.841 146.939 146.984 147.096 147.154 147.414 147.529 148.186 148.506 148.614 148.316 148.344 148.371 148.661 148.826 148.996 149.114 149.289 149.359 149.404 149.469 149.464 149.479 149.476 149.389 149.359 149.279 149.161 149.166 149.141 149.084 149.119 149.244 149.206 149.324 149.349 149.264 149.369 149.381 149.436 149.446 149.504 149.519 149.534 149.546 149.596 149.641 149.684 149.761 149.824 149.874 149.919 149.921 149.911 149.914 149.926 149.919 149.966 150.024 150.091 150.184 150.264 150.334 150.409 150.451 150.496 150.569 150.598 150.699 150.816 150.883 150.821 150.864 150.894 150.956 151.029 151.098 151.136 151.221 151.309 151.424 151.514 151.541 151.576 151.633 151.648 151.684 151.696 151.714 151.699 151.709 151.723 151.734 151.788 151.803 151.799 151.831 151.871 151.881 151.913 151.969 151.996 152.026 152.091 152.109 152.156 152.161 152.154 152.133 152.136 152.146 152.158 152.196 152.206 152.224 152.231 152.256 152.266 152.276 152.336 152.354 152.398 152.428 152.449 152.476 152.508 152.538 152.554 152.629 152.656 152.714 152.776 152.781 152.814 152.814 152.866 152.899 152.901 152.951 152.986 153.039 153.104 153.146 153.199 153.279 153.309 153.359 153.419 153.443 153.476 153.516 153.546 153.631 153.631 153.699 153.734 153.796 153.771 153.803 153.859 153.911 153.941 153.946 153.994 154.033 154.059 154.129 154.188 154.266 154.299 154.364 154.401 154.479 154.523 154.586 154.624 154.666 154.706 154.714 154.753 154.791 154.826 154.851 154.913 154.936 154.973 155.046 155.066 155.129 155.181 155.236 155.253 155.344 155.361 155.421 155.471 155.506 155.538 155.624 155.669 155.709 155.766 155.799 155.839 155.886 155.904 155.936 155.969 155.994 156.001 156.046 156.036 156.016 156.033 156.034 156.016 155.996 155.989 155.999 155.991 155.974 155.971 155.943 155.896 155.886 155.886 155.896 155.901 155.964 156.001 156.033 156.066 156.089 156.086 156.098 156.096 156.131 156.101 156.116 156.096 156.081 156.066 156.031 156.019 155.971 155.924 155.889 155.961 155.894 155.868 155.859 155.814 155.736 155.686 155.631 155.574 155.551 155.579 155.549 155.579 155.521 155.476 155.464 155.473 155.439 155.408 155.389 155.356 155.306 155.326 155.273 155.266 155.228 155.206 155.188 155.161 155.143 155.131 155.101 155.061 155.031 154.993 154.986
138.546 138.644 138.754 138.851 138.929 139.056 139.134 139.226 139.329 139.451 139.519 139.599 139.701 139.799 139.884 139.964 140.064 140.211 140.301 140.399 140.499 140.596 140.696 140.769 140.901 140.999 141.129 141.239 141.349 141.489 141.579 141.681 141.746 141.836 141.926 141.999 142.654 144.036 143.396 142.674 142.709 142.624 142.669 142.721 142.834 142.869 142.994 142.961 143.066 143.174 143.274 143.436 143.511 143.584 143.634 143.679 143.719 143.819 143.809 143.946 144.036 144.096 144.164 144.224 144.334 144.419 144.536 144.654 144.759 144.859 144.931 145.031 145.116 145.176 145.234 145.321 145.404 145.479 145.559 145.649 145.719 145.776 145.886 145.969 146.054 146.139 146.229 146.286 146.361 146.444 146.501 146.599 146.674 146.766 146.841 146.886 146.926 146.961 146.999 147.079 147.146 147.204 147.381 147.569 147.614 147.661 147.809 147.901 147.999 148.021 148.159 148.386 148.564 148.626 148.829 148.959 149.116 149.341 149.559 149.646 149.881 149.974 150.079 150.144 150.036 150.091 150.116 150.044 150.011 150.114 150.134 150.166 150.304 150.479 150.534 150.629 150.691 150.741 150.589 150.636 150.601 150.654 150.521 150.376 150.206 150.026 149.916 149.874 149.831 149.821 149.786 149.816 149.879 149.971 150.059 150.139 150.246 150.309 150.316 150.361 150.444 150.541 150.569 150.598 150.661 150.861 150.946 150.904 150.869 150.898 150.956 151.011 151.104 151.178 151.264 151.366 151.454 151.499 151.549 151.581 151.601 151.633 151.659 151.644 151.674 151.654 151.656 151.686 151.678 151.714 151.754 151.774 151.796 151.854 151.881 151.924 151.946 151.993 152.031 152.061 152.116 152.098 152.068 152.059 152.081 152.071 152.106 152.114 152.131 152.151 152.166 152.166 152.186 152.234 152.269 152.288 152.344 152.346 152.391 152.401 152.431 152.476 152.519 152.579 152.616 152.651 152.661 152.681 152.711 152.741 152.764 152.799 152.846 152.894 152.924 152.986 153.054 153.114 153.176 153.206 153.256 153.296 153.336 153.368 153.404 153.464 153.504 153.524 153.576 153.624 153.706 153.666 153.693 153.771 153.794 153.811 153.839 153.879 153.934 153.981 154.021 154.074 154.154 154.204 154.264 154.321 154.394 154.439 154.524 154.554 154.586 154.633 154.663 154.701 154.736 154.779 154.818 154.868 154.898 154.934 154.971 155.014 155.089 155.114 155.156 155.208 155.266 155.311 155.329 155.379 155.391 155.431 155.491 155.503 155.556 155.601 155.628 155.674 155.689 155.739 155.766 155.809 155.833 155.851 155.878 155.889 155.881 155.894 155.906 155.929 155.939 155.941 155.934 155.954 155.924 155.891 155.894 155.836 155.834 155.818 155.834 155.816 155.876 155.896 155.926 155.968 155.991 156.006 156.008 156.006 156.014 156.033 156.021 156.016 155.986 155.989 155.984 155.928 155.921 155.879 155.871 155.946 155.846 155.854 155.824 155.786 155.743 155.684 155.633 155.594 155.561 155.568 155.536 155.531 155.536 155.471 155.471 155.454 155.454 155.426 155.396 155.381 155.323 155.323 155.291 155.296 155.248 155.221 155.213 155.203 155.198 155.163 155.146 155.103 155.058 155.056 155.013
138.491 138.584 138.684 138.766 138.884 139.016 139.079 139.161 139.276 139.386 139.481 139.541 139.651 139.754 139.834 139.926 140.019 140.154 140.269 140.379 140.484 140.576 140.654 140.716 140.856 140.961 141.054 141.216 141.301 141.419 141.534 141.614 141.659 141.779 141.906 141.961 142.896 143.919 143.289 142.779 142.716 142.619 142.634 142.674 142.774 142.794 142.894 142.949 143.046 143.104 143.191 143.279 143.416 143.481 143.636 143.619 143.706 143.786 143.834 143.904 143.999 144.076 144.149 144.214 144.304 144.394 144.531 144.641 144.764 144.866 144.944 145.009 145.109 145.179 145.211 145.296 145.384 145.461 145.559 145.609 145.684 145.769 145.859 145.951 146.026 146.134 146.219 146.299 146.344 146.419 146.486 146.569 146.644 146.739 146.811 146.859 146.916 146.954 146.981 147.019 147.081 147.186 147.316 147.481 147.589 147.661 147.759 147.806 147.864 147.894 147.979 148.041 148.176 148.229 148.304 148.376 148.494 148.556 148.639 148.729 148.979 148.936 149.079 149.154 149.194 149.274 149.416 149.536 149.674 149.796 149.796 149.949 150.114 150.216 150.306 150.374 150.516 150.676 150.789 150.831 150.906 150.906 150.854 150.919 150.919 151.011 151.046 151.094 150.966 150.961 150.651 150.489 150.111 149.859 149.924 150.079 150.169 150.221 150.254 150.269 150.344 150.389 150.446 150.489 150.524 150.579 150.626 150.724 150.818 150.883 150.898 150.904 150.959 151.023 151.114 151.193 151.261 151.354 151.421 151.476 151.511 151.529 151.554 151.604 151.606 151.629 151.631 151.633 151.616 151.633 151.639 151.661 151.714 151.753 151.764 151.811 151.854 151.883 151.921 151.961 152.006 151.989 151.976 152.001 151.999 151.991 152.026 152.008 152.034 152.038 152.051 152.068 152.101 152.144 152.146 152.211 152.239 152.249 152.291 152.306 152.339 152.396 152.439 152.473 152.519 152.529 152.538 152.586 152.601 152.641 152.648 152.678 152.731 152.774 152.821 152.871 152.943 153.008 153.068 153.116 153.144 153.179 153.216 153.274 153.294 153.336 153.368 153.406 153.459 153.501 153.604 153.586 153.604 153.641 153.676 153.699 153.726 153.771 153.821 153.881 153.926 153.993 154.029 154.086 154.171 154.243 154.318 154.369 154.446 154.479 154.529 154.579 154.633 154.674 154.689 154.724 154.774 154.826 154.866 154.904 154.966 154.981 155.036 155.054 155.119 155.159 155.204 155.239 155.269 155.288 155.306 155.336 155.378 155.389 155.409 155.436 155.484 155.514 155.559 155.564 155.596 155.639 155.651 155.659 155.689 155.723 155.766 155.776 155.784 155.814 155.816 155.851 155.874 155.881 155.886 155.859 155.839 155.781 155.756 155.746 155.734 155.754 155.764 155.774 155.821 155.831 155.851 155.871 155.886 155.901 155.929 155.924 155.934 155.916 155.916 155.904 155.911 155.874 155.854 155.841 155.796 155.866 155.824 155.809 155.773 155.746 155.714 155.671 155.641 155.604 155.566 155.556 155.546 155.529 155.491 155.479 155.466 155.391 155.401 155.443 155.416 155.388 155.338 155.363 155.341 155.303 155.276 155.241 155.238 155.211 155.221 155.181 155.173 155.126 155.108 155.073 155.053
138.426 138.484 138.639 138.721 138.809 138.941 139.014 139.106 139.206 139.296 139.384 139.501 139.604 139.681 139.759 139.894 140.006 140.151 140.229 140.349 140.439 140.524 140.596 140.681 140.829 140.939 141.039 141.179 141.266 141.376 141.486 141.584 141.611 141.734 141.819 141.919 142.686 143.744 143.384 142.614 142.634 142.576 142.581 142.631 142.704 142.764 142.829 142.916 143.011 143.074 143.174 143.321 143.379 143.439 143.551 143.611 143.701 143.729 143.791 143.876 143.969 144.056 144.144 144.196 144.286 144.409 144.516 144.676 144.779 144.854 144.926 145.021 145.111 145.146 145.224 145.319 145.389 145.451 145.544 145.621 145.686 145.771 145.869 145.924 146.016 146.106 146.201 146.246 146.319 146.379 146.436 146.536 146.614 146.694 146.761 146.819 146.889 146.939 146.959 147.024 147.066 147.121 147.319 147.849 147.821 147.644 147.761 147.776 147.796 147.839 147.906 147.986 148.071 148.154 148.226 148.309 148.381 148.446 148.526 148.581 148.609 148.704 148.746 148.806 148.869 148.901 148.984 149.009 149.094 149.124 149.111 149.189 149.281 149.326 149.386 149.519 149.626 149.709 149.839 149.921 149.966 149.961 149.976 150.104 150.051 150.154 150.444 150.456 150.864 151.044 151.081 151.204 151.014 149.921 149.831 149.979 150.064 150.094 150.136 150.221 150.276 150.361 150.348 150.368 150.419 150.496 150.546 150.606 150.624 150.661 150.756 150.859 150.911 150.979 150.956 151.023 151.071 151.171 151.221 151.306 151.364 151.424 151.459 151.484 151.501 151.529 151.551 151.564 151.571 151.589 151.581 151.576 151.624 151.626 151.663 151.709 151.711 151.784 151.799 151.831 151.848 151.883 151.879 151.898 151.909 151.904 151.926 151.913 151.939 151.951 151.949 151.971 151.981 152.016 152.054 152.104 152.116 152.139 152.171 152.199 152.239 152.269 152.341 152.356 152.389 152.421 152.461 152.471 152.501 152.536 152.541 152.586 152.631 152.691 152.764 152.788 152.844 152.919 152.959 153.008 153.046 153.081 153.098 153.161 153.193 153.226 153.276 153.294 153.356 153.378 153.521 153.471 153.491 153.554 153.566 153.591 153.604 153.644 153.711 153.771 153.816 153.883 153.929 153.989 154.086 154.149 154.224 154.289 154.369 154.413 154.471 154.524 154.584 154.601 154.671 154.706 154.743 154.799 154.864 154.896 154.954 154.971 155.006 155.056 155.101 155.146 155.171 155.211 155.239 155.224 155.236 155.244 155.269 155.279 155.281 155.316 155.329 155.348 155.399 155.404 155.431 155.454 155.489 155.481 155.516 155.561 155.599 155.631 155.658 155.706 155.739 155.783 155.821 155.854 155.816 155.788 155.781 155.729 155.699 155.699 155.651 155.658 155.661 155.663 155.691 155.719 155.741 155.754 155.766 155.796 155.818 155.816 155.826 155.831 155.821 155.836 155.824 155.818 155.784 155.774 155.741 155.749 155.741 155.739 155.711 155.699 155.686 155.639 155.626 155.616 155.606 155.576 155.551 155.529 155.501 155.461 155.439 155.431 155.441 155.409 155.396 155.381 155.346 155.351 155.326 155.313 155.288 155.268 155.233 155.223 155.188 155.188 155.226 155.171 155.126 155.103 155.083
138.336 138.439 138.541 138.659 138.761 138.864 138.951 139.054 139.151 139.239 139.316 139.414 139.519 139.599 139.691 139.831 139.926 140.066 140.181 140.301 140.386 140.486 140.549 140.626 140.801 140.891 140.991 141.144 141.241 141.339 141.449 141.519 141.581 141.701 141.804 141.871 142.839 143.504 143.286 142.496 142.499 142.499 142.519 142.579 142.636 142.726 142.829 142.866 142.936 143.049 143.169 143.216 143.326 143.449 143.496 143.576 143.629 143.716 143.776 143.864 143.964 144.036 144.129 144.176 144.294 144.404 144.539 144.666 144.756 144.854 144.931 145.039 145.111 145.169 145.216 145.319 145.386 145.454 145.539 145.619 145.704 145.769 145.844 145.906 146.004 146.101 146.184 146.231 146.291 146.339 146.409 146.484 146.561 146.626 146.711 146.776 146.854 146.911 146.961 146.974 147.024 147.054 147.586 149.144 148.894 147.881 147.781 147.736 147.756 147.824 147.871 147.916 148.014 148.086 148.179 148.246 148.316 148.364 148.461 148.496 148.554 148.636 148.666 148.719 148.764 148.776 148.816 148.871 148.891 148.931 148.989 149.029 149.071 149.149 149.219 149.306 149.386 149.481 149.559 149.619 149.661 149.694 149.751 149.799 149.859 149.894 149.944 149.959 150.081 150.244 150.424 150.621 151.184 149.994 149.721 149.839 149.889 150.351 150.834 150.834 150.916 150.836 150.706 150.426 150.426 150.546 150.559 150.576 150.618 150.616 150.654 150.684 150.686 150.786 150.926 150.956 151.006 151.011 151.038 151.136 151.186 151.231 151.288 151.346 151.391 151.439 151.451 151.481 151.506 151.521 151.514 151.556 151.546 151.514 151.524 151.566 151.601 151.633 151.651 151.681 151.716 151.731 151.753 151.776 151.791 151.806 151.818 151.799 151.829 151.834 151.844 151.854 151.878 151.908 151.946 152.006 152.026 152.056 152.069 152.098 152.129 152.184 152.231 152.253 152.276 152.306 152.368 152.356 152.406 152.424 152.454 152.501 152.546 152.581 152.629 152.709 152.754 152.824 152.851 152.911 152.951 152.981 153.008 153.044 153.094 153.124 153.166 153.176 153.243 153.291 153.386 153.374 153.401 153.434 153.443 153.471 153.501 153.544 153.626 153.656 153.699 153.771 153.848 153.894 153.986 154.038 154.133 154.204 154.264 154.334 154.398 154.466 154.524 154.579 154.601 154.674 154.721 154.781 154.836 154.881 154.941 154.964 155.014 155.049 155.083 155.119 155.163 155.211 155.176 155.204 155.204 155.216 155.206 155.191 155.191 155.221 155.206 155.216 155.246 155.258 155.281 155.296 155.326 155.318 155.359 155.406 155.446 155.486 155.554 155.596 155.649 155.721 155.769 155.791 155.786 155.754 155.729 155.674 155.651 155.628 155.591 155.584 155.571 155.598 155.579 155.621 155.646 155.661 155.674 155.699 155.729 155.749 155.749 155.758 155.743 155.758 155.758 155.746 155.714 155.691 155.674 155.686 155.641 155.679 155.678 155.669 155.661 155.629 155.611 155.601 155.584 155.546 155.529 155.511 155.481 155.476 155.443 155.379 155.426 155.389 155.398 155.371 155.333 155.353 155.318 155.318 155.293 155.248 155.276 155.243 155.193 155.188 155.196 155.186 155.146 155.121 155.133
138.286 138.369 138.494 138.591 138.694 138.804 138.859 138.996 139.091 139.176 139.281 139.356 139.456 139.529 139.656 139.774 139.884 139.994 140.139 140.239 140.304 140.414 140.494 140.591 140.741 140.819 140.959 141.089 141.186 141.306 141.389 141.476 141.521 141.651 141.714 141.801 142.881 143.624 143.174 142.454 142.449 142.451 142.479 142.546 142.629 142.676 142.764 142.796 142.874 142.951 143.049 143.134 143.204 143.316 143.419 143.509 143.564 143.649 143.736 143.839 143.934 144.026 144.109 144.181 144.271 144.364 144.506 144.636 144.761 144.826 144.924 145.016 145.066 145.136 145.234 145.296 145.379 145.441 145.531 145.626 145.696 145.759 145.824 145.911 145.966 146.081 146.141 146.194 146.251 146.326 146.384 146.456 146.511 146.589 146.641 146.729 146.791 146.874 146.901 146.919 146.959 146.984 147.486 149.229 149.539 147.879 147.664 147.649 147.689 147.749 147.816 147.869 147.934 148.011 148.094 148.176 148.246 148.326 148.401 148.451 148.501 148.551 148.606 148.644 148.659 148.699 148.736 148.794 148.806 148.869 148.911 148.939 149.001 149.079 149.166 149.246 149.331 149.424 149.484 149.529 149.566 149.616 149.664 149.686 149.719 149.784 149.844 149.856 149.906 150.164 150.371 150.691 150.969 149.676 149.606 149.676 150.619 151.539 151.389 151.469 151.549 151.749 151.771 150.519 150.479 151.041 150.779 150.666 150.671 150.711 150.758 150.678 150.691 150.699 150.721 150.749 150.834 150.956 151.041 151.004 150.984 151.069 151.114 151.139 151.201 151.264 151.329 151.366 151.401 151.419 151.434 151.451 151.461 151.471 151.484 151.486 151.454 151.508 151.541 151.549 151.584 151.586 151.614 151.644 151.663 151.669 151.684 151.681 151.714 151.701 151.731 151.753 151.769 151.811 151.834 151.879 151.913 151.919 151.964 151.984 152.021 152.081 152.104 152.133 152.171 152.206 152.236 152.281 152.318 152.329 152.344 152.396 152.446 152.486 152.551 152.604 152.676 152.689 152.761 152.809 152.844 152.879 152.919 152.956 152.991 153.019 153.056 153.076 153.128 153.141 153.258 153.271 153.296 153.318 153.334 153.359 153.369 153.439 153.476 153.541 153.598 153.648 153.726 153.801 153.874 153.943 154.016 154.104 154.174 154.239 154.306 154.371 154.426 154.508 154.541 154.621 154.686 154.769 154.829 154.874 154.924 154.951 154.991 155.059 155.094 155.114 155.161 155.181 155.169 155.186 155.169 155.161 155.163 155.129 155.116 155.114 155.111 155.114 155.101 155.146 155.131 155.144 155.169 155.184 155.204 155.251 155.294 155.356 155.406 155.469 155.566 155.626 155.681 155.714 155.736 155.706 155.671 155.629 155.601 155.554 155.526 155.519 155.499 155.484 155.506 155.523 155.536 155.571 155.571 155.601 155.646 155.669 155.663 155.671 155.676 155.676 155.681 155.671 155.654 155.669 155.616 155.604 155.636 155.654 155.628 155.641 155.609 155.629 155.611 155.591 155.601 155.556 155.536 155.504 155.449 155.434 155.419 155.416 155.374 155.376 155.376 155.353 155.343 155.326 155.323 155.331 155.278 155.238 155.266 155.233 155.221 155.216 155.203 155.163 155.163 155.111 155.113
138.239 138.299 138.424 138.546 138.649 138.746 138.841 138.949 139.049 139.149 139.259 139.334 139.416 139.491 139.601 139.741 139.839 139.964 140.101 140.151 140.274 140.344 140.434 140.529 140.651 140.761 140.846 141.019 141.106 141.239 141.309 141.401 141.469 141.581 141.641 141.729 142.759 143.719 143.326 142.399 142.346 142.396 142.426 142.459 142.506 142.554 142.649 142.724 142.814 142.916 142.996 143.089 143.186 143.276 143.376 143.449 143.514 143.609 143.714 143.821 143.906 143.981 144.076 144.149 144.234 144.346 144.466 144.606 144.729 144.804 144.904 144.964 145.049 145.129 145.196 145.264 145.341 145.436 145.511 145.604 145.676 145.759 145.824 145.891 145.966 146.021 146.101 146.164 146.229 146.259 146.339 146.411 146.451 146.536 146.601 146.669 146.729 146.804 146.851 146.839 146.879 146.914 147.321 148.911 148.961 147.736 147.601 147.569 147.596 147.691 147.736 147.809 147.864 147.951 148.029 148.099 148.154 148.246 148.329 148.399 148.446 148.494 148.519 148.536 148.584 148.634 148.679 148.709 148.734 148.809 148.836 148.881 148.941 149.036 149.089 149.184 149.256 149.341 149.396 149.466 149.476 149.536 149.594 149.646 149.676 149.729 149.741 149.764 149.821 149.889 150.221 150.526 151.031 149.599 149.506 149.946 151.394 150.644 150.204 150.259 150.321 150.451 150.546 150.359 150.469 151.959 152.471 151.809 151.351 150.979 150.814 150.726 150.799 150.776 150.729 150.704 150.701 150.721 150.766 150.821 150.946 151.038 150.996 151.011 151.068 151.059 151.148 151.184 151.243 151.286 151.306 151.349 151.379 151.399 151.416 151.428 151.434 151.413 151.396 151.421 151.441 151.449 151.491 151.538 151.531 151.546 151.549 151.556 151.566 151.591 151.614 151.654 151.674 151.711 151.714 151.766 151.801 151.799 151.831 151.896 151.896 151.951 152.008 152.038 152.068 152.109 152.136 152.166 152.204 152.211 152.258 152.309 152.346 152.383 152.454 152.506 152.551 152.606 152.666 152.686 152.739 152.769 152.824 152.846 152.874 152.913 152.949 152.969 153.011 153.049 153.159 153.181 153.161 153.194 153.204 153.249 153.271 153.318 153.374 153.441 153.484 153.554 153.614 153.686 153.779 153.849 153.934 153.993 154.059 154.141 154.223 154.286 154.364 154.434 154.506 154.576 154.651 154.724 154.796 154.841 154.889 154.954 154.989 155.059 155.089 155.126 155.148 155.154 155.144 155.151 155.136 155.136 155.109 155.099 155.066 155.056 155.031 155.011 155.029 155.029 155.008 155.034 155.036 155.054 155.056 155.111 155.154 155.223 155.276 155.354 155.436 155.529 155.579 155.648 155.654 155.654 155.601 155.601 155.521 155.471 155.451 155.431 155.413 155.429 155.424 155.439 155.459 155.481 155.514 155.538 155.564 155.586 155.611 155.614 155.626 155.624 155.624 155.624 155.609 155.606 155.586 155.559 155.648 155.628 155.611 155.629 155.621 155.629 155.604 155.621 155.561 155.568 155.538 155.491 155.479 155.424 155.389 155.374 155.371 155.359 155.334 155.311 155.333 155.301 155.281 155.276 155.268 155.258 155.238 155.213 155.191 155.188 155.193 155.158 155.136 155.111 155.091
138.159 138.261 138.376 138.459 138.569 138.699 138.776 138.874 138.996 139.086 139.196 139.296 139.371 139.486 139.579 139.706 139.791 139.899 140.061 140.126 140.221 140.311 140.396 140.489 140.606 140.694 140.794 140.929 141.039 141.144 141.236 141.329 141.399 141.491 141.571 141.666 142.739 143.856 142.901 142.361 142.269 142.309 142.336 142.374 142.434 142.514 142.566 142.676 142.774 142.866 142.956 143.084 143.171 143.276 143.359 143.439 143.526 143.594 143.656 143.786 143.854 143.954 144.034 144.116 144.214 144.296 144.431 144.551 144.676 144.766 144.854 144.929 145.021 145.084 145.176 145.239 145.324 145.399 145.474 145.569 145.666 145.739 145.809 145.879 145.946 146.014 146.079 146.151 146.204 146.264 146.314 146.374 146.416 146.496 146.546 146.634 146.714 146.729 146.779 146.799 146.821 146.834 147.149 148.384 148.939 147.586 147.491 147.514 147.546 147.619 147.681 147.744 147.806 147.899 147.964 148.019 148.094 148.169 148.264 148.331 148.389 148.429 148.444 148.484 148.501 148.584 148.624 148.649 148.704 148.749 148.779 148.829 148.899 148.976 149.069 149.134 149.206 149.286 149.356 149.401 149.449 149.481 149.544 149.594 149.626 149.666 149.679 149.699 149.754 149.784 150.001 150.734 150.321 149.399 149.404 150.989 150.574 150.069 150.059 150.104 150.139 150.191 150.211 150.234 150.286 150.409 150.696 151.089 151.704 151.991 151.989 151.671 151.219 150.984 150.756 150.644 150.631 150.656 150.716 150.691 150.751 150.786 150.874 150.919 151.011 151.049 151.006 151.034 151.071 151.106 151.154 151.196 151.249 151.269 151.321 151.324 151.369 151.346 151.349 151.344 151.299 151.319 151.364 151.399 151.411 151.446 151.441 151.434 151.451 151.476 151.484 151.503 151.544 151.579 151.591 151.644 151.679 151.681 151.699 151.754 151.801 151.854 151.889 151.931 151.931 152.001 152.004 152.054 152.084 152.118 152.146 152.193 152.251 152.271 152.329 152.379 152.443 152.491 152.549 152.601 152.629 152.691 152.729 152.758 152.776 152.811 152.836 152.871 152.876 152.956 153.051 153.089 153.066 153.091 153.114 153.114 153.159 153.216 153.251 153.316 153.368 153.431 153.491 153.581 153.654 153.739 153.818 153.891 153.979 154.059 154.114 154.206 154.288 154.354 154.441 154.536 154.611 154.689 154.788 154.829 154.894 154.934 154.973 155.019 155.074 155.099 155.136 155.159 155.131 155.116 155.118 155.106 155.071 155.059 155.019 155.003 154.991 154.954 154.934 154.929 154.939 154.924 154.924 154.943 154.936 154.964 155.014 155.086 155.156 155.226 155.318 155.411 155.493 155.536 155.568 155.544 155.526 155.484 155.456 155.396 155.359 155.386 155.331 155.334 155.359 155.376 155.406 155.436 155.459 155.479 155.514 155.541 155.551 155.559 155.576 155.591 155.566 155.571 155.581 155.594 155.553 155.508 155.609 155.569 155.629 155.609 155.636 155.614 155.574 155.581 155.534 155.541 155.506 155.446 155.408 155.369 155.383 155.371 155.354 155.326 155.339 155.303 155.283 155.283 155.273 155.258 155.251 155.191 155.208 155.153 155.148 155.131 155.143 155.128 155.098 155.106 155.073
138.106 138.196 138.294 138.401 138.499 138.639 138.694 138.769 138.926 139.029 139.129 139.219 139.326 139.414 139.524 139.669 139.736 139.869 139.981 140.074 140.176 140.261 140.349 140.434 140.579 140.664 140.774 140.899 141.001 141.096 141.186 141.251 141.334 141.424 141.494 141.624 142.779 143.809 142.381 142.211 142.196 142.174 142.241 142.316 142.379 142.444 142.519 142.631 142.724 142.821 142.929 143.066 143.149 143.239 143.314 143.406 143.489 143.549 143.621 143.721 143.811 143.906 143.994 144.069 144.141 144.256 144.369 144.499 144.629 144.701 144.781 144.884 144.966 145.046 145.109 145.186 145.291 145.369 145.449 145.531 145.621 145.719 145.781 145.846 145.921 145.984 146.049 146.126 146.156 146.216 146.249 146.296 146.394 146.444 146.511 146.579 146.639 146.679 146.706 146.726 146.756 146.794 147.044 148.381 148.851 147.394 147.399 147.449 147.506 147.549 147.606 147.654 147.741 147.796 147.861 147.916 147.991 148.066 148.164 148.219 148.274 148.321 148.391 148.396 148.436 148.529 148.554 148.591 148.636 148.686 148.714 148.784 148.851 148.929 148.991 149.079 149.169 149.239 149.299 149.364 149.391 149.456 149.499 149.556 149.581 149.614 149.621 149.644 149.644 149.654 149.986 150.881 149.904 149.289 149.839 151.016 150.099 149.966 150.034 150.066 150.114 150.096 150.109 150.131 150.156 150.193 150.186 150.191 150.311 150.529 151.084 151.571 151.746 152.001 152.046 151.833 151.519 151.223 150.931 150.741 150.711 150.736 150.711 150.749 150.771 150.839 150.981 151.001 151.023 150.958 150.991 150.996 151.071 151.114 151.156 151.184 151.221 151.239 151.286 151.284 151.244 151.256 151.249 151.254 151.271 151.294 151.303 151.311 151.324 151.348 151.371 151.368 151.411 151.443 151.471 151.526 151.561 151.556 151.564 151.609 151.654 151.719 151.756 151.811 151.829 151.878 151.911 151.941 151.954 151.986 152.031 152.061 152.124 152.159 152.216 152.269 152.326 152.376 152.436 152.494 152.534 152.586 152.596 152.621 152.661 152.688 152.726 152.753 152.784 152.854 152.961 152.981 152.956 152.976 152.976 153.004 153.038 153.091 153.139 153.191 153.253 153.314 153.401 153.476 153.551 153.624 153.699 153.771 153.866 153.949 154.014 154.114 154.199 154.271 154.383 154.456 154.561 154.654 154.731 154.773 154.841 154.899 154.961 155.004 155.081 155.089 155.106 155.121 155.094 155.098 155.089 155.064 155.031 155.016 154.989 154.964 154.949 154.929 154.869 154.856 154.854 154.849 154.829 154.829 154.818 154.864 154.894 154.971 155.026 155.106 155.191 155.286 155.364 155.401 155.454 155.436 155.413 155.398 155.366 155.309 155.283 155.288 155.276 155.264 155.274 155.296 155.336 155.354 155.391 155.429 155.469 155.469 155.516 155.516 155.531 155.526 155.524 155.529 155.538 155.534 155.521 155.491 155.628 155.589 155.624 155.636 155.591 155.601 155.541 155.544 155.534 155.476 155.451 155.396 155.386 155.366 155.349 155.336 155.324 155.301 155.281 155.261 155.261 155.266 155.226 155.208 155.211 155.161 155.156 155.136 155.141 155.101 155.076 155.088 155.073 155.036 155.033
138.016 138.134 138.219 138.306 138.436 138.544 138.624 138.731 138.869 138.946 139.056 139.161 139.261 139.349 139.484 139.624 139.704 139.776 139.899 140.014 140.101 140.206 140.284 140.364 140.504 140.624 140.691 140.861 140.921 141.051 141.136 141.224 141.284 141.396 141.411 141.596 142.714 143.596 142.184 142.031 142.099 142.101 142.159 142.266 142.326 142.381 142.471 142.591 142.681 142.781 142.884 143.011 143.109 143.194 143.294 143.356 143.416 143.484 143.571 143.669 143.761 143.854 143.911 144.004 144.081 144.194 144.304 144.431 144.574 144.646 144.726 144.816 144.896 144.984 145.031 145.121 145.224 145.296 145.381 145.469 145.546 145.636 145.731 145.789 145.881 145.954 146.029 146.076 146.129 146.171 146.206 146.261 146.326 146.401 146.444 146.519 146.591 146.624 146.654 146.696 146.711 146.719 147.079 148.079 148.924 147.404 147.304 147.384 147.426 147.506 147.546 147.601 147.679 147.726 147.794 147.856 147.914 148.009 148.096 148.159 148.216 148.279 148.316 148.344 148.399 148.446 148.486 148.526 148.561 148.619 148.659 148.701 148.761 148.856 148.934 149.029 149.089 149.164 149.229 149.304 149.349 149.401 149.449 149.496 149.504 149.539 149.539 149.589 149.579 149.621 150.011 151.044 149.464 149.184 150.389 150.521 149.869 149.909 150.001 150.029 150.036 150.019 149.991 150.029 150.064 150.141 150.171 150.176 150.174 150.139 150.141 150.188 150.269 150.446 150.891 151.291 151.614 152.031 152.056 151.781 151.449 151.021 150.824 150.743 150.719 150.676 150.724 150.746 150.816 150.899 150.924 150.891 150.894 150.936 150.989 151.031 151.071 151.111 151.128 151.146 151.174 151.181 151.184 151.174 151.171 151.156 151.163 151.171 151.191 151.221 151.219 151.258 151.269 151.314 151.361 151.378 151.401 151.416 151.456 151.496 151.538 151.596 151.621 151.676 151.686 151.736 151.769 151.791 151.836 151.871 151.896 151.946 152.024 152.026 152.104 152.133 152.201 152.249 152.311 152.359 152.406 152.446 152.514 152.534 152.566 152.574 152.599 152.631 152.676 152.756 152.889 152.896 152.844 152.876 152.846 152.898 152.929 152.971 153.031 153.089 153.151 153.208 153.288 153.359 153.446 153.526 153.596 153.676 153.736 153.829 153.931 153.999 154.094 154.196 154.296 154.389 154.503 154.599 154.663 154.734 154.791 154.861 154.916 154.951 155.019 155.054 155.061 155.071 155.064 155.046 155.038 155.021 155.006 154.989 154.954 154.913 154.916 154.869 154.834 154.806 154.776 154.756 154.758 154.736 154.739 154.751 154.783 154.836 154.886 154.956 155.034 155.151 155.196 155.286 155.306 155.314 155.301 155.291 155.256 155.226 155.214 155.208 155.176 155.208 155.193 155.229 155.273 155.309 155.344 155.371 155.421 155.424 155.446 155.469 155.464 155.466 155.496 155.486 155.496 155.491 155.489 155.473 155.596 155.541 155.651 155.614 155.614 155.554 155.511 155.491 155.454 155.443 155.424 155.374 155.371 155.311 155.324 155.299 155.291 155.276 155.256 155.253 155.236 155.221 155.196 155.161 155.141 155.151 155.091 155.076 155.086 155.076 155.036 155.031 155.018 154.986 154.958
137.964 138.056 138.174 138.284 138.371 138.476 138.574 138.646 138.781 138.889 138.951 139.094 139.176 139.269 139.394 139.546 139.624 139.729 139.821 139.939 140.064 140.129 140.209 140.309 140.446 140.549 140.661 140.779 140.871 140.976 141.066 141.139 141.244 141.326 141.364 141.604 142.684 143.264 142.011 141.969 141.991 142.026 142.111 142.206 142.271 142.346 142.446 142.546 142.649 142.749 142.851 142.971 143.054 143.154 143.229 143.294 143.349 143.439 143.496 143.609 143.709 143.781 143.856 143.934 144.014 144.136 144.256 144.371 144.481 144.559 144.669 144.751 144.826 144.894 144.981 145.061 145.149 145.224 145.341 145.391 145.504 145.581 145.664 145.769 145.839 145.926 145.974 146.044 146.079 146.141 146.169 146.219 146.266 146.349 146.419 146.484 146.546 146.576 146.606 146.624 146.649 146.654 147.139 148.586 148.596 147.216 147.251 147.304 147.356 147.404 147.499 147.539 147.619 147.646 147.761 147.814 147.896 147.984 148.049 148.124 148.194 148.236 148.264 148.291 148.351 148.384 148.424 148.464 148.506 148.554 148.611 148.634 148.714 148.801 148.866 148.934 149.006 149.081 149.161 149.216 149.281 149.314 149.364 149.394 149.424 149.449 149.474 149.501 149.504 149.546 150.291 150.604 149.124 149.146 150.666 150.029 149.751 149.881 149.941 149.944 149.914 149.913 149.881 149.946 149.979 150.061 150.119 150.128 150.121 150.141 150.151 150.163 150.149 150.118 150.111 150.149 150.291 150.536 150.844 151.419 151.966 152.234 152.084 151.391 150.816 150.834 150.758 150.699 150.669 150.679 150.739 150.856 150.889 150.854 150.816 150.834 150.878 150.936 150.969 151.019 151.044 151.066 151.096 151.114 151.121 151.099 151.096 151.061 151.074 151.084 151.099 151.146 151.174 151.179 151.211 151.254 151.261 151.296 151.326 151.361 151.426 151.459 151.471 151.529 151.554 151.596 151.618 151.669 151.704 151.723 151.779 151.804 151.878 151.909 151.961 152.014 152.079 152.126 152.189 152.243 152.304 152.346 152.368 152.413 152.441 152.461 152.479 152.523 152.559 152.636 152.754 152.791 152.741 152.736 152.758 152.769 152.814 152.866 152.913 152.981 153.036 153.086 153.166 153.236 153.336 153.398 153.493 153.579 153.624 153.693 153.804 153.909 153.989 154.101 154.199 154.316 154.431 154.523 154.601 154.666 154.731 154.791 154.871 154.904 154.944 154.976 155.001 155.004 154.999 155.004 154.979 154.956 154.919 154.916 154.881 154.866 154.856 154.814 154.799 154.756 154.729 154.719 154.706 154.658 154.671 154.669 154.686 154.734 154.781 154.824 154.896 154.969 155.034 155.094 155.131 155.161 155.174 155.151 155.146 155.136 155.114 155.106 155.101 155.111 155.121 155.154 155.209 155.224 155.269 155.291 155.336 155.371 155.401 155.416 155.411 155.428 155.434 155.461 155.461 155.449 155.461 155.439 155.564 155.554 155.604 155.621 155.579 155.529 155.471 155.421 155.416 155.364 155.368 155.326 155.318 155.296 155.301 155.294 155.246 155.221 155.229 155.223 155.221 155.198 155.163 155.148 155.133 155.123 155.066 155.046 155.031 155.018 155.031 154.986 154.956 154.958 154.951
137.921 138.019 138.119 138.201 138.316 138.406 138.519 138.621 138.709 138.809 138.909 139.014 139.109 139.219 139.304 139.469 139.561 139.636 139.746 139.869 139.941 140.054 140.136 140.239 140.364 140.471 140.561 140.679 140.799 140.911 141.021 141.091 141.156 141.244 141.329 141.519 142.686 143.064 141.869 141.881 141.924 141.944 142.039 142.136 142.204 142.289 142.379 142.486 142.586 142.696 142.826 142.919 143.009 143.121 143.184 143.246 143.306 143.376 143.431 143.529 143.636 143.731 143.791 143.881 143.946 144.061 144.181 144.316 144.406 144.471 144.571 144.681 144.744 144.814 144.911 145.001 145.069 145.164 145.239 145.351 145.414 145.524 145.626 145.694 145.809 145.851 145.909 145.956 146.011 146.046 146.096 146.161 146.241 146.284 146.369 146.416 146.476 146.529 146.546 146.544 146.586 146.609 147.029 148.346 148.796 147.151 147.184 147.241 147.294 147.354 147.429 147.481 147.569 147.636 147.699 147.771 147.859 147.921 148.014 148.091 148.146 148.184 148.216 148.254 148.276 148.324 148.366 148.424 148.461 148.491 148.534 148.594 148.659 148.729 148.819 148.896 148.951 149.019 149.079 149.146 149.194 149.239 149.269 149.294 149.349 149.351 149.389 149.421 149.424 149.479 150.379 150.096 149.024 149.474 150.571 149.669 149.724 149.799 149.824 149.834 149.806 149.803 149.781 149.791 149.804 149.889 149.966 150.031 150.086 150.124 150.121 150.091 150.109 150.126 150.121 150.151 150.146 150.149 150.189 150.276 150.514 150.981 151.461 151.939 152.019 151.436 150.904 150.771 150.746 150.699 150.646 150.631 150.676 150.756 150.784 150.758 150.743 150.754 150.781 150.833 150.909 150.968 150.999 150.993 151.038 151.061 151.046 151.049 151.021 150.999 150.999 151.011 151.029 151.064 151.084 151.118 151.121 151.151 151.196 151.229 151.264 151.301 151.346 151.396 151.424 151.461 151.494 151.521 151.561 151.609 151.669 151.684 151.736 151.771 151.824 151.883 151.934 152.006 152.074 152.111 152.169 152.226 152.258 152.294 152.318 152.346 152.361 152.416 152.446 152.519 152.631 152.681 152.626 152.641 152.639 152.656 152.696 152.756 152.801 152.864 152.931 152.979 153.046 153.148 153.216 153.291 153.379 153.429 153.516 153.604 153.681 153.781 153.886 153.989 154.124 154.236 154.346 154.436 154.541 154.591 154.679 154.756 154.814 154.859 154.881 154.929 154.916 154.949 154.934 154.926 154.916 154.891 154.856 154.866 154.806 154.801 154.774 154.756 154.721 154.691 154.704 154.666 154.644 154.611 154.581 154.584 154.568 154.621 154.646 154.679 154.751 154.804 154.864 154.921 154.949 154.961 154.973 154.971 155.004 154.996 155.004 155.004 154.991 155.026 155.049 155.066 155.114 155.154 155.186 155.231 155.281 155.301 155.324 155.344 155.354 155.361 155.376 155.383 155.399 155.416 155.416 155.409 155.481 155.541 155.581 155.564 155.541 155.481 155.376 155.324 155.331 155.296 155.288 155.249 155.294 155.266 155.284 155.264 155.219 155.171 155.176 155.181 155.156 155.186 155.128 155.093 155.138 155.088 155.053 155.033 155.041 154.993 154.981 154.956 154.913 154.878 154.903
137.874 137.941 138.091 138.171 138.236 138.361 138.484 138.561 138.636 138.756 138.859 138.969 139.034 139.164 139.296 139.421 139.504 139.621 139.681 139.809 139.914 139.989 140.076 140.184 140.289 140.414 140.486 140.624 140.714 140.871 140.939 140.999 141.081 141.179 141.229 141.586 142.819 143.084 141.859 141.801 141.849 141.889 141.986 142.069 142.136 142.241 142.334 142.426 142.534 142.624 142.769 142.849 142.986 143.051 143.109 143.171 143.241 143.294 143.369 143.476 143.546 143.639 143.704 143.771 143.861 143.991 144.099 144.219 144.326 144.419 144.479 144.594 144.646 144.749 144.839 144.916 145.011 145.094 145.169 145.281 145.364 145.466 145.514 145.606 145.726 145.789 145.859 145.904 145.949 145.974 146.026 146.104 146.169 146.246 146.294 146.346 146.389 146.449 146.464 146.491 146.529 146.539 147.064 148.439 149.016 147.211 147.099 147.169 147.239 147.266 147.359 147.441 147.511 147.589 147.626 147.691 147.789 147.856 147.936 147.991 148.066 148.109 148.156 148.199 148.206 148.276 148.311 148.361 148.396 148.446 148.509 148.546 148.606 148.694 148.771 148.826 148.874 148.951 149.036 149.104 149.131 149.164 149.194 149.214 149.234 149.284 149.296 149.316 149.354 149.456 150.516 149.711 148.931 149.596 150.296 149.526 149.634 149.671 149.696 149.714 149.706 149.699 149.671 149.669 149.696 149.749 149.854 149.879 149.949 150.011 150.001 150.011 150.021 150.051 150.094 150.131 150.161 150.171 150.186 150.229 150.251 150.294 150.376 150.564 151.109 151.868 152.131 151.696 151.171 150.801 150.746 150.663 150.636 150.606 150.604 150.651 150.681 150.706 150.659 150.661 150.709 150.769 150.841 150.874 150.926 150.939 150.971 150.976 150.974 150.981 150.973 150.921 150.926 150.926 150.979 150.971 151.021 151.014 151.061 151.091 151.136 151.174 151.214 151.251 151.294 151.324 151.351 151.381 151.421 151.473 151.516 151.544 151.586 151.646 151.704 151.731 151.814 151.879 151.941 151.979 152.049 152.109 152.144 152.184 152.206 152.219 152.231 152.294 152.331 152.426 152.519 152.581 152.506 152.523 152.526 152.553 152.589 152.661 152.709 152.758 152.809 152.868 152.946 153.044 153.106 153.163 153.264 153.318 153.394 153.484 153.566 153.651 153.754 153.866 153.993 154.111 154.221 154.339 154.464 154.523 154.599 154.689 154.736 154.784 154.814 154.849 154.844 154.856 154.841 154.834 154.826 154.799 154.794 154.769 154.719 154.704 154.693 154.663 154.649 154.639 154.636 154.591 154.581 154.561 154.514 154.508 154.491 154.521 154.521 154.538 154.566 154.651 154.684 154.739 154.758 154.791 154.809 154.816 154.831 154.861 154.866 154.874 154.906 154.936 154.973 154.993 155.034 155.076 155.116 155.159 155.223 155.254 155.258 155.269 155.294 155.314 155.316 155.336 155.346 155.383 155.376 155.366 155.414 155.506 155.526 155.521 155.459 155.411 155.304 155.271 155.239 155.249 155.264 155.229 155.271 155.253 155.236 155.234 155.226 155.166 155.179 155.153 155.141 155.133 155.106 155.088 155.106 155.058 155.041 155.051 155.021 154.981 154.961 154.953 154.873 154.861 154.838
