ncols 467
nrows 31
xllcorner    251024
yllcorner    134028
cellsize     2
NODATA_value -9999
-0.379 -0.408 -0.431 -0.439 -0.47 -0.464 -0.513 -0.543 -0.565 -0.576 -0.677 -0.734 -0.757 -0.763 -0.754 -0.79 -0.777 -0.76 -0.777 -0.765 -0.77 -0.765 -0.79 -0.783 -0.775 -0.803 -0.788 -0.79 -0.811 -0.793 -0.768 -0.77 -0.77 -0.798 -0.78 -0.795 -0.744 -0.704 -0.68 -0.663 -0.654 -0.623 -0.625 -0.609 -0.598 -0.57 -0.563 -0.582 -0.618 -0.646 -0.689 -0.682 -0.719 -0.606 -0.504 -0.507 -0.439 -0.169 0.154 0.459 0.751 0.929 0.939 0.951 0.954 0.919 0.896 0.909 0.921 0.921 0.934 0.914 0.939 0.954 0.966 1.014 1.011 1.019 1.011 1.026 1.054 1.074 1.136 1.124 1.156 1.214 1.214 1.176 1.209 1.216 1.259 1.231 1.216 1.229 1.244 1.234 1.206 1.196 1.159 1.144 1.126 1.126 1.129 1.151 1.164 1.181 1.221 1.206 1.239 1.219 1.239 1.236 1.266 1.311 1.411 1.414 1.439 1.459 1.481 1.491 1.481 1.504 1.496 1.499 1.491 1.489 1.506 1.534 1.541 1.529 1.524 1.531 1.514 1.489 1.494 1.476 1.509 1.466 1.519 1.534 1.561 1.584 1.589 1.589 1.619 1.584 1.571 1.589 1.586 1.589 1.559 1.571 1.579 1.559 1.534 1.511 1.501 1.491 1.491 1.524 1.486 1.486 1.451 1.424 1.396 1.374 1.356 1.346 1.331 1.299 1.284 1.279 1.274 1.294 1.269 1.294 1.276 1.284 1.279 1.319 1.264 1.266 1.261 1.264 1.296 1.316 1.306 1.319 1.304 1.279 1.264 1.241 1.241 1.229 1.219 1.186 1.204 1.204 1.174 1.179 1.174 1.179 1.186 1.194 1.176 1.146 1.139 1.166 1.156 1.164 1.141 1.119 1.096 1.089 1.071 1.021 0.974 0.989 0.939 0.884 0.864 0.851 0.821 0.834 0.846 0.844 0.831 0.819 0.791 0.824 0.784 0.744 0.746 0.751 0.786 0.761 0.744 0.729 0.717 0.689 0.679 0.667 0.662 0.639 0.609 0.584 0.537 0.517 0.504 0.469 0.392 0.387 0.279 0.217 0.142 0.077 0.037 -0.053 -0.103 -0.135 -0.204 -0.229 -0.269 -0.252 -0.227 -0.18 -0.127 -0.007 0.055 -0.014 -0.022 -0.086 -0.168 -0.268 -0.377 -0.523 -0.67 -0.779 -0.889 -0.978 -1.046 -1.044 -1.05 -1.029 -1.057 -1.072 -1.186 -1.218 -1.196 -1.091 -1.081 -1.056 -1.02 -1.02 -1.041 -1.052 -0.984 -0.998 -0.992 -0.985 -0.979 -0.993 -0.979 -0.952 -0.96 -0.976 -1.055 -0.916 -0.906 -0.912 -0.893 -0.897 -0.902 -0.888 -0.831 -0.772 -0.719 -0.682 -0.656 -0.582 -0.491 -0.364 -0.257 -0.108 0.117 0.383 0.576 0.792 1.002 1.224 1.439 1.597 1.777 1.909 2.059 2.189 2.369 2.532 2.737 2.884 3.077 3.272 3.457 3.637 3.784 3.937 4.187 6.137 7.382 8.094 8.079 8.162 8.179 8.309 8.437 8.609 8.699 8.807 8.939 9.044 9.162 9.244 9.382 9.457 9.519 9.629 9.709 9.809 9.904 9.942 10.027 10.102 10.157 10.222 10.252 10.367 10.417 10.449 10.507 10.522 10.599 10.644 10.684 10.719 10.754 10.787 10.854 10.927 10.947 11.347 12.794 15.989 14.622 11.839 11.417 11.592 11.747 11.867 11.919 11.984 12.047 12.107 12.174 12.267 12.302 12.399 12.472 12.519 12.604 12.644 12.714 12.757 12.802 12.844 12.857 12.869 12.844 12.852 12.912 12.957 13.257 15.482 16.724 16.509 16.257 14.419 14.314 13.154 13.267 13.359 13.437 13.474 13.527 13.572 13.627 13.677 13.684 13.752 13.757 13.797 13.852 13.869 13.867 13.889 13.914 13.899 13.867 13.904 13.869 13.844 13.877 13.842 13.797 13.772 13.792 13.757 13.757 13.684 13.672 13.614 13.577 13.527 13.427 13.372 13.372 13.319 13.269
-0.359 -0.37 -0.411 -0.416 -0.443 -0.474 -0.512 -0.534 -0.572 -0.586 -0.655 -0.724 -0.748 -0.75 -0.753 -0.793 -0.791 -0.783 -0.77 -0.773 -0.768 -0.798 -0.793 -0.79 -0.788 -0.782 -0.787 -0.785 -0.78 -0.775 -0.795 -0.746 -0.805 -0.79 -0.79 -0.777 -0.723 -0.699 -0.655 -0.651 -0.628 -0.612 -0.593 -0.584 -0.573 -0.544 -0.56 -0.547 -0.59 -0.649 -0.67 -0.651 -0.666 -0.571 -0.537 -0.497 -0.401 -0.174 0.171 0.521 0.801 0.891 0.916 0.894 0.901 0.856 0.871 0.904 0.896 0.899 0.949 0.924 0.954 0.954 0.964 0.981 0.974 0.981 0.994 1.009 1.016 1.034 1.081 1.099 1.111 1.139 1.154 1.184 1.206 1.226 1.184 1.229 1.231 1.251 1.234 1.256 1.256 1.249 1.276 1.219 1.176 1.154 1.126 1.119 1.151 1.174 1.149 1.196 1.206 1.206 1.224 1.254 1.289 1.331 1.369 1.421 1.416 1.469 1.449 1.439 1.454 1.496 1.494 1.474 1.489 1.501 1.506 1.554 1.506 1.529 1.511 1.531 1.524 1.536 1.546 1.521 1.506 1.479 1.524 1.524 1.514 1.526 1.546 1.536 1.586 1.561 1.534 1.554 1.529 1.551 1.556 1.561 1.561 1.526 1.536 1.529 1.539 1.509 1.504 1.524 1.491 1.459 1.451 1.389 1.386 1.349 1.341 1.301 1.319 1.284 1.286 1.291 1.294 1.299 1.264 1.301 1.279 1.296 1.279 1.289 1.289 1.286 1.309 1.316 1.304 1.324 1.311 1.286 1.274 1.269 1.249 1.234 1.249 1.224 1.169 1.211 1.194 1.194 1.211 1.191 1.199 1.199 1.204 1.204 1.194 1.156 1.144 1.116 1.131 1.109 1.109 1.104 1.081 1.101 1.079 1.019 0.981 0.976 0.956 0.956 0.939 0.906 0.876 0.884 0.889 0.876 0.831 0.834 0.779 0.776 0.786 0.774 0.739 0.716 0.751 0.699 0.706 0.694 0.664 0.662 0.604 0.564 0.579 0.562 0.544 0.509 0.524 0.544 0.502 0.494 0.444 0.412 0.342 0.261 0.177 0.104 0.005 -0.092 -0.152 -0.178 -0.219 -0.259 -0.273 -0.254 -0.235 -0.201 -0.149 -0.087 -0.04 -0.06 -0.101 -0.158 -0.207 -0.308 -0.421 -0.546 -0.64 -0.771 -0.886 -0.966 -1.023 -1.023 -0.983 -1.01 -1.033 -1.031 -1.206 -1.133 -1.125 -1.104 -1.089 -1.086 -1.085 -1.039 -1.047 -0.997 -0.987 -1 -0.963 -0.941 -0.98 -0.979 -0.937 -0.953 -0.964 -0.96 -0.941 -0.951 -0.905 -0.855 -0.851 -0.905 -0.894 -0.867 -0.818 -0.806 -0.788 -0.685 -0.628 -0.532 -0.486 -0.377 -0.309 -0.178 0.059 0.265 0.489 0.774 0.967 1.207 1.397 1.564 1.732 1.899 2.062 2.202 2.357 2.539 2.707 2.889 3.087 3.279 3.459 3.607 3.784 3.942 4.109 5.879 7.182 8.019 8.092 8.162 8.202 8.337 8.462 8.584 8.729 8.804 8.967 9.077 9.169 9.299 9.374 9.447 9.539 9.649 9.727 9.774 9.884 9.942 10.019 10.104 10.159 10.214 10.312 10.362 10.407 10.472 10.522 10.559 10.647 10.684 10.712 10.744 10.719 10.797 10.929 10.952 11.019 10.972 11.037 12.114 15.062 12.632 11.584 13.492 11.754 11.852 11.974 12.007 12.054 12.159 12.209 12.299 12.367 12.419 12.504 12.544 12.594 12.687 12.704 12.732 12.752 12.767 12.804 12.799 12.802 12.834 12.882 14.729 15.837 17.227 16.817 15.467 13.669 13.067 13.169 13.234 13.337 13.369 13.424 13.514 13.574 13.627 13.669 13.699 13.737 13.802 13.824 13.849 13.882 13.894 13.917 13.932 13.954 13.942 13.954 13.932 13.952 13.884 13.904 13.879 13.857 13.812 13.782 13.742 13.762 13.717 13.684 13.639 13.614 13.542 13.467 13.439 13.397 13.337 13.297
-0.355 -0.359 -0.397 -0.433 -0.436 -0.494 -0.494 -0.533 -0.55 -0.594 -0.649 -0.715 -0.742 -0.76 -0.774 -0.755 -0.783 -0.79 -0.788 -0.78 -0.788 -0.758 -0.74 -0.785 -0.798 -0.798 -0.816 -0.8 -0.79 -0.777 -0.783 -0.782 -0.789 -0.793 -0.787 -0.745 -0.7 -0.676 -0.648 -0.622 -0.586 -0.582 -0.56 -0.557 -0.526 -0.514 -0.509 -0.533 -0.564 -0.62 -0.629 -0.693 -0.629 -0.573 -0.541 -0.531 -0.424 -0.106 0.234 0.581 0.831 0.876 0.894 0.871 0.879 0.839 0.849 0.891 0.849 0.851 0.889 0.904 0.906 0.924 0.951 0.941 0.961 0.989 0.976 1.001 1.039 1.024 1.066 1.089 1.109 1.136 1.144 1.159 1.181 1.171 1.216 1.204 1.231 1.246 1.234 1.256 1.221 1.236 1.261 1.246 1.271 1.236 1.224 1.129 1.109 1.091 1.149 1.159 1.166 1.189 1.211 1.271 1.289 1.281 1.314 1.381 1.411 1.424 1.434 1.459 1.441 1.434 1.454 1.451 1.434 1.469 1.469 1.481 1.489 1.501 1.501 1.529 1.529 1.559 1.559 1.549 1.551 1.536 1.494 1.521 1.531 1.494 1.504 1.491 1.484 1.476 1.466 1.501 1.509 1.514 1.516 1.544 1.566 1.526 1.526 1.509 1.486 1.471 1.504 1.491 1.481 1.446 1.404 1.369 1.349 1.326 1.344 1.329 1.309 1.324 1.294 1.289 1.291 1.284 1.281 1.281 1.271 1.221 1.269 1.319 1.336 1.304 1.321 1.296 1.279 1.271 1.251 1.304 1.289 1.256 1.249 1.254 1.244 1.261 1.229 1.196 1.221 1.224 1.211 1.236 1.196 1.201 1.224 1.229 1.181 1.176 1.154 1.114 1.099 1.109 1.134 1.096 1.109 1.086 1.076 1.059 1.021 1.001 0.944 0.904 0.924 0.919 0.886 0.881 0.851 0.829 0.814 0.854 0.814 0.781 0.776 0.769 0.739 0.701 0.651 0.656 0.616 0.594 0.579 0.589 0.594 0.574 0.552 0.517 0.532 0.549 0.534 0.542 0.482 0.489 0.479 0.447 0.37 0.279 0.212 0.117 0.029 -0.079 -0.154 -0.201 -0.251 -0.268 -0.264 -0.284 -0.242 -0.219 -0.173 -0.119 -0.131 -0.119 -0.142 -0.181 -0.265 -0.356 -0.462 -0.558 -0.677 -0.77 -0.872 -0.929 -0.964 -1.003 -0.99 -0.976 -0.973 -1.018 -1.191 -1.11 -1.125 -1.114 -1.093 -1.089 -1.07 -1.039 -1.005 -1.018 -0.987 -0.956 -0.918 -0.931 -0.958 -0.958 -0.94 -0.944 -0.937 -0.942 -0.926 -0.924 -0.862 -0.848 -0.897 -0.849 -0.84 -0.853 -0.846 -0.837 -0.872 -0.726 -0.629 -0.541 -0.448 -0.368 -0.307 -0.151 0.056 0.246 0.454 0.733 0.982 1.154 1.349 1.567 1.724 1.919 2.057 2.197 2.339 2.532 2.709 2.897 3.082 3.257 3.444 3.604 3.777 3.922 4.159 5.629 7.007 7.997 8.152 8.212 8.262 8.367 8.507 8.564 8.739 8.834 8.962 9.077 9.197 9.294 9.389 9.462 9.574 9.644 9.717 9.767 9.882 9.952 10.034 10.114 10.182 10.242 10.307 10.369 10.457 10.499 10.509 10.584 10.639 10.672 10.769 10.794 10.787 10.819 10.919 10.982 11.039 11.057 11.024 11.184 13.459 15.817 15.812 13.084 11.764 11.852 11.972 12.064 12.102 12.172 12.237 12.312 12.377 12.452 12.504 12.549 12.594 12.624 12.667 12.682 12.699 12.704 12.719 12.754 12.772 12.774 14.064 16.202 16.779 16.207 14.964 13.104 13.047 13.147 13.237 13.292 13.357 13.422 13.467 13.552 13.594 13.642 13.672 13.737 13.802 13.852 13.899 13.889 13.919 13.939 13.977 13.969 14.009 13.994 13.984 13.977 13.952 13.957 13.927 13.879 13.904 13.854 13.837 13.807 13.772 13.759 13.709 13.679 13.622 13.569 13.512 13.464 13.434 13.377 13.324
-0.363 -0.357 -0.422 -0.442 -0.46 -0.467 -0.48 -0.52 -0.551 -0.606 -0.641 -0.722 -0.744 -0.76 -0.776 -0.79 -0.788 -0.77 -0.79 -0.774 -0.76 -0.803 -0.805 -0.79 -0.765 -0.788 -0.783 -0.8 -0.778 -0.78 -0.785 -0.792 -0.788 -0.79 -0.798 -0.747 -0.688 -0.626 -0.603 -0.58 -0.576 -0.557 -0.535 -0.501 -0.487 -0.464 -0.475 -0.521 -0.567 -0.605 -0.678 -0.677 -0.628 -0.596 -0.556 -0.519 -0.351 -0.096 0.284 0.636 0.841 0.894 0.886 0.884 0.829 0.836 0.829 0.836 0.836 0.824 0.839 0.861 0.899 0.921 0.941 0.936 0.929 0.969 0.944 0.991 1.001 1.009 1.006 1.029 1.061 1.099 1.121 1.141 1.156 1.179 1.169 1.206 1.209 1.199 1.231 1.236 1.214 1.256 1.256 1.241 1.244 1.249 1.239 1.261 1.206 1.176 1.171 1.204 1.201 1.206 1.239 1.256 1.276 1.299 1.339 1.371 1.364 1.376 1.386 1.396 1.421 1.441 1.451 1.431 1.446 1.439 1.461 1.461 1.486 1.486 1.514 1.546 1.561 1.544 1.534 1.556 1.559 1.549 1.569 1.581 1.586 1.586 1.589 1.574 1.534 1.494 1.471 1.446 1.486 1.486 1.489 1.489 1.499 1.489 1.519 1.484 1.489 1.436 1.454 1.431 1.426 1.389 1.341 1.324 1.304 1.331 1.339 1.316 1.296 1.276 1.271 1.254 1.261 1.256 1.239 1.251 1.291 1.314 1.326 1.346 1.331 1.319 1.304 1.304 1.306 1.286 1.264 1.264 1.261 1.279 1.261 1.266 1.231 1.219 1.204 1.239 1.209 1.199 1.214 1.216 1.189 1.194 1.184 1.166 1.189 1.151 1.141 1.144 1.104 1.106 1.101 1.084 1.071 1.096 1.051 1.034 1.021 0.976 0.971 0.951 0.939 0.914 0.874 0.869 0.871 0.834 0.809 0.811 0.789 0.779 0.739 0.744 0.764 0.756 0.721 0.676 0.654 0.651 0.614 0.667 0.679 0.662 0.617 0.627 0.589 0.552 0.497 0.492 0.439 0.444 0.429 0.442 0.42 0.363 0.268 0.192 0.106 -0.008 -0.111 -0.25 -0.282 -0.285 -0.296 -0.302 -0.291 -0.251 -0.201 -0.178 -0.131 -0.104 -0.086 -0.135 -0.186 -0.285 -0.387 -0.516 -0.627 -0.731 -0.826 -0.887 -0.917 -0.952 -0.954 -0.965 -0.973 -1.141 -1.181 -1.069 -1.127 -1.061 -1.085 -1.089 -1.044 -1.138 -1.157 -1 -0.963 -0.929 -0.918 -0.928 -0.942 -0.925 -0.916 -0.894 -0.907 -0.933 -0.894 -0.872 -0.837 -0.889 -0.855 -0.798 -0.831 -0.882 -0.866 -0.802 -0.748 -0.689 -0.622 -0.56 -0.454 -0.371 -0.313 -0.181 0.011 0.203 0.43 0.734 0.967 1.144 1.354 1.554 1.714 1.852 2.052 2.194 2.334 2.524 2.717 2.882 3.062 3.244 3.424 3.547 3.732 3.952 4.167 5.349 6.962 7.947 8.129 8.219 8.249 8.384 8.504 8.614 8.757 8.854 8.969 9.082 9.197 9.292 9.379 9.464 9.529 9.639 9.689 9.764 9.867 9.982 10.059 10.114 10.182 10.267 10.334 10.372 10.437 10.502 10.557 10.582 10.649 10.722 10.744 10.809 10.834 10.887 10.942 11.017 11.054 11.099 11.107 11.224 13.192 14.262 14.957 13.372 11.762 11.859 11.967 12.057 12.109 12.199 12.254 12.337 12.412 12.449 12.474 12.542 12.569 12.579 12.607 12.609 12.632 12.667 12.684 12.674 12.724 13.377 15.037 15.812 15.467 14.327 13.072 13.029 13.137 13.202 13.264 13.332 13.404 13.499 13.522 13.564 13.624 13.674 13.719 13.779 13.842 13.894 13.917 13.937 13.974 13.977 14.024 14.042 14.032 14.032 14.022 14.032 13.999 13.979 13.972 13.907 13.902 13.899 13.852 13.839 13.802 13.779 13.769 13.687 13.662 13.617 13.569 13.507 13.467 13.419 13.329
-0.371 -0.366 -0.38 -0.389 -0.435 -0.479 -0.484 -0.525 -0.563 -0.579 -0.65 -0.716 -0.737 -0.761 -0.791 -0.782 -0.788 -0.778 -0.78 -0.768 -0.788 -0.774 -0.785 -0.785 -0.803 -0.787 -0.795 -0.799 -0.795 -0.793 -0.78 -0.797 -0.787 -0.78 -0.752 -0.706 -0.66 -0.606 -0.589 -0.57 -0.533 -0.514 -0.466 -0.469 -0.433 -0.436 -0.452 -0.491 -0.571 -0.578 -0.663 -0.643 -0.664 -0.594 -0.531 -0.461 -0.321 0.019 0.339 0.641 0.821 0.866 0.881 0.871 0.826 0.811 0.821 0.836 0.811 0.826 0.844 0.864 0.879 0.864 0.904 0.904 0.924 0.931 0.926 0.964 0.966 0.966 0.976 1.014 1.034 1.066 1.109 1.121 1.139 1.119 1.169 1.186 1.191 1.191 1.201 1.229 1.221 1.256 1.234 1.244 1.239 1.214 1.249 1.244 1.246 1.251 1.216 1.194 1.199 1.206 1.224 1.211 1.259 1.259 1.291 1.331 1.339 1.351 1.381 1.384 1.406 1.429 1.449 1.414 1.441 1.454 1.476 1.456 1.449 1.434 1.476 1.479 1.506 1.519 1.526 1.554 1.516 1.566 1.596 1.596 1.604 1.564 1.609 1.596 1.579 1.551 1.511 1.441 1.411 1.421 1.416 1.446 1.441 1.471 1.431 1.469 1.434 1.361 1.356 1.344 1.389 1.319 1.309 1.326 1.349 1.331 1.316 1.274 1.271 1.291 1.299 1.309 1.304 1.306 1.304 1.319 1.349 1.384 1.374 1.364 1.371 1.331 1.316 1.314 1.286 1.304 1.254 1.274 1.259 1.276 1.274 1.271 1.249 1.261 1.234 1.221 1.204 1.196 1.196 1.189 1.161 1.174 1.149 1.161 1.146 1.151 1.121 1.119 1.084 1.071 1.071 1.096 1.061 1.069 1.056 1.034 1.011 1.004 0.999 0.951 0.941 0.926 0.841 0.841 0.871 0.839 0.839 0.834 0.816 0.804 0.801 0.771 0.796 0.814 0.791 0.779 0.739 0.736 0.707 0.682 0.732 0.689 0.667 0.642 0.619 0.522 0.442 0.427 0.412 0.429 0.424 0.424 0.421 0.37 0.314 0.384 0.153 0.044 -0.091 -0.22 -0.287 -0.314 -0.315 -0.294 -0.284 -0.246 -0.185 -0.114 -0.021 -0.017 -0.002 -0.056 -0.143 -0.25 -0.339 -0.469 -0.594 -0.704 -0.79 -0.836 -0.864 -0.911 -0.934 -0.925 -0.945 -0.98 -1.005 -1.038 -1.044 -1.064 -1.109 -1.111 -1.113 -1.118 -1.148 -1.004 -0.949 -0.945 -0.932 -0.919 -0.891 -0.893 -0.886 -0.846 -0.867 -0.865 -0.829 -0.847 -0.862 -0.865 -0.862 -0.825 -0.821 -0.861 -0.857 -0.813 -0.686 -0.645 -0.601 -0.548 -0.45 -0.389 -0.297 -0.19 -0.022 0.155 0.371 0.689 0.889 1.072 1.292 1.544 1.684 1.867 2.014 2.152 2.317 2.522 2.719 2.889 3.062 3.254 3.404 3.594 3.719 3.939 4.117 4.784 6.937 7.992 8.114 8.214 8.252 8.359 8.514 8.594 8.732 8.894 8.997 9.094 9.214 9.309 9.384 9.484 9.559 9.659 9.732 9.809 9.914 9.982 10.067 10.117 10.214 10.277 10.337 10.407 10.447 10.499 10.547 10.624 10.652 10.727 10.804 10.852 10.902 10.934 11.017 11.034 11.117 11.174 11.182 11.152 11.219 12.022 13.262 13.754 11.767 11.877 11.977 12.084 12.117 12.194 12.252 12.309 12.382 12.439 12.482 12.504 12.494 12.532 12.547 12.574 12.584 12.597 13.177 13.989 14.202 14.857 14.394 13.799 13.124 12.922 12.987 13.099 13.172 13.209 13.294 13.339 13.417 13.484 13.562 13.629 13.699 13.722 13.777 13.799 13.887 13.924 13.977 13.987 13.987 14.022 14.027 14.062 14.047 14.057 14.062 14.032 14.037 14.027 13.964 13.969 13.922 13.927 13.912 13.849 13.834 13.784 13.752 13.682 13.672 13.629 13.604 13.542 13.492 13.409 13.377
-0.371 -0.334 -0.348 -0.405 -0.451 -0.484 -0.513 -0.526 -0.55 -0.59 -0.662 -0.7 -0.719 -0.762 -0.764 -0.779 -0.788 -0.768 -0.803 -0.785 -0.78 -0.808 -0.815 -0.778 -0.77 -0.79 -0.78 -0.807 -0.79 -0.795 -0.779 -0.802 -0.783 -0.755 -0.75 -0.695 -0.633 -0.576 -0.584 -0.542 -0.495 -0.457 -0.44 -0.411 -0.376 -0.373 -0.411 -0.464 -0.546 -0.579 -0.634 -0.674 -0.654 -0.596 -0.551 -0.446 -0.269 0.069 0.404 0.659 0.809 0.889 0.871 0.851 0.826 0.836 0.826 0.819 0.829 0.844 0.841 0.866 0.846 0.859 0.881 0.909 0.904 0.929 0.924 0.934 0.964 0.969 1.004 0.991 1.039 1.059 1.069 1.069 1.096 1.104 1.114 1.139 1.126 1.191 1.181 1.186 1.234 1.219 1.239 1.246 1.254 1.216 1.224 1.251 1.254 1.251 1.214 1.229 1.221 1.194 1.211 1.216 1.259 1.254 1.276 1.306 1.329 1.369 1.354 1.364 1.406 1.406 1.404 1.424 1.451 1.429 1.449 1.444 1.426 1.439 1.464 1.459 1.519 1.506 1.501 1.524 1.534 1.526 1.566 1.546 1.539 1.551 1.561 1.554 1.566 1.529 1.524 1.491 1.454 1.401 1.399 1.386 1.416 1.381 1.366 1.339 1.324 1.321 1.321 1.331 1.339 1.341 1.344 1.304 1.299 1.294 1.299 1.299 1.304 1.321 1.346 1.344 1.339 1.336 1.359 1.376 1.374 1.356 1.336 1.329 1.296 1.296 1.299 1.321 1.301 1.271 1.266 1.296 1.261 1.234 1.226 1.266 1.251 1.226 1.221 1.176 1.174 1.171 1.196 1.176 1.184 1.164 1.179 1.159 1.139 1.129 1.134 1.131 1.124 1.144 1.111 1.119 1.084 1.064 1.071 1.061 1.041 1.016 0.956 0.904 0.901 0.919 0.871 0.866 0.871 0.844 0.844 0.834 0.821 0.821 0.811 0.764 0.789 0.791 0.786 0.794 0.776 0.776 0.727 0.704 0.692 0.659 0.624 0.589 0.564 0.514 0.467 0.462 0.462 0.457 0.479 0.462 0.442 0.362 0.323 0.242 0.164 0.039 -0.051 -0.185 -0.271 -0.31 -0.34 -0.308 -0.263 -0.219 -0.117 -0.085 0.065 0.05 0.041 -0.028 -0.098 -0.169 -0.269 -0.392 -0.554 -0.659 -0.697 -0.757 -0.807 -0.877 -0.914 -0.911 -0.915 -0.955 -0.965 -0.991 -1.021 -1.087 -1.071 -1.133 -1.141 -1.143 -1.038 -0.991 -0.977 -0.94 -0.935 -0.906 -0.862 -0.859 -0.857 -0.837 -0.866 -0.837 -0.804 -0.851 -0.877 -0.817 -0.779 -0.815 -0.801 -0.808 -0.841 -0.803 -0.712 -0.67 -0.602 -0.524 -0.464 -0.412 -0.319 -0.195 0.005 0.14 0.365 0.647 0.847 1.009 1.264 1.469 1.599 1.829 1.977 2.162 2.339 2.509 2.677 2.874 3.029 3.207 3.362 3.522 3.722 3.902 4.067 4.372 6.504 7.912 8.252 8.244 8.304 8.414 8.537 8.659 8.782 8.894 9.009 9.129 9.219 9.297 9.374 9.482 9.587 9.652 9.717 9.812 9.874 9.982 10.069 10.149 10.219 10.294 10.369 10.394 10.469 10.517 10.574 10.634 10.707 10.769 10.817 10.899 10.949 10.944 11.047 11.099 11.169 11.194 11.254 11.182 11.197 11.254 11.479 13.187 12.377 11.882 11.974 12.102 12.172 12.217 12.232 12.322 12.377 12.407 12.409 12.424 12.449 12.484 12.504 12.489 12.502 12.792 14.184 15.929 15.432 13.157 12.717 12.769 12.877 12.979 13.029 13.119 13.177 13.252 13.344 13.397 13.449 13.517 13.619 13.664 13.747 13.769 13.839 13.842 13.884 13.939 14.017 14.014 14.007 14.024 14.049 14.034 14.102 14.057 14.064 14.079 14.072 14.057 14.019 13.987 13.989 13.972 13.952 13.907 13.859 13.774 13.769 13.747 13.697 13.667 13.614 13.547 13.497 13.434 13.402
-0.359 -0.409 -0.362 -0.408 -0.441 -0.478 -0.505 -0.504 -0.525 -0.581 -0.658 -0.692 -0.727 -0.75 -0.781 -0.781 -0.78 -0.797 -0.798 -0.8 -0.765 -0.795 -0.783 -0.784 -0.801 -0.803 -0.8 -0.813 -0.805 -0.813 -0.807 -0.783 -0.772 -0.744 -0.735 -0.681 -0.633 -0.573 -0.54 -0.5 -0.471 -0.414 -0.39 -0.383 -0.338 -0.347 -0.399 -0.424 -0.518 -0.579 -0.679 -0.719 -0.714 -0.596 -0.521 -0.419 -0.196 0.111 0.421 0.694 0.851 0.861 0.864 0.851 0.824 0.786 0.776 0.804 0.796 0.821 0.829 0.809 0.844 0.864 0.861 0.904 0.886 0.909 0.894 0.921 0.911 0.939 0.944 0.941 0.974 0.989 1.056 1.059 1.089 1.104 1.126 1.139 1.134 1.169 1.174 1.191 1.191 1.211 1.254 1.201 1.201 1.229 1.214 1.199 1.196 1.211 1.231 1.206 1.224 1.231 1.276 1.269 1.276 1.284 1.291 1.291 1.316 1.334 1.336 1.336 1.361 1.371 1.391 1.379 1.421 1.426 1.396 1.451 1.431 1.474 1.474 1.479 1.489 1.501 1.481 1.491 1.511 1.496 1.501 1.514 1.514 1.529 1.529 1.521 1.526 1.519 1.514 1.484 1.444 1.429 1.471 1.466 1.451 1.436 1.421 1.414 1.341 1.274 1.311 1.324 1.304 1.321 1.286 1.279 1.319 1.329 1.366 1.374 1.376 1.354 1.374 1.326 1.346 1.334 1.369 1.339 1.354 1.316 1.311 1.309 1.294 1.281 1.274 1.286 1.261 1.256 1.266 1.271 1.254 1.234 1.221 1.211 1.219 1.249 1.224 1.211 1.224 1.226 1.199 1.199 1.189 1.179 1.194 1.159 1.141 1.124 1.136 1.141 1.146 1.101 1.111 1.104 1.076 1.049 1.046 1.034 1.014 0.999 0.971 0.921 0.941 0.924 0.906 0.889 0.856 0.821 0.826 0.796 0.816 0.816 0.841 0.809 0.754 0.729 0.754 0.731 0.734 0.694 0.684 0.622 0.597 0.564 0.524 0.519 0.529 0.524 0.519 0.517 0.512 0.477 0.437 0.467 0.454 0.376 0.284 0.221 0.141 0.081 -0.006 -0.123 -0.232 -0.287 -0.334 -0.304 -0.282 -0.232 -0.126 0.02 0.059 0.059 0.014 0.014 -0.049 -0.125 -0.2 -0.346 -0.504 -0.572 -0.621 -0.655 -0.747 -0.825 -0.925 -0.92 -0.914 -0.942 -0.95 -1.186 -1.251 -1.156 -1.198 -1.188 -1.153 -1.063 -1.028 -1.016 -0.985 -0.947 -0.938 -0.893 -0.872 -0.861 -0.861 -0.868 -0.887 -0.821 -0.821 -0.835 -0.849 -0.811 -0.784 -0.778 -0.787 -0.804 -0.815 -0.791 -0.721 -0.649 -0.6 -0.514 -0.47 -0.41 -0.313 -0.159 0.02 0.171 0.382 0.615 0.857 1.012 1.212 1.394 1.572 1.782 1.942 2.127 2.309 2.509 2.662 2.814 3.009 3.154 3.357 3.534 3.707 3.892 4.087 4.274 5.907 7.667 8.292 8.289 8.352 8.444 8.554 8.694 8.804 8.909 9.027 9.142 9.234 9.319 9.434 9.507 9.612 9.669 9.769 9.852 9.929 10.017 10.097 10.179 10.252 10.279 10.377 10.437 10.497 10.547 10.639 10.684 10.739 10.817 10.874 10.919 10.997 11.037 11.089 11.129 11.184 11.254 11.307 11.254 11.222 11.359 11.487 14.292 13.602 11.904 11.977 12.084 12.207 12.257 12.297 12.329 12.317 12.329 12.357 12.372 12.404 12.417 12.414 12.609 13.367 14.112 14.287 13.544 12.789 12.679 12.767 12.874 12.932 13.022 13.097 13.144 13.202 13.277 13.354 13.399 13.474 13.564 13.622 13.694 13.757 13.802 13.832 13.887 13.902 13.969 13.982 14.049 14.062 14.094 14.082 14.112 14.119 14.122 14.117 14.117 14.099 14.102 14.062 14.034 14.009 14.002 13.969 13.924 13.899 13.852 13.807 13.772 13.707 13.689 13.637 13.584 13.497 13.459 13.392
-0.416 -0.406 -0.413 -0.415 -0.436 -0.478 -0.503 -0.508 -0.535 -0.581 -0.634 -0.701 -0.738 -0.767 -0.785 -0.78 -0.794 -0.775 -0.785 -0.783 -0.773 -0.785 -0.79 -0.785 -0.805 -0.8 -0.806 -0.785 -0.797 -0.808 -0.828 -0.793 -0.758 -0.728 -0.689 -0.668 -0.598 -0.559 -0.532 -0.467 -0.437 -0.375 -0.343 -0.321 -0.309 -0.324 -0.363 -0.441 -0.524 -0.601 -0.651 -0.689 -0.669 -0.569 -0.494 -0.391 -0.149 0.134 0.491 0.719 0.821 0.841 0.834 0.809 0.794 0.796 0.764 0.809 0.806 0.824 0.839 0.824 0.844 0.861 0.876 0.849 0.884 0.881 0.884 0.881 0.901 0.926 0.924 0.936 0.934 0.984 1.004 1.074 1.056 1.106 1.114 1.104 1.109 1.149 1.161 1.161 1.164 1.174 1.169 1.209 1.191 1.219 1.224 1.194 1.216 1.254 1.239 1.229 1.221 1.251 1.271 1.266 1.279 1.269 1.261 1.279 1.299 1.286 1.314 1.311 1.331 1.351 1.341 1.369 1.366 1.399 1.406 1.416 1.409 1.424 1.466 1.466 1.474 1.481 1.496 1.469 1.454 1.426 1.414 1.406 1.466 1.489 1.494 1.481 1.481 1.486 1.479 1.459 1.419 1.439 1.456 1.461 1.474 1.469 1.439 1.401 1.366 1.334 1.286 1.299 1.311 1.349 1.369 1.349 1.319 1.311 1.351 1.359 1.339 1.361 1.344 1.344 1.339 1.339 1.334 1.321 1.299 1.299 1.316 1.299 1.279 1.309 1.271 1.301 1.254 1.279 1.266 1.249 1.244 1.246 1.216 1.231 1.239 1.229 1.209 1.209 1.214 1.196 1.176 1.189 1.184 1.166 1.149 1.161 1.144 1.136 1.129 1.116 1.131 1.101 1.081 1.066 1.049 1.036 1.056 1.019 0.991 0.971 0.969 0.969 0.939 0.896 0.881 0.859 0.861 0.811 0.771 0.766 0.764 0.764 0.779 0.771 0.734 0.684 0.651 0.626 0.606 0.581 0.579 0.584 0.509 0.484 0.492 0.487 0.514 0.537 0.507 0.527 0.437 0.389 0.432 0.432 0.382 0.333 0.265 0.2 0.161 0.076 -0.069 -0.13 -0.219 -0.297 -0.297 -0.306 -0.27 -0.236 -0.152 -0.037 0.031 0.045 0.105 0.046 -0.012 -0.095 -0.206 -0.335 -0.465 -0.476 -0.533 -0.583 -0.685 -0.776 -0.891 -0.9 -0.896 -0.907 -0.925 -1.186 -1.251 -1.226 -1.008 -1.063 -1.066 -1.087 -1.078 -1.04 -1.009 -0.947 -0.95 -0.893 -0.88 -0.861 -0.848 -0.863 -0.846 -0.837 -0.819 -0.835 -0.831 -0.801 -0.737 -0.735 -0.768 -0.787 -0.804 -0.767 -0.751 -0.681 -0.588 -0.503 -0.453 -0.429 -0.303 -0.136 0.032 0.197 0.396 0.6 0.822 0.987 1.159 1.362 1.554 1.719 1.904 2.089 2.282 2.422 2.644 2.817 2.977 3.174 3.337 3.524 3.684 3.887 4.039 4.209 5.522 7.599 8.337 8.327 8.374 8.457 8.577 8.727 8.834 8.897 9.032 9.124 9.252 9.344 9.432 9.532 9.639 9.702 9.782 9.877 9.954 10.052 10.127 10.172 10.257 10.337 10.402 10.437 10.517 10.587 10.672 10.707 10.792 10.849 10.902 10.964 11.042 11.069 11.144 11.162 11.199 11.297 11.337 11.347 11.322 11.369 11.602 13.339 14.422 12.474 11.964 12.072 12.172 12.269 12.284 12.269 12.267 12.267 12.284 12.297 12.319 12.367 12.754 14.094 14.667 13.914 13.067 12.592 12.649 12.737 12.809 12.909 12.989 13.057 13.117 13.182 13.224 13.304 13.327 13.442 13.502 13.577 13.679 13.682 13.772 13.832 13.879 13.902 13.942 13.967 13.977 14.042 14.117 14.107 14.124 14.129 14.149 14.149 14.159 14.144 14.164 14.119 14.102 14.064 14.017 13.994 14.007 13.942 13.894 13.852 13.797 13.789 13.764 13.707 13.664 13.584 13.509 13.459 13.422
-0.431 -0.424 -0.44 -0.42 -0.435 -0.478 -0.515 -0.542 -0.543 -0.572 -0.633 -0.713 -0.728 -0.755 -0.758 -0.773 -0.797 -0.783 -0.79 -0.795 -0.788 -0.773 -0.8 -0.788 -0.808 -0.823 -0.795 -0.79 -0.773 -0.796 -0.775 -0.779 -0.754 -0.726 -0.681 -0.639 -0.582 -0.546 -0.487 -0.448 -0.392 -0.362 -0.301 -0.261 -0.259 -0.287 -0.344 -0.434 -0.501 -0.584 -0.621 -0.651 -0.606 -0.534 -0.474 -0.374 -0.126 0.211 0.521 0.691 0.784 0.834 0.819 0.826 0.811 0.806 0.816 0.824 0.806 0.801 0.826 0.816 0.844 0.849 0.831 0.829 0.844 0.889 0.876 0.886 0.879 0.929 0.919 0.893 0.946 0.962 0.991 1.031 1.048 1.022 1.069 1.076 1.097 1.098 1.136 1.151 1.169 1.191 1.196 1.226 1.221 1.236 1.229 1.246 1.226 1.229 1.199 1.204 1.216 1.231 1.216 1.246 1.274 1.271 1.321 1.289 1.299 1.336 1.321 1.324 1.334 1.329 1.339 1.374 1.346 1.361 1.386 1.359 1.389 1.409 1.431 1.416 1.424 1.444 1.431 1.436 1.396 1.366 1.376 1.384 1.431 1.444 1.471 1.474 1.464 1.446 1.464 1.444 1.414 1.386 1.401 1.401 1.386 1.419 1.404 1.386 1.371 1.336 1.351 1.359 1.399 1.429 1.434 1.374 1.286 1.309 1.311 1.331 1.354 1.326 1.331 1.311 1.329 1.304 1.301 1.294 1.294 1.309 1.299 1.314 1.324 1.321 1.329 1.321 1.279 1.259 1.241 1.261 1.226 1.246 1.251 1.209 1.209 1.219 1.231 1.219 1.221 1.184 1.166 1.171 1.191 1.171 1.169 1.134 1.126 1.141 1.111 1.116 1.131 1.111 1.054 1.049 1.049 1.044 1.059 1.011 0.994 0.981 0.926 0.901 0.889 0.879 0.861 0.846 0.849 0.829 0.744 0.729 0.751 0.749 0.759 0.779 0.769 0.751 0.711 0.646 0.639 0.621 0.654 0.634 0.632 0.594 0.549 0.562 0.502 0.512 0.547 0.512 0.462 0.392 0.382 0.392 0.377 0.356 0.31 0.225 0.133 0.066 -0.008 -0.103 -0.222 -0.309 -0.315 -0.318 -0.269 -0.223 -0.16 -0.073 0.025 0.085 -0.004 0.005 -0.05 -0.106 -0.223 -0.319 -0.356 -0.404 -0.444 -0.517 -0.601 -0.705 -0.83 -0.87 -0.861 -0.883 -0.893 -1.178 -1.223 -1.258 -1.015 -1.04 -1.061 -1.075 -1.173 -1.031 -1.004 -0.952 -0.939 -0.911 -0.883 -0.864 -0.865 -0.825 -0.83 -0.828 -0.824 -0.853 -0.843 -0.796 -0.75 -0.719 -0.733 -0.756 -0.765 -0.73 -0.709 -0.658 -0.579 -0.514 -0.471 -0.39 -0.301 -0.193 -0.003 0.171 0.349 0.552 0.777 0.982 1.159 1.354 1.512 1.687 1.904 2.049 2.249 2.404 2.587 2.769 2.934 3.167 3.329 3.474 3.639 3.849 4.002 4.212 5.347 7.524 8.349 8.374 8.419 8.472 8.609 8.727 8.842 8.924 9.029 9.129 9.254 9.349 9.472 9.554 9.639 9.714 9.807 9.919 9.984 10.044 10.134 10.214 10.284 10.322 10.404 10.499 10.547 10.607 10.689 10.737 10.817 10.864 10.924 10.969 11.062 11.099 11.129 11.179 11.237 11.329 11.342 11.449 11.452 11.317 11.422 13.022 14.289 14.029 11.984 12.064 12.162 12.227 12.237 12.237 12.249 12.252 12.239 12.214 12.474 13.154 13.862 14.152 12.982 12.699 12.569 12.644 12.739 12.794 12.829 12.919 13.002 13.067 13.147 13.214 13.239 13.302 13.369 13.454 13.502 13.579 13.684 13.737 13.767 13.847 13.889 13.922 13.967 13.972 14.009 14.059 14.082 14.134 14.159 14.154 14.177 14.177 14.189 14.174 14.167 14.149 14.119 14.092 14.067 14.039 13.999 13.977 13.942 13.889 13.829 13.814 13.764 13.689 13.634 13.569 13.547 13.474 13.417
-0.451 -0.448 -0.45 -0.495 -0.479 -0.482 -0.501 -0.529 -0.534 -0.563 -0.623 -0.694 -0.739 -0.754 -0.771 -0.794 -0.773 -0.778 -0.79 -0.781 -0.793 -0.78 -0.795 -0.775 -0.798 -0.807 -0.795 -0.798 -0.794 -0.799 -0.758 -0.766 -0.735 -0.696 -0.672 -0.633 -0.573 -0.523 -0.484 -0.421 -0.377 -0.31 -0.298 -0.228 -0.239 -0.294 -0.359 -0.429 -0.529 -0.676 -0.736 -0.636 -0.604 -0.549 -0.506 -0.334 -0.054 0.239 0.509 0.741 0.789 0.806 0.801 0.776 0.761 0.774 0.776 0.759 0.786 0.791 0.804 0.809 0.791 0.806 0.816 0.821 0.839 0.839 0.854 0.864 0.864 0.875 0.852 0.894 0.922 0.934 0.97 0.975 1.005 1.026 1.054 1.055 1.083 1.11 1.149 1.164 1.144 1.159 1.181 1.201 1.216 1.201 1.211 1.221 1.209 1.204 1.221 1.194 1.184 1.209 1.261 1.244 1.239 1.296 1.296 1.296 1.311 1.336 1.349 1.344 1.336 1.364 1.369 1.391 1.379 1.359 1.389 1.359 1.381 1.366 1.374 1.389 1.386 1.406 1.396 1.374 1.441 1.424 1.414 1.386 1.379 1.409 1.419 1.409 1.434 1.406 1.439 1.424 1.454 1.426 1.384 1.406 1.384 1.446 1.496 1.481 1.476 1.459 1.389 1.401 1.401 1.391 1.446 1.404 1.369 1.309 1.289 1.304 1.321 1.294 1.309 1.279 1.329 1.269 1.269 1.299 1.319 1.306 1.304 1.316 1.314 1.324 1.306 1.304 1.276 1.241 1.239 1.229 1.246 1.254 1.246 1.246 1.201 1.219 1.219 1.171 1.164 1.154 1.134 1.131 1.129 1.136 1.164 1.106 1.124 1.116 1.076 1.119 1.066 1.069 1.111 1.106 1.081 1.021 1.029 0.996 0.996 0.981 0.931 0.906 0.914 0.884 0.871 0.824 0.849 0.819 0.801 0.771 0.769 0.746 0.746 0.764 0.781 0.739 0.746 0.754 0.726 0.716 0.724 0.699 0.677 0.647 0.609 0.577 0.554 0.519 0.507 0.504 0.534 0.452 0.439 0.422 0.424 0.396 0.329 0.252 0.147 0.055 -0.012 -0.149 -0.225 -0.29 -0.32 -0.337 -0.291 -0.252 -0.226 -0.114 -0.025 -0.005 -0.046 -0.054 -0.08 -0.163 -0.283 -0.247 -0.237 -0.288 -0.36 -0.404 -0.498 -0.624 -0.771 -0.85 -0.82 -0.838 -0.859 -0.912 -1.153 -0.976 -0.988 -1.037 -1.052 -1.075 -1.176 -1.171 -1.018 -0.966 -0.948 -0.906 -0.902 -0.898 -0.88 -0.873 -0.851 -0.828 -0.827 -0.83 -0.816 -0.759 -0.696 -0.679 -0.707 -0.732 -0.729 -0.709 -0.683 -0.641 -0.544 -0.51 -0.47 -0.368 -0.276 -0.189 -0.026 0.181 0.372 0.562 0.784 0.952 1.149 1.337 1.464 1.664 1.859 2.012 2.217 2.367 2.559 2.739 2.937 3.114 3.277 3.462 3.619 3.842 4.019 4.187 4.872 7.042 8.269 8.459 8.404 8.494 8.614 8.729 8.824 8.942 9.057 9.162 9.269 9.394 9.474 9.597 9.669 9.747 9.847 9.929 9.989 10.054 10.162 10.217 10.299 10.382 10.434 10.499 10.589 10.614 10.684 10.759 10.837 10.892 10.939 11.009 11.064 11.127 11.189 11.197 11.267 11.342 11.429 11.477 11.552 11.444 11.484 12.122 13.972 15.052 12.627 12.014 12.107 12.159 12.147 12.179 12.192 12.189 12.272 13.044 13.819 13.279 12.687 12.397 12.484 12.557 12.634 12.692 12.739 12.787 12.884 12.917 13.014 13.099 13.152 13.187 13.259 13.347 13.404 13.474 13.532 13.599 13.664 13.729 13.802 13.852 13.892 13.944 13.992 14.019 14.044 14.062 14.094 14.177 14.212 14.187 14.199 14.187 14.184 14.167 14.162 14.172 14.129 14.107 14.097 14.057 14.037 13.984 13.942 13.917 13.854 13.782 13.749 13.707 13.652 13.617 13.557 13.484 13.457
-0.446 -0.464 -0.505 -0.484 -0.491 -0.49 -0.49 -0.523 -0.524 -0.568 -0.633 -0.708 -0.741 -0.756 -0.783 -0.78 -0.779 -0.803 -0.78 -0.768 -0.788 -0.785 -0.78 -0.795 -0.808 -0.785 -0.809 -0.805 -0.793 -0.805 -0.779 -0.743 -0.709 -0.676 -0.635 -0.589 -0.539 -0.473 -0.444 -0.364 -0.33 -0.298 -0.251 -0.234 -0.209 -0.296 -0.346 -0.476 -0.606 -0.644 -0.709 -0.634 -0.591 -0.509 -0.476 -0.334 -0.034 0.276 0.536 0.719 0.746 0.766 0.754 0.754 0.759 0.769 0.756 0.771 0.784 0.804 0.834 0.811 0.811 0.811 0.799 0.839 0.814 0.854 0.819 0.851 0.853 0.851 0.866 0.861 0.885 0.896 0.929 0.967 1.009 1.016 1.021 1.056 1.058 1.084 1.093 1.095 1.112 1.159 1.154 1.159 1.191 1.209 1.214 1.179 1.171 1.204 1.244 1.219 1.209 1.216 1.224 1.196 1.226 1.276 1.266 1.284 1.309 1.314 1.329 1.346 1.376 1.399 1.386 1.384 1.369 1.396 1.439 1.441 1.376 1.376 1.361 1.391 1.379 1.416 1.376 1.434 1.496 1.506 1.504 1.416 1.364 1.361 1.374 1.371 1.371 1.391 1.399 1.459 1.434 1.466 1.456 1.451 1.531 1.531 1.561 1.534 1.554 1.469 1.461 1.474 1.436 1.411 1.431 1.391 1.404 1.301 1.289 1.269 1.261 1.261 1.231 1.234 1.286 1.316 1.299 1.304 1.319 1.331 1.319 1.301 1.304 1.284 1.254 1.264 1.224 1.249 1.246 1.239 1.226 1.234 1.204 1.229 1.179 1.166 1.151 1.144 1.164 1.146 1.146 1.159 1.151 1.129 1.149 1.156 1.144 1.084 1.116 1.099 1.124 1.091 1.084 1.109 1.099 1.071 1.059 1.081 1.074 1.064 1.011 0.981 0.916 0.856 0.846 0.841 0.809 0.856 0.824 0.814 0.761 0.739 0.756 0.741 0.744 0.744 0.759 0.754 0.744 0.714 0.672 0.654 0.637 0.624 0.602 0.582 0.537 0.509 0.544 0.514 0.532 0.547 0.467 0.449 0.422 0.387 0.302 0.213 0.14 0.071 -0.004 -0.078 -0.196 -0.253 -0.308 -0.321 -0.316 -0.253 -0.216 -0.14 -0.103 -0.077 -0.103 -0.13 -0.181 -0.22 -0.251 -0.162 -0.14 -0.199 -0.254 -0.342 -0.448 -0.529 -0.709 -0.813 -0.802 -0.822 -0.849 -0.894 -0.927 -1.166 -0.993 -1.019 -1.053 -1.068 -1.168 -1.163 -1.007 -0.974 -0.964 -0.928 -0.928 -0.923 -0.91 -0.896 -0.87 -0.852 -0.816 -0.827 -0.833 -0.767 -0.678 -0.671 -0.731 -0.724 -0.717 -0.712 -0.688 -0.631 -0.586 -0.515 -0.458 -0.395 -0.298 -0.179 -0.013 0.174 0.379 0.617 0.802 0.962 1.112 1.317 1.484 1.642 1.857 2.029 2.192 2.344 2.539 2.727 2.919 3.072 3.264 3.467 3.652 3.814 3.974 4.172 4.477 6.774 8.212 8.597 8.434 8.497 8.647 8.727 8.837 8.959 9.074 9.184 9.304 9.414 9.497 9.594 9.704 9.784 9.844 9.907 9.992 10.089 10.154 10.249 10.304 10.359 10.449 10.502 10.567 10.602 10.699 10.772 10.839 10.892 10.959 10.999 11.062 11.129 11.194 11.229 11.289 11.384 11.479 11.532 11.579 11.577 11.684 12.189 12.507 14.167 14.104 12.112 12.002 12.062 12.132 12.139 12.217 12.779 13.687 14.444 13.584 12.464 12.382 12.432 12.524 12.614 12.654 12.684 12.754 12.844 12.894 12.962 13.064 13.117 13.152 13.209 13.324 13.359 13.392 13.494 13.544 13.612 13.697 13.754 13.787 13.832 13.899 13.952 13.997 14.024 14.049 14.132 14.129 14.132 14.202 14.199 14.207 14.209 14.192 14.177 14.167 14.139 14.129 14.109 14.102 14.059 14.027 14.012 13.964 13.919 13.884 13.827 13.777 13.724 13.677 13.634 13.594 13.504 13.482
-0.455 -0.482 -0.5 -0.536 -0.54 -0.533 -0.513 -0.533 -0.529 -0.576 -0.62 -0.714 -0.745 -0.75 -0.767 -0.792 -0.797 -0.782 -0.783 -0.796 -0.79 -0.82 -0.813 -0.787 -0.82 -0.818 -0.805 -0.803 -0.813 -0.795 -0.783 -0.747 -0.686 -0.66 -0.627 -0.581 -0.534 -0.464 -0.403 -0.357 -0.316 -0.267 -0.23 -0.218 -0.221 -0.276 -0.394 -0.466 -0.554 -0.651 -0.686 -0.654 -0.604 -0.534 -0.479 -0.321 -0.019 0.311 0.541 0.684 0.734 0.746 0.696 0.739 0.734 0.746 0.771 0.769 0.766 0.784 0.779 0.796 0.814 0.794 0.804 0.821 0.824 0.846 0.812 0.811 0.832 0.84 0.837 0.828 0.858 0.891 0.929 0.951 0.98 0.986 1.004 1.017 1.029 1.064 1.069 1.082 1.1 1.114 1.104 1.134 1.146 1.151 1.181 1.207 1.192 1.208 1.209 1.203 1.2 1.206 1.191 1.268 1.237 1.234 1.221 1.261 1.311 1.306 1.309 1.319 1.331 1.366 1.346 1.354 1.391 1.444 1.446 1.484 1.491 1.456 1.454 1.419 1.409 1.419 1.379 1.401 1.441 1.454 1.499 1.449 1.426 1.404 1.389 1.366 1.391 1.474 1.424 1.434 1.429 1.441 1.479 1.519 1.539 1.569 1.551 1.544 1.526 1.489 1.456 1.454 1.429 1.409 1.409 1.381 1.391 1.379 1.354 1.346 1.311 1.266 1.231 1.219 1.251 1.261 1.284 1.306 1.319 1.279 1.289 1.269 1.256 1.254 1.256 1.259 1.249 1.276 1.274 1.246 1.191 1.211 1.204 1.199 1.211 1.169 1.179 1.159 1.179 1.146 1.129 1.156 1.159 1.171 1.126 1.131 1.116 1.124 1.116 1.099 1.069 1.071 1.049 1.071 1.081 1.086 1.119 1.106 1.074 1.054 0.999 0.956 0.909 0.894 0.876 0.836 0.814 0.809 0.769 0.794 0.794 0.741 0.751 0.686 0.709 0.716 0.744 0.719 0.724 0.684 0.652 0.599 0.627 0.589 0.582 0.587 0.552 0.524 0.542 0.544 0.542 0.552 0.502 0.459 0.402 0.319 0.27 0.21 0.149 0.224 0.021 -0.063 -0.139 -0.255 -0.308 -0.311 -0.322 -0.272 -0.238 -0.197 -0.189 -0.16 -0.163 -0.184 -0.217 -0.309 -0.209 -0.124 -0.071 -0.085 -0.156 -0.251 -0.344 -0.483 -0.66 -0.782 -0.842 -0.823 -0.841 -0.857 -0.923 -1.231 -1.203 -1.034 -1.161 -1.128 -1.118 -1.066 -1.055 -1 -1.02 -0.961 -0.955 -0.952 -0.952 -0.899 -0.882 -0.874 -0.817 -0.805 -0.789 -0.746 -0.679 -0.677 -0.691 -0.733 -0.735 -0.715 -0.664 -0.613 -0.546 -0.512 -0.491 -0.397 -0.328 -0.193 -0.02 0.176 0.362 0.587 0.779 0.939 1.109 1.269 1.409 1.617 1.812 1.952 2.132 2.314 2.487 2.677 2.849 3.064 3.267 3.447 3.592 3.744 3.962 4.132 4.379 6.624 8.189 8.449 8.492 8.529 8.619 8.717 8.839 8.957 9.074 9.202 9.317 9.442 9.532 9.634 9.684 9.767 9.827 9.917 10.004 10.094 10.174 10.252 10.312 10.384 10.429 10.482 10.564 10.624 10.709 10.772 10.839 10.887 10.939 10.994 11.079 11.147 11.227 11.307 11.299 11.377 11.514 11.552 11.637 11.634 12.552 13.807 12.947 13.147 13.779 12.037 11.907 11.982 12.097 12.447 13.339 13.684 13.787 13.332 12.334 12.372 12.454 12.529 12.567 12.634 12.689 12.777 12.829 12.872 12.927 13.002 13.059 13.099 13.179 13.264 13.312 13.364 13.432 13.487 13.537 13.654 13.709 13.734 13.789 13.874 13.897 13.967 14.002 14.027 14.084 14.122 14.172 14.144 14.157 14.182 14.219 14.199 14.194 14.177 14.159 14.187 14.142 14.117 14.107 14.032 14.024 13.994 13.977 13.944 13.892 13.849 13.799 13.764 13.722 13.672 13.619 13.567 13.522
-0.524 -0.519 -0.525 -0.54 -0.554 -0.553 -0.563 -0.54 -0.54 -0.582 -0.608 -0.678 -0.755 -0.756 -0.792 -0.785 -0.785 -0.78 -0.778 -0.763 -0.798 -0.798 -0.768 -0.813 -0.788 -0.785 -0.79 -0.817 -0.81 -0.788 -0.758 -0.727 -0.709 -0.654 -0.607 -0.565 -0.499 -0.457 -0.383 -0.329 -0.29 -0.239 -0.177 -0.186 -0.206 -0.266 -0.384 -0.501 -0.559 -0.634 -0.666 -0.636 -0.566 -0.556 -0.486 -0.269 0.059 0.279 0.474 0.604 0.681 0.664 0.679 0.739 0.759 0.739 0.769 0.759 0.759 0.766 0.786 0.789 0.769 0.809 0.794 0.806 0.776 0.797 0.82 0.81 0.795 0.82 0.831 0.834 0.869 0.914 0.888 0.934 0.951 0.965 0.962 0.996 1.005 1.023 1.018 1.097 1.06 1.081 1.089 1.138 1.143 1.138 1.133 1.134 1.17 1.194 1.17 1.183 1.209 1.221 1.212 1.234 1.22 1.232 1.198 1.203 1.261 1.279 1.291 1.329 1.329 1.329 1.329 1.359 1.394 1.429 1.444 1.461 1.474 1.496 1.464 1.489 1.464 1.479 1.449 1.391 1.406 1.391 1.411 1.429 1.429 1.411 1.431 1.509 1.576 1.579 1.546 1.491 1.459 1.461 1.479 1.521 1.529 1.536 1.539 1.524 1.534 1.511 1.454 1.446 1.434 1.409 1.401 1.401 1.339 1.364 1.354 1.339 1.311 1.319 1.286 1.266 1.246 1.274 1.279 1.289 1.311 1.266 1.259 1.274 1.229 1.216 1.246 1.261 1.254 1.264 1.269 1.239 1.229 1.194 1.206 1.176 1.201 1.171 1.166 1.154 1.144 1.131 1.149 1.146 1.141 1.131 1.134 1.104 1.109 1.116 1.094 1.076 1.084 1.061 1.051 1.054 1.046 1.066 1.066 1.041 1.016 0.971 0.959 0.951 0.931 0.889 0.839 0.834 0.801 0.776 0.799 0.779 0.809 0.776 0.754 0.731 0.681 0.721 0.729 0.694 0.646 0.629 0.627 0.622 0.602 0.574 0.569 0.602 0.584 0.582 0.534 0.464 0.494 0.499 0.467 0.439 0.387 0.321 0.295 0.221 0.165 0.092 0.015 -0.046 -0.124 -0.206 -0.231 -0.288 -0.318 -0.314 -0.352 -0.306 -0.295 -0.29 -0.252 -0.216 -0.19 -0.234 -0.204 -0.113 -0.055 -0.029 -0.077 -0.18 -0.3 -0.417 -0.567 -0.738 -0.825 -0.822 -0.823 -0.857 -1.178 -1.203 -0.979 -1.005 -1.035 -1.161 -1.151 -1.173 -1.078 -1.054 -1.067 -0.995 -0.99 -0.979 -0.967 -0.926 -0.886 -0.862 -0.81 -0.77 -0.777 -0.74 -0.71 -0.676 -0.663 -0.705 -0.728 -0.717 -0.673 -0.589 -0.515 -0.51 -0.436 -0.383 -0.328 -0.197 -0.016 0.121 0.341 0.553 0.762 0.897 1.044 1.232 1.417 1.602 1.759 1.937 2.084 2.284 2.444 2.657 2.842 3.004 3.227 3.382 3.554 3.714 3.909 4.139 4.362 5.837 7.982 8.554 8.629 8.502 8.609 8.742 8.852 8.967 9.104 9.202 9.314 9.444 9.537 9.654 9.694 9.769 9.867 9.927 10.012 10.107 10.169 10.274 10.352 10.392 10.442 10.504 10.582 10.634 10.709 10.787 10.812 10.877 10.967 11.004 11.104 11.159 11.234 11.302 11.352 11.404 11.472 11.579 11.649 11.692 12.352 14.169 13.227 11.587 11.852 11.702 11.794 12.094 12.879 13.917 13.564 12.937 12.347 12.324 12.407 12.477 12.524 12.559 12.594 12.634 12.739 12.792 12.867 12.942 12.989 13.014 13.067 13.127 13.222 13.264 13.329 13.394 13.459 13.504 13.567 13.654 13.692 13.747 13.797 13.847 13.927 13.962 13.987 14.039 14.097 14.122 14.162 14.149 14.144 14.157 14.202 14.237 14.252 14.229 14.222 14.182 14.192 14.134 14.144 14.092 14.052 14.019 13.957 13.939 13.892 13.837 13.824 13.787 13.754 13.702 13.639 13.592 13.499
-0.52 -0.549 -0.548 -0.553 -0.562 -0.554 -0.568 -0.54 -0.558 -0.588 -0.612 -0.687 -0.757 -0.765 -0.762 -0.79 -0.781 -0.8 -0.78 -0.799 -0.793 -0.783 -0.775 -0.793 -0.825 -0.8 -0.793 -0.785 -0.796 -0.798 -0.75 -0.745 -0.696 -0.642 -0.605 -0.56 -0.484 -0.412 -0.346 -0.307 -0.251 -0.199 -0.164 -0.181 -0.216 -0.301 -0.426 -0.499 -0.559 -0.656 -0.726 -0.681 -0.564 -0.551 -0.414 -0.191 0.019 0.186 0.374 0.546 0.664 0.644 0.634 0.709 0.701 0.756 0.749 0.751 0.749 0.751 0.759 0.766 0.774 0.756 0.766 0.766 0.785 0.784 0.794 0.788 0.824 0.816 0.84 0.861 0.857 0.874 0.88 0.882 0.911 0.933 0.973 0.975 0.978 0.999 1.017 1.042 1.081 1.098 1.102 1.153 1.109 1.143 1.127 1.155 1.173 1.16 1.181 1.174 1.191 1.187 1.224 1.238 1.235 1.237 1.262 1.237 1.226 1.256 1.236 1.249 1.274 1.281 1.306 1.319 1.376 1.401 1.401 1.444 1.449 1.446 1.454 1.459 1.451 1.504 1.519 1.496 1.469 1.406 1.371 1.411 1.431 1.456 1.489 1.549 1.576 1.571 1.559 1.509 1.479 1.474 1.516 1.521 1.526 1.504 1.521 1.509 1.499 1.496 1.459 1.419 1.406 1.381 1.379 1.334 1.354 1.381 1.321 1.341 1.331 1.334 1.339 1.286 1.281 1.309 1.281 1.269 1.241 1.236 1.244 1.236 1.246 1.279 1.259 1.254 1.244 1.229 1.234 1.241 1.211 1.194 1.166 1.174 1.171 1.146 1.164 1.144 1.169 1.161 1.121 1.156 1.116 1.126 1.149 1.179 1.181 1.166 1.151 1.141 1.116 1.111 1.061 1.041 1.026 1.014 1.036 1.021 0.989 0.964 0.941 0.894 0.841 0.834 0.801 0.826 0.801 0.744 0.754 0.746 0.741 0.754 0.739 0.704 0.699 0.666 0.671 0.646 0.601 0.599 0.554 0.554 0.559 0.549 0.589 0.604 0.597 0.604 0.532 0.462 0.454 0.429 0.409 0.399 0.354 0.314 0.3 0.233 0.158 0.105 0.029 -0.027 -0.086 -0.154 -0.22 -0.262 -0.306 -0.308 -0.298 -0.249 -0.199 -0.187 -0.169 -0.167 -0.095 -0.119 -0.158 -0.119 -0.029 -0.017 -0.067 -0.21 -0.272 -0.34 -0.529 -0.681 -0.794 -0.825 -0.838 -0.85 -0.909 -1.288 -1.013 -1.043 -1.028 -1.148 -1.156 -1.178 -1.171 -1.058 -1.044 -1.027 -1.008 -0.967 -0.954 -0.916 -0.873 -0.837 -0.776 -0.742 -0.788 -0.728 -0.718 -0.693 -0.649 -0.684 -0.698 -0.686 -0.665 -0.586 -0.562 -0.502 -0.423 -0.373 -0.322 -0.234 -0.085 0.129 0.306 0.497 0.709 0.859 1.014 1.204 1.419 1.597 1.759 1.899 2.072 2.212 2.424 2.604 2.799 3.004 3.187 3.354 3.519 3.699 3.929 4.124 4.332 5.402 7.569 8.667 8.854 8.542 8.607 8.747 8.842 8.989 9.112 9.197 9.327 9.417 9.529 9.607 9.679 9.782 9.844 9.939 10.034 10.104 10.179 10.274 10.324 10.384 10.422 10.494 10.564 10.624 10.677 10.749 10.817 10.902 10.949 11.042 11.122 11.182 11.262 11.319 11.407 11.424 11.474 11.594 11.642 11.739 11.742 13.942 13.577 11.587 11.464 11.607 12.302 13.749 14.547 14.177 12.667 12.144 12.287 12.439 12.452 12.519 12.529 12.577 12.652 12.707 12.759 12.804 12.887 12.942 12.954 12.992 13.082 13.164 13.207 13.277 13.354 13.392 13.439 13.512 13.584 13.624 13.714 13.742 13.819 13.877 13.917 13.959 14.004 14.092 14.087 14.122 14.134 14.137 14.169 14.139 14.182 14.224 14.257 14.249 14.247 14.207 14.212 14.197 14.172 14.104 14.079 14.059 13.984 13.967 13.907 13.892 13.834 13.809 13.752 13.722 13.654 13.622 13.539
-0.517 -0.54 -0.552 -0.565 -0.585 -0.544 -0.563 -0.576 -0.583 -0.607 -0.634 -0.685 -0.768 -0.777 -0.783 -0.791 -0.8 -0.788 -0.815 -0.826 -0.815 -0.803 -0.795 -0.797 -0.801 -0.789 -0.798 -0.798 -0.807 -0.776 -0.74 -0.703 -0.671 -0.619 -0.56 -0.537 -0.443 -0.386 -0.351 -0.283 -0.244 -0.201 -0.169 -0.199 -0.279 -0.309 -0.429 -0.499 -0.609 -0.721 -0.664 -0.686 -0.564 -0.461 -0.309 -0.151 -0.004 0.139 0.256 0.376 0.421 0.484 0.539 0.614 0.651 0.669 0.686 0.711 0.739 0.701 0.744 0.756 0.771 0.779 0.791 0.786 0.782 0.771 0.779 0.78 0.783 0.793 0.787 0.808 0.836 0.868 0.877 0.894 0.921 0.906 0.964 0.966 0.987 0.995 1.023 1.028 1.051 1.075 1.075 1.095 1.089 1.104 1.121 1.144 1.141 1.155 1.156 1.17 1.189 1.184 1.211 1.261 1.253 1.3 1.309 1.264 1.249 1.213 1.214 1.236 1.251 1.249 1.281 1.316 1.371 1.349 1.416 1.406 1.426 1.471 1.449 1.484 1.471 1.496 1.481 1.509 1.469 1.434 1.401 1.416 1.459 1.501 1.501 1.541 1.559 1.534 1.546 1.506 1.464 1.449 1.479 1.509 1.501 1.489 1.496 1.491 1.451 1.469 1.466 1.411 1.366 1.366 1.401 1.359 1.369 1.356 1.366 1.344 1.359 1.326 1.314 1.291 1.304 1.264 1.261 1.229 1.241 1.231 1.216 1.246 1.284 1.264 1.266 1.239 1.241 1.256 1.244 1.231 1.229 1.209 1.186 1.171 1.174 1.171 1.146 1.139 1.121 1.169 1.149 1.126 1.124 1.106 1.139 1.119 1.146 1.134 1.104 1.106 1.071 1.081 1.079 1.061 1.044 0.994 0.991 1.014 1.004 0.986 0.959 0.859 0.871 0.831 0.789 0.801 0.774 0.744 0.704 0.719 0.671 0.709 0.706 0.709 0.689 0.676 0.616 0.611 0.576 0.561 0.524 0.579 0.599 0.614 0.614 0.607 0.592 0.607 0.582 0.512 0.439 0.384 0.387 0.404 0.377 0.359 0.326 0.255 0.153 0.073 -0.01 -0.048 -0.094 -0.139 -0.187 -0.245 -0.256 -0.255 -0.224 -0.196 -0.124 -0.082 -0.083 -0.063 -0.026 -0.035 -0.053 -0.138 -0.052 -0.029 -0.065 -0.157 -0.282 -0.347 -0.511 -0.636 -0.787 -0.827 -0.838 -0.824 -0.885 -1.241 -1.001 -1.031 -1.036 -1.166 -1.161 -1.166 -1.138 -1.108 -1.063 -1.039 -1.007 -0.958 -0.925 -0.909 -0.879 -0.847 -0.794 -0.751 -0.741 -0.725 -0.688 -0.712 -0.707 -0.664 -0.687 -0.738 -0.661 -0.576 -0.536 -0.494 -0.443 -0.39 -0.329 -0.214 -0.058 0.108 0.307 0.517 0.709 0.882 1.007 1.154 1.389 1.552 1.744 1.889 2.024 2.164 2.334 2.559 2.764 2.949 3.144 3.327 3.524 3.687 3.922 4.072 4.292 4.717 7.259 8.604 8.889 8.574 8.609 8.742 8.857 8.989 9.074 9.219 9.329 9.449 9.512 9.597 9.692 9.789 9.882 9.974 10.042 10.117 10.182 10.284 10.337 10.407 10.457 10.507 10.577 10.632 10.689 10.774 10.822 10.874 10.932 11.057 11.124 11.214 11.289 11.349 11.439 11.449 11.489 11.554 11.654 11.739 11.769 12.607 13.912 12.577 11.537 11.532 12.054 13.529 14.174 13.637 11.987 12.124 12.317 12.437 12.484 12.522 12.547 12.632 12.669 12.722 12.774 12.869 12.897 12.937 12.977 13.009 13.112 13.174 13.262 13.339 13.374 13.452 13.494 13.509 13.587 13.642 13.704 13.754 13.832 13.884 13.937 13.992 14.047 14.062 14.089 14.117 14.147 14.144 14.179 14.192 14.207 14.202 14.232 14.242 14.219 14.254 14.219 14.204 14.174 14.134 14.127 14.074 14.024 14.004 13.949 13.889 13.824 13.792 13.767 13.722 13.687 13.642 13.582
-0.55 -0.559 -0.569 -0.597 -0.586 -0.572 -0.564 -0.586 -0.593 -0.609 -0.642 -0.693 -0.756 -0.787 -0.795 -0.785 -0.775 -0.79 -0.8 -0.793 -0.815 -0.815 -0.825 -0.795 -0.778 -0.788 -0.793 -0.801 -0.795 -0.767 -0.721 -0.707 -0.655 -0.607 -0.565 -0.52 -0.429 -0.4 -0.32 -0.281 -0.234 -0.198 -0.174 -0.186 -0.229 -0.319 -0.419 -0.519 -0.641 -0.704 -0.694 -0.619 -0.544 -0.424 -0.289 -0.134 0.036 0.131 0.196 0.309 0.374 0.421 0.481 0.526 0.559 0.549 0.631 0.671 0.729 0.724 0.741 0.749 0.724 0.764 0.794 0.775 0.735 0.761 0.756 0.745 0.752 0.779 0.793 0.789 0.811 0.843 0.856 0.875 0.887 0.916 0.927 0.955 0.96 0.975 1.004 1.002 1.021 1.03 1.017 1.039 1.064 1.075 1.106 1.126 1.132 1.137 1.15 1.169 1.187 1.187 1.211 1.237 1.253 1.293 1.285 1.326 1.314 1.286 1.26 1.222 1.221 1.229 1.269 1.276 1.336 1.346 1.381 1.394 1.421 1.424 1.424 1.464 1.449 1.461 1.466 1.494 1.441 1.471 1.449 1.409 1.424 1.471 1.514 1.499 1.521 1.501 1.506 1.509 1.474 1.451 1.444 1.484 1.494 1.476 1.486 1.466 1.486 1.459 1.466 1.411 1.379 1.349 1.361 1.369 1.346 1.334 1.351 1.346 1.316 1.319 1.321 1.314 1.261 1.234 1.224 1.199 1.211 1.216 1.249 1.254 1.256 1.251 1.261 1.229 1.229 1.246 1.186 1.186 1.219 1.184 1.151 1.106 1.106 1.116 1.121 1.149 1.139 1.134 1.116 1.176 1.161 1.161 1.156 1.146 1.166 1.159 1.111 1.109 1.021 1.014 1.036 1.026 1.049 1.014 0.999 1.011 0.981 0.929 0.949 0.916 0.861 0.844 0.821 0.804 0.796 0.796 0.771 0.716 0.701 0.704 0.671 0.674 0.669 0.664 0.621 0.564 0.589 0.609 0.662 0.692 0.674 0.689 0.649 0.642 0.607 0.597 0.569 0.544 0.534 0.442 0.404 0.414 0.382 0.349 0.302 0.217 0.147 0.054 -0.033 -0.098 -0.134 -0.212 -0.23 -0.232 -0.265 -0.227 -0.209 -0.183 -0.094 -0.064 -0.002 0.008 0.051 0.03 -0.04 -0.13 -0.009 -0.019 -0.035 -0.162 -0.257 -0.337 -0.51 -0.649 -0.779 -0.832 -0.828 -0.814 -0.872 -0.934 -1.003 -1.017 -1.013 -1.153 -1.148 -1.094 -1.105 -1.113 -1.072 -1.041 -0.985 -0.961 -0.947 -0.899 -0.903 -0.874 -0.861 -0.802 -0.77 -0.728 -0.698 -0.748 -0.725 -0.669 -0.659 -0.714 -0.665 -0.613 -0.527 -0.501 -0.453 -0.409 -0.329 -0.2 -0.057 0.101 0.255 0.528 0.664 0.879 1.019 1.154 1.394 1.524 1.702 1.852 1.977 2.124 2.319 2.509 2.732 2.934 3.102 3.277 3.464 3.647 3.844 4.069 4.244 4.539 6.977 8.462 8.707 8.594 8.624 8.779 8.887 9.012 9.102 9.217 9.327 9.432 9.524 9.622 9.724 9.812 9.887 9.937 10.049 10.119 10.192 10.284 10.372 10.414 10.464 10.524 10.577 10.627 10.727 10.784 10.839 10.907 10.979 11.047 11.149 11.224 11.279 11.404 11.469 11.494 11.539 11.582 11.657 11.724 11.809 11.837 13.277 13.544 12.164 11.602 11.544 12.587 13.287 13.199 12.287 12.167 12.312 12.412 12.504 12.562 12.544 12.629 12.682 12.777 12.809 12.874 12.902 12.947 12.997 13.087 13.119 13.184 13.254 13.327 13.384 13.457 13.489 13.542 13.582 13.619 13.704 13.799 13.844 13.889 13.939 13.977 14.049 14.067 14.099 14.159 14.159 14.182 14.214 14.214 14.244 14.229 14.199 14.249 14.252 14.252 14.217 14.202 14.192 14.179 14.109 14.084 14.079 14.019 13.982 13.919 13.854 13.814 13.779 13.739 13.679 13.654 13.582
-0.572 -0.585 -0.596 -0.587 -0.578 -0.583 -0.565 -0.566 -0.576 -0.595 -0.656 -0.707 -0.781 -0.782 -0.791 -0.8 -0.785 -0.808 -0.808 -0.834 -0.787 -0.815 -0.81 -0.79 -0.818 -0.808 -0.799 -0.811 -0.78 -0.738 -0.703 -0.675 -0.648 -0.589 -0.549 -0.48 -0.407 -0.355 -0.286 -0.265 -0.203 -0.169 -0.139 -0.184 -0.271 -0.339 -0.421 -0.554 -0.591 -0.701 -0.671 -0.584 -0.539 -0.431 -0.286 -0.156 0.059 0.201 0.326 0.399 0.459 0.581 0.664 0.729 0.701 0.694 0.601 0.641 0.611 0.619 0.676 0.721 0.719 0.706 0.755 0.751 0.738 0.745 0.735 0.739 0.762 0.789 0.806 0.8 0.802 0.793 0.84 0.856 0.873 0.895 0.908 0.921 0.936 0.944 0.979 0.994 1.011 1.009 1.012 0.995 1.038 1.052 1.078 1.106 1.12 1.131 1.154 1.164 1.153 1.156 1.159 1.22 1.238 1.239 1.303 1.346 1.382 1.375 1.336 1.328 1.356 1.316 1.244 1.254 1.301 1.331 1.326 1.359 1.389 1.396 1.406 1.429 1.439 1.454 1.424 1.436 1.424 1.436 1.426 1.421 1.411 1.481 1.506 1.511 1.516 1.504 1.484 1.469 1.486 1.459 1.441 1.461 1.479 1.484 1.496 1.494 1.476 1.469 1.431 1.441 1.396 1.324 1.339 1.339 1.336 1.344 1.356 1.314 1.314 1.306 1.329 1.261 1.209 1.224 1.231 1.201 1.219 1.214 1.254 1.246 1.221 1.219 1.219 1.229 1.189 1.164 1.179 1.169 1.216 1.191 1.151 1.084 1.104 1.131 1.144 1.176 1.136 1.134 1.144 1.174 1.206 1.196 1.166 1.161 1.169 1.171 1.181 1.131 1.041 1.024 1.034 0.981 0.941 0.944 0.946 0.944 0.944 0.914 0.939 0.929 0.886 0.844 0.816 0.791 0.789 0.774 0.799 0.786 0.741 0.701 0.679 0.691 0.646 0.634 0.656 0.696 0.714 0.769 0.757 0.727 0.712 0.662 0.677 0.647 0.634 0.607 0.599 0.574 0.527 0.502 0.467 0.417 0.379 0.309 0.292 0.205 0.108 0.045 -0.05 -0.124 -0.204 -0.238 -0.273 -0.295 -0.25 -0.228 -0.21 -0.16 -0.069 0.053 0.09 0.098 0.145 0.067 -0.019 -0.129 -0.025 -0.004 -0.02 -0.187 -0.285 -0.347 -0.465 -0.591 -0.697 -0.816 -0.849 -0.86 -0.888 -0.924 -1.231 -1.183 -1.138 -1.148 -1.141 -1.078 -1.122 -1.108 -1.069 -1.042 -0.999 -0.987 -0.965 -0.913 -0.916 -0.923 -0.859 -0.796 -0.75 -0.732 -0.73 -0.728 -0.73 -0.707 -0.68 -0.702 -0.665 -0.603 -0.56 -0.504 -0.421 -0.4 -0.299 -0.177 -0.05 0.078 0.272 0.527 0.684 0.837 1.004 1.157 1.337 1.522 1.659 1.789 1.932 2.087 2.284 2.482 2.714 2.919 3.072 3.252 3.432 3.594 3.787 4.017 4.202 4.464 6.584 8.269 8.489 8.607 8.679 8.797 8.879 9.014 9.097 9.239 9.322 9.434 9.549 9.632 9.737 9.822 9.899 9.984 10.042 10.102 10.239 10.317 10.422 10.449 10.474 10.529 10.624 10.657 10.737 10.814 10.867 10.949 11.012 11.094 11.182 11.257 11.332 11.414 11.477 11.529 11.599 11.602 11.642 11.709 11.774 11.864 11.849 12.532 13.157 11.819 11.464 11.474 12.284 13.199 12.927 12.309 12.329 12.384 12.504 12.532 12.572 12.642 12.682 12.784 12.822 12.839 12.887 12.972 13.057 13.077 13.122 13.189 13.267 13.317 13.379 13.437 13.487 13.539 13.592 13.619 13.697 13.764 13.834 13.897 13.934 13.984 14.027 14.072 14.107 14.114 14.187 14.199 14.192 14.199 14.262 14.249 14.207 14.219 14.252 14.239 14.209 14.224 14.202 14.177 14.134 14.094 14.077 14.034 14.019 13.927 13.897 13.859 13.799 13.757 13.699 13.687 13.632
-0.562 -0.596 -0.603 -0.593 -0.587 -0.586 -0.575 -0.553 -0.548 -0.578 -0.633 -0.7 -0.767 -0.805 -0.779 -0.805 -0.785 -0.783 -0.81 -0.815 -0.783 -0.798 -0.818 -0.81 -0.815 -0.79 -0.796 -0.804 -0.772 -0.739 -0.699 -0.663 -0.611 -0.539 -0.499 -0.435 -0.399 -0.307 -0.248 -0.223 -0.193 -0.157 -0.191 -0.214 -0.266 -0.334 -0.484 -0.546 -0.646 -0.664 -0.656 -0.564 -0.474 -0.409 -0.311 -0.144 0.071 0.331 0.491 0.576 0.661 0.739 0.809 0.856 0.856 0.834 0.834 0.819 0.741 0.714 0.679 0.656 0.686 0.681 0.71 0.688 0.725 0.732 0.722 0.736 0.748 0.75 0.745 0.769 0.779 0.769 0.81 0.816 0.849 0.881 0.896 0.916 0.929 0.944 0.956 0.966 0.992 1.007 0.988 1.007 1.024 1.063 1.072 1.096 1.102 1.109 1.116 1.137 1.143 1.156 1.159 1.174 1.209 1.247 1.32 1.338 1.353 1.35 1.346 1.356 1.37 1.401 1.346 1.311 1.229 1.296 1.309 1.321 1.351 1.379 1.374 1.386 1.394 1.396 1.426 1.449 1.436 1.406 1.429 1.414 1.424 1.436 1.439 1.464 1.486 1.454 1.506 1.501 1.466 1.441 1.444 1.449 1.466 1.459 1.446 1.441 1.441 1.421 1.404 1.411 1.379 1.301 1.291 1.324 1.289 1.299 1.281 1.289 1.291 1.271 1.249 1.236 1.221 1.211 1.224 1.234 1.199 1.219 1.234 1.229 1.254 1.259 1.304 1.259 1.214 1.191 1.204 1.199 1.221 1.204 1.189 1.129 1.139 1.151 1.186 1.179 1.174 1.169 1.144 1.151 1.151 1.164 1.156 1.159 1.129 1.131 1.109 1.119 1.066 1.081 1.094 1.049 0.966 0.909 0.899 0.926 0.946 0.926 0.896 0.864 0.819 0.846 0.809 0.816 0.799 0.806 0.809 0.771 0.749 0.696 0.664 0.694 0.659 0.706 0.749 0.781 0.814 0.816 0.794 0.784 0.742 0.709 0.664 0.619 0.609 0.574 0.542 0.564 0.547 0.497 0.447 0.359 0.342 0.294 0.247 0.175 0.116 0.021 -0.073 -0.166 -0.224 -0.294 -0.315 -0.29 -0.286 -0.258 -0.205 -0.175 -0.11 -0.095 0.075 0.12 0.07 0.022 -0.02 -0.117 -0.029 0.035 -0.008 -0.156 -0.275 -0.362 -0.42 -0.547 -0.654 -0.81 -0.822 -0.848 -0.869 -0.928 -1.241 -1.163 -1.138 -1.128 -1.158 -1.059 -1.092 -1.106 -1.086 -1.078 -1.037 -1.002 -0.995 -0.938 -0.928 -0.932 -0.87 -0.811 -0.773 -0.774 -0.819 -0.809 -0.79 -0.777 -0.694 -0.697 -0.672 -0.635 -0.546 -0.468 -0.389 -0.381 -0.315 -0.151 -0.025 0.125 0.277 0.509 0.682 0.822 0.987 1.139 1.332 1.494 1.642 1.757 1.909 2.092 2.247 2.454 2.702 2.884 3.047 3.207 3.394 3.554 3.799 4.004 4.207 4.439 6.117 8.179 8.552 8.622 8.674 8.834 8.899 8.992 9.102 9.237 9.314 9.449 9.557 9.687 9.777 9.869 9.939 9.994 10.064 10.154 10.254 10.339 10.412 10.457 10.507 10.587 10.647 10.692 10.807 10.857 10.924 11.007 11.067 11.112 11.192 11.289 11.394 11.447 11.547 11.579 11.607 11.639 11.679 11.734 11.832 11.879 11.939 11.912 12.744 13.227 11.747 11.397 11.444 12.352 13.224 12.849 12.374 12.374 12.492 12.527 12.572 12.634 12.692 12.777 12.802 12.864 12.917 12.982 13.039 13.127 13.134 13.229 13.264 13.312 13.397 13.462 13.534 13.549 13.604 13.672 13.707 13.792 13.824 13.907 13.949 13.997 14.029 14.057 14.109 14.147 14.202 14.229 14.224 14.222 14.252 14.254 14.259 14.244 14.229 14.244 14.244 14.232 14.204 14.202 14.164 14.139 14.074 14.062 14.039 14.002 13.939 13.914 13.844 13.789 13.754 13.694 13.637
-0.588 -0.605 -0.626 -0.597 -0.61 -0.585 -0.582 -0.554 -0.547 -0.579 -0.623 -0.698 -0.773 -0.81 -0.803 -0.79 -0.81 -0.808 -0.823 -0.813 -0.785 -0.778 -0.813 -0.798 -0.803 -0.807 -0.811 -0.794 -0.76 -0.722 -0.707 -0.645 -0.597 -0.53 -0.471 -0.419 -0.34 -0.306 -0.257 -0.207 -0.173 -0.156 -0.171 -0.194 -0.269 -0.391 -0.451 -0.576 -0.651 -0.629 -0.581 -0.529 -0.451 -0.431 -0.304 -0.081 0.134 0.399 0.604 0.684 0.739 0.814 0.851 0.876 0.904 0.891 0.909 0.864 0.854 0.821 0.806 0.731 0.746 0.702 0.686 0.666 0.696 0.721 0.709 0.708 0.727 0.733 0.727 0.752 0.749 0.772 0.778 0.841 0.857 0.884 0.895 0.902 0.92 0.932 0.923 0.958 0.956 0.983 0.993 1.004 1.037 1.039 1.05 1.081 1.077 1.076 1.103 1.122 1.118 1.142 1.173 1.166 1.2 1.264 1.314 1.309 1.317 1.318 1.331 1.343 1.326 1.363 1.371 1.369 1.286 1.249 1.239 1.271 1.286 1.326 1.366 1.349 1.394 1.371 1.411 1.389 1.401 1.371 1.389 1.391 1.394 1.394 1.419 1.434 1.464 1.416 1.454 1.454 1.446 1.416 1.399 1.426 1.419 1.456 1.449 1.436 1.436 1.399 1.416 1.401 1.326 1.316 1.276 1.259 1.264 1.249 1.234 1.249 1.204 1.224 1.194 1.231 1.264 1.234 1.249 1.259 1.234 1.254 1.251 1.246 1.261 1.256 1.274 1.269 1.216 1.201 1.169 1.174 1.176 1.199 1.189 1.149 1.136 1.134 1.144 1.156 1.171 1.164 1.154 1.129 1.111 1.129 1.124 1.151 1.124 1.089 1.121 1.109 1.086 1.106 1.104 1.091 1.089 1.044 1.001 0.999 1.014 0.954 0.901 0.866 0.831 0.834 0.839 0.839 0.831 0.821 0.789 0.771 0.754 0.751 0.701 0.734 0.754 0.774 0.804 0.809 0.796 0.794 0.769 0.772 0.714 0.704 0.664 0.629 0.587 0.554 0.529 0.524 0.534 0.482 0.427 0.284 0.234 0.212 0.189 0.117 0.056 -0.023 -0.126 -0.198 -0.268 -0.329 -0.37 -0.386 -0.357 -0.313 -0.28 -0.253 -0.175 -0.108 -0.013 0.011 0.019 -0.047 -0.025 -0.109 -0.042 0.038 0.03 -0.136 -0.265 -0.36 -0.415 -0.548 -0.643 -0.761 -0.774 -0.82 -0.875 -0.941 -0.973 -1.191 -1.218 -1.201 -1.161 -1.041 -1.075 -1.116 -1.111 -1.071 -1.067 -1.003 -1.013 -0.971 -0.944 -0.936 -0.911 -0.848 -0.832 -0.825 -0.881 -0.904 -0.88 -0.798 -0.739 -0.71 -0.666 -0.671 -0.63 -0.53 -0.438 -0.403 -0.312 -0.163 -0.031 0.13 0.276 0.439 0.587 0.787 1.007 1.137 1.309 1.492 1.594 1.752 1.924 2.092 2.242 2.457 2.644 2.827 3.019 3.227 3.402 3.592 3.787 4.007 4.162 4.409 5.842 8.122 8.612 8.662 8.702 8.847 8.924 9.002 9.124 9.227 9.357 9.482 9.587 9.682 9.784 9.874 9.937 10.024 10.102 10.192 10.292 10.349 10.407 10.487 10.529 10.579 10.667 10.739 10.807 10.862 10.939 11.032 11.077 11.132 11.249 11.342 11.399 11.477 11.534 11.572 11.619 11.687 11.712 11.749 11.812 11.914 11.969 11.984 12.197 13.704 13.249 11.799 11.392 11.769 12.712 13.409 12.939 12.424 12.472 12.522 12.582 12.652 12.724 12.752 12.802 12.867 12.927 12.982 13.049 13.129 13.182 13.234 13.279 13.332 13.414 13.482 13.509 13.544 13.602 13.674 13.707 13.769 13.849 13.884 13.964 13.989 14.017 14.059 14.094 14.159 14.197 14.239 14.244 14.227 14.244 14.279 14.262 14.244 14.247 14.239 14.239 14.249 14.249 14.242 14.204 14.179 14.119 14.082 14.044 14.049 13.952 13.917 13.879 13.812 13.749 13.699 13.664
-0.613 -0.611 -0.627 -0.617 -0.612 -0.594 -0.586 -0.563 -0.553 -0.574 -0.6 -0.669 -0.74 -0.793 -0.808 -0.805 -0.794 -0.793 -0.808 -0.8 -0.812 -0.772 -0.795 -0.803 -0.81 -0.812 -0.81 -0.78 -0.74 -0.713 -0.697 -0.657 -0.586 -0.542 -0.469 -0.399 -0.329 -0.27 -0.204 -0.206 -0.182 -0.176 -0.176 -0.229 -0.261 -0.371 -0.459 -0.569 -0.624 -0.634 -0.574 -0.476 -0.466 -0.424 -0.254 -0.001 0.276 0.519 0.699 0.746 0.789 0.831 0.864 0.916 0.951 0.924 0.951 0.954 0.914 0.874 0.861 0.849 0.831 0.768 0.708 0.688 0.668 0.689 0.699 0.697 0.672 0.684 0.696 0.71 0.713 0.774 0.797 0.817 0.874 0.868 0.907 0.896 0.91 0.942 0.917 0.959 0.959 0.982 0.972 0.998 1.029 1.026 1.063 1.059 1.086 1.098 1.112 1.132 1.126 1.148 1.155 1.176 1.22 1.251 1.252 1.277 1.28 1.258 1.286 1.294 1.303 1.311 1.341 1.389 1.364 1.329 1.274 1.251 1.256 1.276 1.306 1.346 1.359 1.379 1.386 1.386 1.381 1.371 1.386 1.371 1.351 1.354 1.361 1.379 1.404 1.399 1.441 1.414 1.406 1.411 1.394 1.391 1.371 1.391 1.401 1.389 1.396 1.379 1.389 1.359 1.349 1.351 1.289 1.236 1.206 1.271 1.236 1.239 1.254 1.206 1.234 1.274 1.276 1.291 1.281 1.281 1.269 1.259 1.271 1.241 1.226 1.234 1.229 1.236 1.244 1.184 1.164 1.131 1.124 1.186 1.206 1.174 1.164 1.154 1.144 1.129 1.116 1.144 1.191 1.174 1.146 1.171 1.164 1.194 1.191 1.131 1.094 1.086 1.074 1.079 1.074 1.094 1.101 1.031 1.011 0.966 0.954 0.929 0.926 0.891 0.856 0.831 0.776 0.794 0.821 0.804 0.769 0.769 0.754 0.761 0.751 0.744 0.774 0.764 0.749 0.726 0.714 0.724 0.694 0.697 0.639 0.624 0.599 0.579 0.537 0.472 0.484 0.494 0.434 0.427 0.399 0.372 0.272 0.172 0.139 0.079 -0.004 -0.081 -0.134 -0.201 -0.294 -0.368 -0.416 -0.424 -0.407 -0.382 -0.352 -0.314 -0.242 -0.18 -0.124 -0.019 0.054 0.054 0.074 -0.006 -0.013 0.04 0.05 -0.119 -0.252 -0.362 -0.43 -0.495 -0.596 -0.723 -0.791 -0.811 -0.876 -0.93 -0.979 -0.999 -1.173 -1.156 -1.161 -1.062 -1.084 -1.127 -1.103 -1.071 -1.045 -1.038 -1.022 -0.999 -0.979 -0.922 -0.883 -0.864 -0.871 -0.85 -0.856 -0.901 -0.875 -0.808 -0.768 -0.735 -0.687 -0.672 -0.679 -0.57 -0.486 -0.397 -0.311 -0.186 -0.041 0.081 0.214 0.384 0.544 0.774 0.944 1.082 1.297 1.477 1.594 1.764 1.902 2.077 2.227 2.382 2.587 2.784 2.974 3.177 3.354 3.567 3.769 3.952 4.129 5.057 8.522 8.999 8.659 8.727 8.749 8.864 8.952 9.047 9.107 9.224 9.344 9.504 9.597 9.727 9.809 9.889 9.957 10.052 10.154 10.212 10.294 10.342 10.432 10.519 10.577 10.609 10.722 10.769 10.834 10.944 10.994 11.059 11.119 11.187 11.272 11.334 11.419 11.482 11.509 11.597 11.669 11.747 11.784 11.797 11.837 11.929 12.027 12.057 12.014 12.124 13.324 12.957 11.672 11.449 11.699 13.139 13.864 13.229 12.507 12.519 12.582 12.614 12.699 12.754 12.814 12.882 12.939 12.984 13.039 13.147 13.182 13.204 13.257 13.322 13.409 13.452 13.484 13.572 13.637 13.674 13.707 13.782 13.859 13.922 13.949 13.997 14.014 14.057 14.114 14.139 14.194 14.214 14.247 14.287 14.254 14.264 14.302 14.282 14.269 14.282 14.264 14.249 14.257 14.232 14.204 14.172 14.179 14.122 14.102 14.047 14.017 13.957 13.924 13.819 13.772 13.744 13.702
-0.621 -0.622 -0.619 -0.617 -0.613 -0.575 -0.568 -0.553 -0.537 -0.544 -0.572 -0.634 -0.73 -0.8 -0.795 -0.805 -0.815 -0.8 -0.805 -0.798 -0.78 -0.773 -0.793 -0.786 -0.78 -0.812 -0.8 -0.76 -0.717 -0.687 -0.674 -0.648 -0.594 -0.518 -0.454 -0.401 -0.309 -0.25 -0.2 -0.18 -0.156 -0.164 -0.209 -0.221 -0.276 -0.394 -0.464 -0.549 -0.609 -0.626 -0.534 -0.514 -0.494 -0.429 -0.261 0.031 0.366 0.574 0.731 0.786 0.811 0.851 0.911 0.944 0.929 0.921 0.926 0.911 0.904 0.926 0.946 0.931 0.899 0.832 0.773 0.736 0.705 0.673 0.658 0.652 0.656 0.646 0.663 0.693 0.71 0.749 0.775 0.785 0.83 0.873 0.884 0.908 0.9 0.909 0.933 0.933 0.941 0.956 0.974 0.985 1.011 1.016 1.056 1.058 1.088 1.105 1.118 1.115 1.124 1.131 1.145 1.167 1.191 1.21 1.237 1.254 1.266 1.266 1.301 1.31 1.336 1.361 1.349 1.336 1.396 1.379 1.336 1.269 1.236 1.261 1.281 1.324 1.309 1.341 1.341 1.359 1.346 1.344 1.321 1.311 1.296 1.309 1.316 1.349 1.361 1.359 1.381 1.381 1.409 1.414 1.369 1.369 1.369 1.394 1.411 1.376 1.374 1.359 1.356 1.359 1.356 1.351 1.296 1.249 1.256 1.254 1.266 1.261 1.266 1.266 1.286 1.306 1.269 1.266 1.266 1.239 1.259 1.281 1.251 1.269 1.261 1.249 1.274 1.274 1.236 1.196 1.174 1.151 1.169 1.184 1.184 1.171 1.169 1.149 1.169 1.181 1.136 1.134 1.169 1.174 1.166 1.119 1.121 1.161 1.176 1.144 1.064 1.001 0.976 0.991 1.026 1.074 1.026 0.961 0.854 0.851 0.879 0.909 0.889 0.839 0.781 0.729 0.729 0.749 0.756 0.791 0.761 0.761 0.754 0.764 0.774 0.769 0.739 0.751 0.714 0.696 0.694 0.681 0.657 0.632 0.614 0.549 0.492 0.489 0.457 0.422 0.417 0.399 0.377 0.429 0.457 0.437 0.362 0.282 0.192 0.128 0.024 -0.075 -0.125 -0.193 -0.293 -0.322 -0.372 -0.418 -0.386 -0.394 -0.359 -0.322 -0.251 -0.128 -0.093 0.003 0.143 0.133 0.071 0.014 0.003 0.074 0.096 -0.057 -0.234 -0.355 -0.46 -0.507 -0.573 -0.681 -0.765 -0.809 -0.893 -0.954 -0.981 -0.993 -1.143 -1.012 -1.042 -1.044 -1.073 -1.09 -1.115 -1.075 -1.072 -1.069 -1.027 -1.012 -1.032 -0.97 -0.948 -0.924 -0.883 -0.87 -0.86 -0.883 -0.865 -0.829 -0.801 -0.765 -0.721 -0.69 -0.653 -0.619 -0.529 -0.458 -0.347 -0.214 -0.07 0.08 0.202 0.372 0.544 0.749 0.907 1.079 1.254 1.412 1.519 1.727 1.869 2.037 2.167 2.339 2.584 2.737 2.957 3.159 3.352 3.524 3.729 3.927 4.114 5.507 9.254 9.412 8.767 8.737 8.804 8.867 8.964 9.029 9.104 9.254 9.382 9.502 9.619 9.742 9.809 9.902 9.999 10.072 10.162 10.227 10.274 10.369 10.437 10.524 10.609 10.642 10.719 10.804 10.872 10.957 11.022 11.079 11.167 11.237 11.314 11.379 11.459 11.494 11.547 11.669 11.709 11.777 11.842 11.859 11.894 11.934 12.047 12.129 12.087 12.104 12.184 13.702 13.329 11.742 11.592 12.169 14.197 14.699 12.929 12.552 12.589 12.647 12.694 12.729 12.834 12.889 12.969 13.007 13.067 13.107 13.184 13.254 13.267 13.354 13.412 13.449 13.514 13.574 13.662 13.697 13.764 13.807 13.844 13.922 13.954 13.987 14.024 14.034 14.097 14.179 14.199 14.254 14.264 14.267 14.282 14.289 14.299 14.324 14.332 14.304 14.319 14.279 14.279 14.284 14.234 14.192 14.219 14.147 14.117 14.082 14.052 13.997 13.939 13.849 13.809 13.757 13.729
-0.636 -0.61 -0.623 -0.628 -0.598 -0.578 -0.558 -0.555 -0.539 -0.559 -0.603 -0.68 -0.728 -0.79 -0.8 -0.788 -0.803 -0.795 -0.795 -0.813 -0.8 -0.773 -0.78 -0.8 -0.801 -0.799 -0.775 -0.792 -0.724 -0.699 -0.696 -0.632 -0.57 -0.5 -0.458 -0.393 -0.312 -0.234 -0.209 -0.162 -0.174 -0.169 -0.189 -0.236 -0.319 -0.409 -0.499 -0.544 -0.619 -0.579 -0.534 -0.534 -0.496 -0.414 -0.166 0.154 0.431 0.639 0.761 0.779 0.834 0.866 0.889 0.889 0.914 0.901 0.906 0.931 0.909 0.924 0.894 0.901 0.946 0.891 0.86 0.81 0.717 0.713 0.66 0.663 0.658 0.658 0.659 0.7 0.743 0.756 0.81 0.813 0.832 0.856 0.862 0.874 0.881 0.903 0.935 0.937 0.952 0.959 0.953 0.982 0.983 1.023 1.063 1.062 1.071 1.09 1.13 1.146 1.113 1.136 1.127 1.15 1.177 1.205 1.232 1.244 1.297 1.313 1.32 1.305 1.338 1.353 1.371 1.383 1.399 1.391 1.394 1.341 1.256 1.224 1.249 1.301 1.296 1.331 1.336 1.354 1.384 1.349 1.349 1.359 1.361 1.344 1.391 1.374 1.354 1.399 1.359 1.411 1.406 1.399 1.371 1.361 1.381 1.361 1.409 1.386 1.371 1.384 1.399 1.401 1.351 1.369 1.356 1.291 1.284 1.239 1.261 1.284 1.291 1.286 1.309 1.321 1.286 1.264 1.274 1.214 1.266 1.266 1.266 1.219 1.249 1.221 1.229 1.221 1.206 1.214 1.166 1.129 1.109 1.131 1.146 1.149 1.136 1.136 1.144 1.194 1.159 1.126 1.131 1.139 1.124 1.111 1.081 1.089 1.129 1.126 1.146 1.079 0.956 0.964 0.984 0.976 0.939 0.879 0.841 0.781 0.819 0.829 0.811 0.804 0.729 0.684 0.699 0.729 0.729 0.779 0.779 0.771 0.774 0.751 0.774 0.776 0.724 0.689 0.664 0.621 0.604 0.609 0.634 0.604 0.579 0.512 0.489 0.462 0.417 0.352 0.352 0.379 0.424 0.464 0.497 0.504 0.444 0.387 0.269 0.184 0.069 0.004 -0.093 -0.161 -0.25 -0.324 -0.358 -0.382 -0.414 -0.391 -0.362 -0.293 -0.244 -0.124 -0.042 0.09 0.153 0.168 0.062 0.012 0.001 0.094 0.128 -0.057 -0.24 -0.337 -0.465 -0.575 -0.589 -0.663 -0.778 -0.813 -0.878 -0.954 -0.996 -1.021 -1.181 -1.012 -1.042 -1.067 -1.106 -1.128 -1.156 -1.138 -1.118 -1.085 -1.077 -1.047 -1.022 -1.004 -0.992 -0.949 -0.953 -0.952 -0.916 -0.908 -0.86 -0.833 -0.807 -0.78 -0.765 -0.733 -0.694 -0.625 -0.567 -0.487 -0.386 -0.24 -0.113 0.057 0.209 0.342 0.512 0.732 0.922 1.097 1.227 1.369 1.537 1.712 1.849 2.002 2.147 2.332 2.524 2.694 2.894 3.134 3.334 3.489 3.699 3.869 4.099 4.407 7.392 8.792 8.839 8.964 8.817 8.887 8.969 9.084 9.172 9.272 9.397 9.512 9.639 9.724 9.847 9.927 10.004 10.129 10.182 10.249 10.339 10.407 10.487 10.567 10.637 10.712 10.779 10.844 10.899 10.994 11.119 11.167 11.192 11.264 11.334 11.397 11.462 11.539 11.632 11.682 11.747 11.832 11.884 11.942 11.957 11.964 12.034 12.122 12.167 12.172 12.164 12.482 13.637 12.992 11.894 11.627 12.389 14.162 14.337 12.949 12.579 12.647 12.692 12.759 12.869 12.927 12.957 13.057 13.109 13.139 13.179 13.224 13.312 13.372 13.414 13.459 13.512 13.594 13.649 13.712 13.779 13.794 13.839 13.899 13.952 13.969 14.017 14.069 14.119 14.194 14.209 14.224 14.272 14.282 14.277 14.297 14.319 14.334 14.357 14.334 14.292 14.307 14.292 14.299 14.284 14.242 14.224 14.187 14.127 14.102 14.062 14.009 13.942 13.882 13.844 13.779 13.752
-0.612 -0.628 -0.633 -0.619 -0.607 -0.591 -0.558 -0.55 -0.529 -0.555 -0.573 -0.633 -0.733 -0.805 -0.798 -0.795 -0.795 -0.776 -0.773 -0.803 -0.79 -0.783 -0.81 -0.822 -0.827 -0.799 -0.789 -0.746 -0.737 -0.724 -0.68 -0.612 -0.571 -0.489 -0.418 -0.361 -0.31 -0.251 -0.233 -0.179 -0.151 -0.166 -0.181 -0.224 -0.326 -0.399 -0.471 -0.569 -0.594 -0.601 -0.551 -0.524 -0.476 -0.366 -0.071 0.221 0.516 0.699 0.751 0.819 0.886 0.874 0.874 0.861 0.881 0.849 0.874 0.901 0.899 0.926 0.871 0.921 0.941 0.915 0.875 0.851 0.821 0.787 0.725 0.693 0.656 0.649 0.67 0.712 0.727 0.754 0.786 0.81 0.845 0.854 0.859 0.864 0.895 0.926 0.919 0.979 0.97 0.969 0.953 0.974 0.983 1.016 1.04 1.066 1.087 1.108 1.114 1.105 1.135 1.119 1.144 1.147 1.17 1.19 1.233 1.263 1.277 1.277 1.288 1.304 1.328 1.35 1.337 1.357 1.384 1.389 1.389 1.401 1.316 1.241 1.224 1.229 1.289 1.301 1.331 1.341 1.341 1.359 1.346 1.366 1.404 1.366 1.374 1.371 1.391 1.426 1.419 1.376 1.386 1.394 1.399 1.386 1.384 1.386 1.391 1.396 1.396 1.376 1.391 1.399 1.356 1.331 1.354 1.304 1.291 1.256 1.281 1.281 1.276 1.284 1.289 1.279 1.291 1.251 1.241 1.241 1.246 1.211 1.184 1.201 1.194 1.201 1.181 1.191 1.184 1.201 1.121 1.089 1.079 1.116 1.171 1.186 1.159 1.174 1.174 1.169 1.154 1.141 1.129 1.101 1.124 1.104 1.114 1.096 1.141 1.146 1.136 1.134 1.054 0.926 0.904 0.939 0.971 0.994 0.976 0.894 0.829 0.809 0.811 0.806 0.736 0.681 0.644 0.631 0.694 0.721 0.766 0.779 0.744 0.739 0.731 0.701 0.654 0.636 0.604 0.574 0.551 0.559 0.567 0.559 0.572 0.539 0.509 0.474 0.452 0.434 0.464 0.454 0.457 0.459 0.474 0.484 0.477 0.434 0.339 0.267 0.148 0.035 -0.051 -0.15 -0.25 -0.329 -0.369 -0.395 -0.407 -0.371 -0.346 -0.31 -0.233 -0.175 -0.074 0.076 0.133 0.051 0.047 -0.022 -0.029 0.064 0.047 -0.045 -0.18 -0.39 -0.513 -0.596 -0.665 -0.71 -0.779 -0.832 -0.871 -0.939 -1.213 -1.203 -1.238 -1.041 -1.05 -1.085 -1.111 -1.12 -1.176 -1.211 -1.162 -1.14 -1.119 -1.102 -1.103 -1.05 -0.982 -0.988 -0.979 -0.999 -0.984 -0.935 -0.892 -0.858 -0.854 -0.829 -0.774 -0.746 -0.699 -0.654 -0.612 -0.5 -0.392 -0.251 -0.108 0.017 0.177 0.354 0.499 0.697 0.877 1.057 1.187 1.312 1.499 1.639 1.787 1.944 2.112 2.309 2.497 2.704 2.894 3.122 3.294 3.512 3.689 3.844 4.064 4.272 7.037 9.662 9.549 9.699 9.164 8.902 9.027 9.107 9.187 9.304 9.437 9.549 9.672 9.754 9.867 9.969 10.049 10.127 10.174 10.284 10.389 10.447 10.542 10.629 10.717 10.802 10.857 10.902 10.937 11.047 11.107 11.179 11.249 11.284 11.359 11.407 11.482 11.559 11.644 11.709 11.814 11.859 11.894 11.949 11.984 12.029 12.054 12.137 12.207 12.222 12.217 12.247 12.704 13.984 13.017 11.744 11.659 12.407 14.477 14.299 12.884 12.629 12.697 12.729 12.849 12.917 12.979 13.042 13.109 13.149 13.214 13.249 13.359 13.422 13.472 13.507 13.549 13.609 13.679 13.709 13.757 13.829 13.887 13.904 13.952 14.007 14.044 14.062 14.142 14.179 14.214 14.242 14.272 14.304 14.307 14.319 14.339 14.342 14.339 14.342 14.342 14.299 14.349 14.292 14.302 14.302 14.262 14.224 14.159 14.122 14.097 14.049 13.994 13.949 13.897 13.827 13.787
-0.634 -0.63 -0.62 -0.637 -0.582 -0.541 -0.545 -0.544 -0.52 -0.537 -0.571 -0.64 -0.713 -0.795 -0.805 -0.798 -0.808 -0.783 -0.8 -0.798 -0.775 -0.783 -0.803 -0.815 -0.841 -0.813 -0.779 -0.741 -0.74 -0.679 -0.658 -0.604 -0.552 -0.482 -0.421 -0.358 -0.284 -0.24 -0.221 -0.214 -0.174 -0.196 -0.201 -0.214 -0.291 -0.379 -0.486 -0.561 -0.561 -0.571 -0.576 -0.576 -0.519 -0.346 -0.024 0.296 0.551 0.761 0.754 0.826 0.844 0.854 0.826 0.819 0.811 0.846 0.876 0.869 0.904 0.904 0.921 0.956 0.949 0.914 0.894 0.856 0.829 0.79 0.757 0.741 0.711 0.689 0.661 0.677 0.721 0.753 0.782 0.797 0.815 0.854 0.855 0.883 0.899 0.92 0.941 0.957 0.931 0.947 0.907 0.92 0.943 0.966 1.019 1.046 1.074 1.073 1.11 1.121 1.123 1.134 1.152 1.177 1.182 1.208 1.239 1.225 1.229 1.263 1.274 1.293 1.302 1.326 1.34 1.362 1.341 1.351 1.386 1.344 1.361 1.279 1.239 1.189 1.219 1.266 1.304 1.331 1.326 1.316 1.329 1.371 1.369 1.369 1.371 1.371 1.396 1.394 1.416 1.439 1.446 1.404 1.421 1.371 1.371 1.389 1.386 1.386 1.391 1.371 1.369 1.359 1.331 1.321 1.304 1.281 1.281 1.269 1.244 1.234 1.234 1.259 1.259 1.286 1.261 1.241 1.229 1.261 1.264 1.264 1.261 1.204 1.191 1.209 1.199 1.166 1.159 1.141 1.186 1.151 1.096 1.066 1.144 1.134 1.201 1.164 1.179 1.186 1.164 1.161 1.164 1.146 1.146 1.171 1.184 1.171 1.126 1.151 1.126 1.124 1.046 0.999 0.911 0.981 1.046 1.009 0.969 0.949 0.919 0.859 0.816 0.774 0.741 0.691 0.619 0.584 0.611 0.671 0.714 0.706 0.704 0.619 0.611 0.564 0.574 0.584 0.566 0.594 0.564 0.556 0.547 0.574 0.622 0.652 0.609 0.549 0.554 0.534 0.512 0.479 0.474 0.454 0.459 0.477 0.454 0.414 0.364 0.292 0.216 0.117 -0 -0.135 -0.248 -0.33 -0.405 -0.39 -0.402 -0.38 -0.369 -0.328 -0.235 -0.153 -0.064 -0.013 0.05 0.025 -0.064 -0.084 -0.106 -0.014 0.018 -0.057 -0.229 -0.38 -0.542 -0.612 -0.721 -0.757 -0.77 -0.833 -0.868 -0.897 -1.196 -1.231 -1.238 -1.188 -1.029 -1.062 -1.101 -1.131 -1.144 -1.156 -1.167 -1.186 -1.115 -1.102 -1.128 -1.06 -1.038 -1.029 -1.007 -1.014 -1.006 -0.95 -0.909 -0.881 -0.896 -0.861 -0.812 -0.759 -0.715 -0.673 -0.628 -0.521 -0.458 -0.305 -0.133 0.004 0.144 0.329 0.502 0.674 0.867 1.029 1.157 1.322 1.449 1.619 1.729 1.889 2.074 2.269 2.429 2.654 2.889 3.069 3.282 3.472 3.649 3.784 4.032 4.247 8.817 10.309 10.392 11.132 10.804 8.922 9.054 9.117 9.247 9.337 9.467 9.582 9.699 9.809 9.909 10.022 10.089 10.157 10.217 10.319 10.404 10.497 10.584 10.667 10.744 10.802 10.869 10.959 11.042 11.089 11.152 11.222 11.272 11.319 11.372 11.472 11.532 11.579 11.677 11.739 11.799 11.887 11.944 12.007 12.034 12.052 12.094 12.124 12.219 12.304 12.282 12.322 12.324 12.832 14.172 12.884 11.784 11.764 12.722 14.309 14.192 12.827 12.707 12.777 12.854 12.912 13.004 13.092 13.109 13.167 13.224 13.272 13.374 13.437 13.472 13.519 13.574 13.657 13.714 13.754 13.787 13.827 13.907 13.949 13.984 13.979 14.039 14.112 14.132 14.199 14.237 14.257 14.249 14.282 14.304 14.279 14.324 14.334 14.352 14.352 14.342 14.337 14.374 14.349 14.299 14.287 14.244 14.262 14.202 14.154 14.122 14.072 14.044 13.974 13.914 13.867 13.807
-0.633 -0.657 -0.64 -0.625 -0.6 -0.573 -0.551 -0.54 -0.515 -0.5 -0.565 -0.63 -0.733 -0.798 -0.833 -0.8 -0.808 -0.82 -0.823 -0.818 -0.803 -0.813 -0.815 -0.835 -0.82 -0.815 -0.769 -0.747 -0.73 -0.697 -0.663 -0.597 -0.545 -0.48 -0.423 -0.356 -0.309 -0.242 -0.205 -0.141 -0.161 -0.171 -0.204 -0.254 -0.306 -0.414 -0.501 -0.571 -0.571 -0.556 -0.544 -0.604 -0.534 -0.271 0.076 0.371 0.589 0.724 0.781 0.841 0.841 0.831 0.831 0.821 0.829 0.816 0.851 0.871 0.859 0.854 0.894 0.924 0.929 0.885 0.853 0.821 0.811 0.786 0.771 0.759 0.75 0.737 0.709 0.728 0.733 0.744 0.769 0.8 0.813 0.822 0.836 0.89 0.925 0.928 0.946 0.933 0.946 0.93 0.894 0.904 0.92 0.967 0.983 1.045 1.029 1.096 1.095 1.144 1.152 1.13 1.128 1.144 1.18 1.198 1.195 1.214 1.22 1.237 1.263 1.285 1.286 1.29 1.316 1.347 1.361 1.321 1.361 1.354 1.321 1.366 1.294 1.221 1.184 1.224 1.294 1.321 1.349 1.366 1.374 1.369 1.406 1.406 1.416 1.381 1.399 1.416 1.426 1.426 1.414 1.396 1.434 1.364 1.359 1.334 1.336 1.359 1.329 1.306 1.319 1.311 1.341 1.269 1.291 1.289 1.269 1.261 1.234 1.231 1.256 1.244 1.251 1.271 1.254 1.239 1.241 1.211 1.221 1.216 1.219 1.211 1.214 1.166 1.169 1.161 1.139 1.134 1.164 1.154 1.114 1.089 1.079 1.156 1.166 1.154 1.161 1.156 1.179 1.146 1.171 1.146 1.151 1.139 1.184 1.156 1.106 1.091 1.084 1.054 0.986 0.899 0.911 0.901 0.946 0.949 0.906 0.871 0.854 0.814 0.794 0.804 0.796 0.731 0.671 0.629 0.594 0.606 0.654 0.661 0.626 0.619 0.639 0.606 0.626 0.611 0.564 0.609 0.576 0.581 0.602 0.622 0.649 0.699 0.652 0.622 0.614 0.574 0.549 0.512 0.474 0.457 0.427 0.447 0.444 0.399 0.347 0.314 0.232 0.132 0.01 -0.057 -0.191 -0.3 -0.399 -0.441 -0.433 -0.438 -0.427 -0.381 -0.32 -0.2 -0.133 -0.077 -0.056 -0.048 -0.106 -0.191 -0.157 -0.108 -0.031 -0.126 -0.277 -0.442 -0.521 -0.635 -0.699 -0.779 -0.758 -0.809 -0.856 -0.895 -1.203 -1.223 -1.211 -1.178 -1.216 -1.064 -1.107 -1.128 -1.162 -1.203 -1.196 -1.199 -1.154 -1.124 -1.145 -1.112 -1.065 -1.072 -1.081 -1.048 -1.042 -0.956 -0.938 -0.914 -0.906 -0.892 -0.84 -0.767 -0.724 -0.687 -0.635 -0.594 -0.479 -0.331 -0.161 0.022 0.119 0.357 0.499 0.657 0.819 1.004 1.132 1.287 1.444 1.592 1.722 1.869 2.029 2.254 2.429 2.634 2.862 3.087 3.267 3.434 3.619 3.787 3.997 4.227 6.519 9.079 9.897 11.264 11.052 8.992 9.062 9.162 9.249 9.362 9.462 9.604 9.744 9.834 9.972 10.034 10.082 10.164 10.252 10.319 10.419 10.514 10.614 10.717 10.789 10.847 10.892 10.974 11.007 11.102 11.174 11.237 11.297 11.332 11.419 11.487 11.542 11.602 11.664 11.744 11.794 11.867 11.954 12.029 12.067 12.102 12.147 12.152 12.244 12.332 12.332 12.359 12.402 12.382 12.984 13.972 12.519 11.872 11.897 13.367 14.494 13.999 12.934 12.822 12.874 12.932 12.989 13.119 13.134 13.202 13.249 13.284 13.352 13.424 13.492 13.544 13.614 13.667 13.692 13.742 13.777 13.847 13.927 13.939 13.974 14.014 14.054 14.119 14.174 14.212 14.254 14.289 14.289 14.294 14.322 14.327 14.344 14.374 14.352 14.397 14.349 14.352 14.397 14.367 14.339 14.282 14.262 14.247 14.244 14.174 14.122 14.114 14.044 14.012 13.924 13.884 13.857
-0.649 -0.633 -0.648 -0.632 -0.594 -0.553 -0.51 -0.514 -0.483 -0.503 -0.523 -0.598 -0.67 -0.773 -0.805 -0.805 -0.8 -0.808 -0.785 -0.818 -0.81 -0.79 -0.795 -0.809 -0.813 -0.784 -0.752 -0.736 -0.73 -0.689 -0.64 -0.588 -0.508 -0.471 -0.391 -0.355 -0.298 -0.226 -0.174 -0.189 -0.186 -0.179 -0.214 -0.264 -0.351 -0.391 -0.516 -0.551 -0.559 -0.586 -0.634 -0.634 -0.494 -0.189 0.136 0.426 0.599 0.771 0.804 0.844 0.794 0.804 0.796 0.771 0.776 0.796 0.816 0.826 0.831 0.846 0.861 0.891 0.901 0.888 0.852 0.832 0.812 0.801 0.782 0.777 0.764 0.761 0.737 0.75 0.753 0.75 0.741 0.752 0.785 0.821 0.843 0.906 0.927 0.933 0.941 0.932 0.943 0.931 0.905 0.938 0.976 1.01 1.034 1.031 1.052 1.094 1.089 1.162 1.192 1.149 1.157 1.153 1.144 1.155 1.177 1.178 1.197 1.21 1.237 1.263 1.263 1.278 1.302 1.307 1.321 1.319 1.344 1.366 1.366 1.394 1.376 1.314 1.241 1.254 1.254 1.269 1.314 1.371 1.374 1.376 1.381 1.376 1.404 1.386 1.386 1.374 1.374 1.404 1.369 1.336 1.341 1.359 1.339 1.339 1.304 1.314 1.304 1.316 1.316 1.299 1.296 1.314 1.306 1.281 1.264 1.264 1.241 1.239 1.254 1.269 1.279 1.256 1.224 1.241 1.256 1.194 1.184 1.174 1.174 1.189 1.169 1.181 1.141 1.176 1.181 1.144 1.131 1.154 1.159 1.121 1.074 1.051 1.099 1.134 1.129 1.114 1.111 1.141 1.129 1.129 1.114 1.154 1.126 1.121 1.096 1.069 1.036 0.994 0.916 0.864 0.804 0.794 0.824 0.894 0.856 0.824 0.809 0.799 0.784 0.811 0.829 0.789 0.729 0.681 0.624 0.569 0.611 0.629 0.631 0.664 0.699 0.676 0.649 0.606 0.611 0.586 0.611 0.611 0.617 0.627 0.669 0.732 0.699 0.667 0.624 0.557 0.524 0.469 0.434 0.394 0.379 0.372 0.379 0.384 0.352 0.299 0.217 0.14 0.066 -0.054 -0.144 -0.251 -0.367 -0.48 -0.516 -0.518 -0.492 -0.443 -0.379 -0.272 -0.172 -0.165 -0.123 -0.127 -0.182 -0.221 -0.196 -0.16 -0.132 -0.18 -0.248 -0.327 -0.446 -0.558 -0.655 -0.778 -0.795 -0.798 -0.856 -0.893 -1.198 -1.226 -1.218 -1.181 -1.183 -1.186 -1.102 -1.228 -1.222 -1.236 -1.181 -1.211 -1.143 -1.127 -1.107 -1.082 -1.11 -1.108 -1.093 -1.089 -1.036 -0.981 -0.941 -0.932 -0.925 -0.92 -0.863 -0.79 -0.761 -0.681 -0.627 -0.601 -0.491 -0.328 -0.123 0.004 0.149 0.259 0.482 0.604 0.769 0.969 1.087 1.244 1.427 1.559 1.699 1.852 2.057 2.242 2.414 2.604 2.842 3.062 3.234 3.424 3.579 3.754 3.972 4.162 5.392 9.007 9.827 10.739 9.792 8.937 9.097 9.189 9.302 9.364 9.499 9.642 9.772 9.889 9.959 10.034 10.132 10.204 10.262 10.374 10.462 10.552 10.627 10.727 10.784 10.862 10.922 10.979 11.054 11.142 11.189 11.259 11.289 11.367 11.452 11.507 11.559 11.634 11.702 11.772 11.822 11.919 11.982 12.022 12.074 12.132 12.162 12.234 12.247 12.312 12.394 12.422 12.462 12.507 12.509 13.132 13.777 12.524 11.889 11.959 13.204 14.679 14.694 12.854 12.894 12.932 12.999 13.059 13.164 13.209 13.274 13.334 13.379 13.424 13.514 13.582 13.614 13.672 13.717 13.749 13.802 13.889 13.942 13.969 13.997 14.017 14.107 14.129 14.204 14.219 14.264 14.284 14.302 14.314 14.339 14.322 14.354 14.392 14.384 14.372 14.397 14.392 14.372 14.382 14.349 14.294 14.267 14.249 14.222 14.217 14.189 14.139 14.067 14.049 13.997 13.932 13.892
-0.668 -0.656 -0.659 -0.634 -0.592 -0.566 -0.536 -0.503 -0.488 -0.508 -0.538 -0.598 -0.669 -0.768 -0.813 -0.81 -0.81 -0.808 -0.8 -0.795 -0.818 -0.805 -0.795 -0.799 -0.795 -0.786 -0.742 -0.728 -0.72 -0.668 -0.631 -0.596 -0.515 -0.468 -0.423 -0.353 -0.292 -0.224 -0.204 -0.226 -0.199 -0.194 -0.204 -0.266 -0.316 -0.431 -0.474 -0.549 -0.561 -0.574 -0.639 -0.614 -0.411 -0.099 0.171 0.414 0.651 0.786 0.804 0.794 0.746 0.774 0.754 0.759 0.764 0.756 0.771 0.801 0.824 0.834 0.851 0.866 0.901 0.874 0.843 0.797 0.807 0.792 0.775 0.782 0.765 0.751 0.748 0.755 0.771 0.749 0.738 0.749 0.77 0.804 0.828 0.868 0.895 0.92 0.929 0.922 0.918 0.909 0.905 0.942 0.978 1.006 1.038 1.068 1.089 1.084 1.088 1.149 1.152 1.156 1.149 1.128 1.14 1.141 1.147 1.17 1.175 1.21 1.207 1.219 1.221 1.262 1.257 1.294 1.316 1.351 1.349 1.369 1.421 1.406 1.409 1.391 1.241 1.204 1.211 1.251 1.299 1.359 1.349 1.339 1.349 1.346 1.349 1.321 1.311 1.341 1.354 1.356 1.364 1.351 1.351 1.351 1.314 1.316 1.314 1.329 1.301 1.301 1.299 1.329 1.304 1.286 1.306 1.291 1.314 1.274 1.276 1.229 1.264 1.266 1.271 1.264 1.231 1.211 1.214 1.194 1.226 1.226 1.209 1.169 1.159 1.166 1.146 1.151 1.181 1.164 1.134 1.151 1.154 1.121 1.124 1.084 1.099 1.101 1.081 1.111 1.124 1.099 1.074 1.039 1.044 1.074 1.081 1.129 1.104 1.131 1.096 1.079 0.986 0.901 0.846 0.779 0.779 0.851 0.844 0.826 0.819 0.824 0.809 0.801 0.806 0.784 0.789 0.721 0.656 0.571 0.676 0.671 0.649 0.681 0.646 0.656 0.639 0.601 0.596 0.599 0.634 0.646 0.657 0.634 0.634 0.672 0.699 0.674 0.627 0.554 0.532 0.482 0.442 0.364 0.354 0.327 0.349 0.319 0.292 0.254 0.224 0.111 0.059 -0.033 -0.108 -0.205 -0.33 -0.428 -0.489 -0.564 -0.588 -0.521 -0.432 -0.332 -0.245 -0.249 -0.158 -0.132 -0.095 -0.101 -0.105 -0.154 -0.216 -0.154 -0.218 -0.283 -0.335 -0.49 -0.601 -0.728 -0.837 -0.792 -0.852 -0.891 -0.925 -1.206 -1.193 -1.171 -1.196 -1.186 -1.188 -1.201 -1.178 -1.191 -1.161 -1.158 -1.168 -1.171 -1.155 -1.162 -1.139 -1.116 -1.114 -1.13 -1.07 -0.999 -0.986 -0.945 -0.929 -0.9 -0.869 -0.819 -0.745 -0.684 -0.643 -0.581 -0.506 -0.353 -0.151 -0.041 0.084 0.264 0.454 0.622 0.759 0.909 1.037 1.207 1.354 1.514 1.672 1.829 2.009 2.207 2.377 2.579 2.819 3.017 3.232 3.387 3.559 3.734 3.944 4.122 4.712 8.189 9.704 10.169 9.352 8.927 9.092 9.194 9.307 9.427 9.512 9.652 9.772 9.899 9.947 10.064 10.132 10.199 10.277 10.402 10.449 10.544 10.664 10.747 10.804 10.902 10.952 11.022 11.067 11.157 11.224 11.259 11.307 11.359 11.467 11.509 11.582 11.627 11.714 11.779 11.847 11.922 11.999 12.044 12.084 12.159 12.209 12.249 12.292 12.347 12.419 12.487 12.489 12.537 12.554 12.614 13.717 13.709 12.219 11.937 12.067 13.542 14.822 14.067 12.997 12.977 13.039 13.127 13.192 13.234 13.314 13.364 13.399 13.434 13.514 13.607 13.664 13.694 13.729 13.772 13.802 13.889 13.912 13.982 14.002 14.057 14.087 14.127 14.199 14.222 14.242 14.249 14.319 14.329 14.354 14.364 14.372 14.374 14.419 14.399 14.372 14.387 14.409 14.392 14.387 14.334 14.289 14.259 14.237 14.212 14.199 14.192 14.149 14.087 14.004 13.972 13.927
-0.66 -0.669 -0.661 -0.638 -0.592 -0.557 -0.517 -0.478 -0.478 -0.503 -0.528 -0.568 -0.668 -0.77 -0.805 -0.805 -0.8 -0.83 -0.816 -0.811 -0.803 -0.81 -0.818 -0.808 -0.778 -0.769 -0.744 -0.723 -0.714 -0.666 -0.625 -0.596 -0.541 -0.476 -0.389 -0.325 -0.283 -0.254 -0.231 -0.214 -0.209 -0.189 -0.271 -0.284 -0.349 -0.429 -0.474 -0.521 -0.574 -0.621 -0.694 -0.599 -0.326 -0.066 0.194 0.519 0.716 0.756 0.759 0.764 0.749 0.756 0.739 0.716 0.751 0.764 0.771 0.816 0.789 0.811 0.846 0.849 0.881 0.86 0.861 0.829 0.811 0.775 0.783 0.754 0.741 0.763 0.75 0.737 0.74 0.749 0.755 0.75 0.799 0.816 0.832 0.833 0.851 0.911 0.901 0.925 0.905 0.893 0.909 0.954 0.974 0.997 1.04 1.044 1.066 1.111 1.125 1.137 1.14 1.131 1.138 1.117 1.13 1.126 1.143 1.136 1.142 1.147 1.188 1.194 1.205 1.244 1.286 1.293 1.306 1.316 1.349 1.359 1.376 1.369 1.394 1.376 1.324 1.211 1.209 1.199 1.226 1.249 1.286 1.329 1.321 1.354 1.351 1.344 1.369 1.301 1.314 1.366 1.361 1.369 1.351 1.346 1.344 1.339 1.354 1.316 1.309 1.279 1.314 1.279 1.286 1.274 1.286 1.291 1.246 1.256 1.271 1.259 1.251 1.246 1.264 1.291 1.261 1.199 1.252 1.258 1.264 1.201 1.198 1.19 1.142 1.132 1.131 1.116 1.142 1.164 1.169 1.144 1.126 1.119 1.086 1.066 1.051 1.094 1.109 1.131 1.121 1.124 1.101 1.079 1.044 1.064 1.086 1.121 1.116 1.131 1.101 1.044 1.036 0.964 0.914 0.879 0.851 0.856 0.831 0.831 0.809 0.799 0.796 0.779 0.761 0.761 0.746 0.694 0.679 0.669 0.644 0.669 0.641 0.649 0.639 0.596 0.629 0.614 0.624 0.614 0.626 0.624 0.612 0.607 0.619 0.644 0.659 0.639 0.589 0.567 0.502 0.462 0.414 0.382 0.312 0.274 0.302 0.319 0.242 0.242 0.179 0.112 0.045 -0.025 -0.112 -0.201 -0.284 -0.425 -0.526 -0.59 -0.61 -0.542 -0.493 -0.458 -0.338 -0.238 -0.121 -0.04 0.004 0.03 -0.032 -0.064 -0.147 -0.153 -0.19 -0.308 -0.369 -0.467 -0.609 -0.696 -0.839 -0.857 -0.867 -0.886 -0.931 -0.957 -0.972 -1.148 -1.168 -1.166 -1.203 -1.135 -1.14 -1.188 -1.183 -1.168 -1.173 -1.186 -1.168 -1.146 -1.13 -1.146 -1.153 -1.171 -1.104 -1.043 -1.018 -0.985 -0.951 -0.903 -0.887 -0.825 -0.716 -0.678 -0.608 -0.566 -0.496 -0.401 -0.238 -0.096 0.092 0.284 0.469 0.617 0.739 0.872 1.017 1.169 1.334 1.502 1.649 1.814 1.987 2.189 2.377 2.567 2.767 2.982 3.194 3.362 3.554 3.734 3.924 4.122 4.334 5.904 7.917 8.092 8.664 9.097 9.154 9.227 9.342 9.427 9.524 9.629 9.782 9.894 9.964 10.067 10.142 10.199 10.307 10.397 10.489 10.584 10.654 10.762 10.844 10.909 10.957 11.029 11.092 11.167 11.214 11.282 11.354 11.402 11.469 11.539 11.584 11.664 11.734 11.799 11.919 11.964 12.002 12.064 12.137 12.184 12.264 12.267 12.342 12.409 12.462 12.507 12.532 12.549 12.577 12.627 12.599 13.644 13.557 12.297 12.002 12.284 13.927 14.952 14.007 12.962 13.042 13.124 13.187 13.262 13.312 13.362 13.439 13.452 13.497 13.579 13.679 13.704 13.742 13.782 13.864 13.927 13.937 13.989 14.024 14.102 14.139 14.154 14.247 14.234 14.269 14.299 14.297 14.309 14.359 14.357 14.359 14.377 14.384 14.439 14.424 14.392 14.382 14.409 14.384 14.357 14.334 14.317 14.297 14.264 14.234 14.202 14.174 14.114 14.044 14.009 13.972
-0.682 -0.655 -0.643 -0.634 -0.59 -0.529 -0.479 -0.497 -0.455 -0.508 -0.543 -0.575 -0.674 -0.73 -0.798 -0.803 -0.818 -0.8 -0.808 -0.785 -0.78 -0.785 -0.801 -0.804 -0.76 -0.758 -0.729 -0.712 -0.697 -0.671 -0.62 -0.562 -0.497 -0.451 -0.362 -0.313 -0.273 -0.239 -0.221 -0.189 -0.181 -0.201 -0.244 -0.296 -0.384 -0.451 -0.491 -0.534 -0.594 -0.646 -0.689 -0.579 -0.294 -0.024 0.296 0.564 0.674 0.714 0.726 0.729 0.719 0.729 0.709 0.724 0.706 0.741 0.756 0.764 0.809 0.831 0.851 0.819 0.864 0.878 0.844 0.807 0.772 0.767 0.794 0.75 0.745 0.733 0.729 0.729 0.734 0.747 0.748 0.785 0.777 0.817 0.817 0.904 0.918 0.957 0.956 0.965 0.963 0.939 0.931 0.952 0.972 0.969 1.027 1.023 1.053 1.086 1.103 1.085 1.113 1.095 1.114 1.121 1.133 1.12 1.118 1.148 1.129 1.146 1.136 1.184 1.175 1.233 1.26 1.285 1.311 1.329 1.319 1.331 1.344 1.361 1.399 1.391 1.399 1.289 1.146 1.176 1.164 1.236 1.269 1.284 1.299 1.319 1.339 1.379 1.379 1.381 1.354 1.334 1.351 1.339 1.354 1.356 1.319 1.331 1.319 1.294 1.316 1.306 1.281 1.291 1.254 1.256 1.286 1.299 1.276 1.236 1.229 1.234 1.234 1.226 1.249 1.256 1.249 1.227 1.212 1.206 1.169 1.153 1.126 1.136 1.136 1.087 1.086 1.072 1.096 1.118 1.151 1.129 1.104 1.084 1.091 1.066 1.021 1.009 1.074 1.104 1.146 1.166 1.171 1.134 1.096 1.094 1.081 1.101 1.086 1.069 1.079 1.016 1.016 0.946 0.866 0.804 0.744 0.791 0.801 0.811 0.744 0.794 0.779 0.719 0.699 0.691 0.749 0.736 0.711 0.656 0.621 0.594 0.576 0.566 0.541 0.541 0.584 0.589 0.599 0.589 0.599 0.586 0.584 0.577 0.552 0.592 0.599 0.589 0.554 0.524 0.474 0.444 0.397 0.329 0.289 0.237 0.242 0.257 0.209 0.204 0.167 0.087 0.034 -0.047 -0.113 -0.199 -0.296 -0.424 -0.482 -0.543 -0.536 -0.528 -0.481 -0.417 -0.282 -0.169 -0.065 0.057 0.102 0.125 0.095 -0.006 -0.093 -0.181 -0.245 -0.302 -0.42 -0.538 -0.583 -0.696 -0.803 -0.86 -0.875 -0.887 -0.952 -0.971 -0.971 -0.997 -1.171 -1.171 -1.168 -1.103 -1.15 -1.158 -1.198 -1.226 -1.163 -1.166 -1.156 -1.128 -1.138 -1.171 -1.151 -1.196 -1.151 -1.103 -1.051 -1.018 -0.971 -0.898 -0.848 -0.798 -0.761 -0.706 -0.643 -0.546 -0.508 -0.418 -0.306 -0.178 0.094 0.294 0.437 0.592 0.719 0.822 1.009 1.167 1.307 1.467 1.619 1.782 1.972 2.167 2.322 2.532 2.769 2.969 3.172 3.352 3.509 3.719 3.897 4.147 4.299 4.554 5.474 7.164 8.672 9.662 9.352 9.242 9.339 9.434 9.549 9.649 9.787 9.877 9.957 10.099 10.159 10.234 10.329 10.407 10.467 10.577 10.687 10.782 10.884 10.954 10.999 11.067 11.139 11.187 11.232 11.287 11.347 11.429 11.482 11.527 11.622 11.694 11.752 11.787 11.912 11.972 12.032 12.099 12.174 12.234 12.254 12.334 12.382 12.414 12.499 12.544 12.562 12.604 12.597 12.672 12.719 12.827 13.939 13.737 12.354 12.072 12.504 14.204 14.849 13.294 13.029 13.132 13.217 13.254 13.354 13.412 13.452 13.542 13.569 13.582 13.684 13.744 13.794 13.839 13.889 13.927 13.979 14.029 14.034 14.089 14.174 14.194 14.239 14.297 14.304 14.334 14.352 14.362 14.364 14.392 14.372 14.409 14.379 14.369 14.422 14.419 14.387 14.409 14.402 14.362 14.357 14.347 14.312 14.272 14.257 14.207 14.184 14.159 14.132 14.037 14.014
-0.685 -0.682 -0.657 -0.629 -0.582 -0.558 -0.488 -0.48 -0.455 -0.485 -0.535 -0.57 -0.67 -0.78 -0.823 -0.791 -0.805 -0.818 -0.819 -0.81 -0.787 -0.813 -0.807 -0.802 -0.771 -0.756 -0.741 -0.713 -0.721 -0.669 -0.608 -0.565 -0.51 -0.431 -0.388 -0.322 -0.265 -0.199 -0.191 -0.209 -0.199 -0.201 -0.239 -0.326 -0.371 -0.436 -0.499 -0.566 -0.576 -0.636 -0.646 -0.536 -0.241 0.074 0.351 0.571 0.631 0.631 0.659 0.701 0.694 0.701 0.706 0.694 0.739 0.706 0.739 0.751 0.746 0.776 0.809 0.801 0.824 0.862 0.843 0.814 0.792 0.784 0.763 0.763 0.769 0.735 0.732 0.72 0.742 0.753 0.764 0.769 0.823 0.902 0.944 0.963 0.954 0.959 0.952 0.968 0.947 0.955 0.931 0.951 0.95 0.997 1.055 1.055 1.058 1.067 1.088 1.061 1.077 1.055 1.111 1.08 1.101 1.098 1.119 1.14 1.15 1.129 1.137 1.159 1.191 1.212 1.214 1.223 1.301 1.276 1.316 1.349 1.331 1.356 1.366 1.384 1.411 1.389 1.226 1.209 1.199 1.229 1.239 1.271 1.254 1.256 1.309 1.316 1.339 1.321 1.356 1.304 1.296 1.339 1.306 1.316 1.321 1.296 1.314 1.319 1.294 1.271 1.276 1.251 1.256 1.261 1.284 1.281 1.241 1.236 1.199 1.221 1.224 1.219 1.179 1.182 1.187 1.124 1.111 1.093 1.073 1.082 1.11 1.099 1.104 1.089 1.091 1.071 1.059 1.062 1.098 1.107 1.094 1.094 1.099 1.089 0.999 0.954 1.016 1.099 1.146 1.139 1.141 1.126 1.126 1.091 1.054 1.031 0.986 0.986 0.964 0.964 0.896 0.876 0.784 0.736 0.671 0.726 0.801 0.794 0.781 0.766 0.769 0.716 0.726 0.769 0.774 0.741 0.674 0.629 0.574 0.489 0.504 0.549 0.561 0.544 0.584 0.619 0.606 0.601 0.584 0.569 0.557 0.574 0.547 0.557 0.592 0.587 0.559 0.517 0.427 0.409 0.374 0.332 0.239 0.209 0.197 0.209 0.202 0.162 0.127 0.087 -0.021 -0.119 -0.148 -0.216 -0.3 -0.393 -0.47 -0.499 -0.517 -0.503 -0.47 -0.407 -0.306 -0.206 -0.071 0.121 0.24 0.24 0.137 0.04 -0.056 -0.212 -0.32 -0.393 -0.453 -0.547 -0.622 -0.721 -0.812 -0.863 -0.901 -0.857 -0.948 -0.962 -0.981 -1.037 -1.041 -1.063 -1.098 -1.123 -1.183 -1.181 -1.173 -1.188 -1.161 -1.166 -1.203 -1.151 -1.168 -1.168 -1.176 -1.186 -1.153 -1.118 -1.016 -0.998 -0.951 -0.913 -0.853 -0.813 -0.778 -0.766 -0.663 -0.621 -0.556 -0.476 -0.336 -0.171 0.044 0.262 0.422 0.559 0.704 0.812 1.002 1.157 1.317 1.469 1.644 1.762 1.952 2.114 2.314 2.552 2.737 2.969 3.142 3.327 3.482 3.707 3.912 4.114 4.334 4.552 4.822 6.229 7.499 9.712 9.397 9.269 9.317 9.427 9.537 9.652 9.812 9.867 9.997 10.084 10.169 10.249 10.352 10.419 10.502 10.622 10.687 10.779 10.864 10.944 11.037 11.089 11.144 11.184 11.239 11.342 11.412 11.469 11.502 11.574 11.669 11.709 11.774 11.872 11.929 11.982 12.042 12.114 12.197 12.264 12.319 12.334 12.379 12.447 12.514 12.577 12.622 12.629 12.687 12.709 12.794 12.829 13.264 14.219 13.574 12.349 12.197 12.667 14.374 14.359 13.204 13.132 13.204 13.279 13.377 13.442 13.462 13.524 13.617 13.629 13.669 13.754 13.794 13.859 13.899 13.964 13.999 14.042 14.077 14.114 14.172 14.229 14.279 14.294 14.314 14.354 14.364 14.369 14.372 14.377 14.392 14.409 14.407 14.412 14.409 14.422 14.404 14.419 14.424 14.409 14.364 14.352 14.342 14.317 14.284 14.239 14.194 14.157 14.162 14.087 14.047
-0.683 -0.679 -0.654 -0.632 -0.584 -0.534 -0.475 -0.44 -0.455 -0.48 -0.53 -0.578 -0.615 -0.73 -0.818 -0.815 -0.798 -0.793 -0.809 -0.795 -0.798 -0.826 -0.8 -0.778 -0.769 -0.75 -0.726 -0.743 -0.704 -0.664 -0.616 -0.56 -0.51 -0.445 -0.379 -0.303 -0.273 -0.246 -0.196 -0.226 -0.199 -0.251 -0.261 -0.339 -0.381 -0.444 -0.494 -0.549 -0.561 -0.649 -0.631 -0.476 -0.151 0.134 0.401 0.579 0.624 0.609 0.621 0.641 0.644 0.649 0.656 0.641 0.666 0.711 0.724 0.704 0.726 0.751 0.774 0.806 0.786 0.829 0.821 0.814 0.827 0.792 0.781 0.755 0.743 0.722 0.715 0.734 0.744 0.746 0.766 0.855 0.924 0.966 0.979 0.989 0.95 0.91 0.917 0.916 0.949 0.917 0.93 0.923 0.974 0.989 1.051 1.074 1.101 1.095 1.081 1.057 1.069 1.045 1.059 1.082 1.071 1.105 1.11 1.112 1.114 1.144 1.134 1.135 1.177 1.196 1.199 1.204 1.226 1.224 1.291 1.321 1.334 1.316 1.376 1.371 1.414 1.396 1.359 1.194 1.196 1.211 1.179 1.204 1.231 1.236 1.246 1.244 1.286 1.309 1.324 1.336 1.351 1.339 1.339 1.326 1.329 1.299 1.294 1.281 1.251 1.239 1.231 1.234 1.249 1.231 1.231 1.219 1.206 1.214 1.221 1.246 1.209 1.232 1.196 1.166 1.171 1.109 1.063 1.099 1.094 1.11 1.104 1.069 1.075 1.071 1.064 1.087 1.09 1.057 1.049 1.121 1.078 1.063 1.086 1.091 1.094 1.024 1.006 1.086 1.099 1.069 1.061 1.074 1.096 1.071 1.056 1.019 0.946 0.901 0.896 0.836 0.776 0.776 0.719 0.781 0.729 0.734 0.799 0.841 0.824 0.769 0.784 0.741 0.771 0.744 0.701 0.651 0.574 0.589 0.539 0.539 0.591 0.626 0.621 0.646 0.609 0.599 0.621 0.606 0.526 0.534 0.524 0.509 0.492 0.467 0.502 0.544 0.514 0.499 0.464 0.422 0.377 0.309 0.272 0.237 0.194 0.174 0.152 0.069 0.002 -0.061 -0.108 -0.193 -0.218 -0.234 -0.309 -0.377 -0.457 -0.449 -0.507 -0.506 -0.453 -0.412 -0.351 -0.194 -0.074 0.071 0.225 0.24 0.14 0.029 -0.08 -0.206 -0.402 -0.482 -0.529 -0.611 -0.676 -0.754 -0.813 -0.869 -0.916 -0.92 -0.941 -0.981 -0.992 -1.049 -1.057 -1.093 -1.118 -1.16 -1.177 -1.228 -1.211 -1.191 -1.193 -1.148 -1.186 -1.171 -1.168 -1.178 -1.216 -1.193 -1.161 -1.111 -1.053 -0.996 -0.958 -0.926 -0.841 -0.816 -0.793 -0.783 -0.683 -0.631 -0.601 -0.496 -0.356 -0.218 -0.038 0.189 0.357 0.534 0.669 0.762 0.962 1.157 1.269 1.487 1.639 1.774 1.904 2.079 2.289 2.487 2.699 2.939 3.104 3.309 3.484 3.662 3.902 4.127 4.312 4.539 4.789 5.274 6.002 8.772 9.279 9.287 9.322 9.454 9.544 9.657 9.787 9.874 10.009 10.084 10.184 10.277 10.342 10.439 10.534 10.607 10.689 10.779 10.887 10.974 11.074 11.112 11.144 11.189 11.269 11.364 11.407 11.469 11.534 11.599 11.657 11.724 11.822 11.914 11.944 11.992 12.072 12.129 12.212 12.262 12.292 12.374 12.432 12.487 12.489 12.549 12.649 12.679 12.749 12.762 12.777 12.874 12.899 13.084 14.204 13.939 12.537 12.302 12.899 14.722 14.257 13.244 13.224 13.269 13.379 13.429 13.497 13.557 13.614 13.667 13.729 13.772 13.809 13.862 13.897 13.982 14.037 14.067 14.084 14.144 14.169 14.254 14.294 14.319 14.347 14.389 14.372 14.384 14.412 14.407 14.422 14.422 14.422 14.437 14.447 14.439 14.449 14.454 14.437 14.424 14.392 14.384 14.352 14.337 14.299 14.247 14.229 14.172 14.162 14.144 14.112
