ncols 407
nrows 31
xllcorner    251070
yllcorner    136632
cellsize     2
NODATA_value -9999
80.902 81.299 81.714 82.092 82.459 82.817 83.152 83.504 83.869 84.194 84.509 84.837 85.147 85.479 85.817 86.189 86.584 87.002 87.369 87.749 88.119 88.532 88.979 89.407 89.852 90.282 90.719 91.177 91.712 92.207 92.734 93.269 93.804 94.372 94.919 95.509 96.104 96.734 97.339 97.992 98.667 99.324 100.019 100.759 101.544 102.139 102.874 104.497 105.054 105.087 105.357 105.654 105.942 106.232 106.469 106.787 107.054 107.307 107.552 107.829 108.052 108.254 108.454 108.647 108.852 109.047 109.189 109.334 109.482 109.584 109.714 109.849 109.954 110.069 110.179 110.269 110.394 110.514 110.612 110.737 110.834 110.967 111.064 111.184 111.259 111.339 111.487 111.579 111.674 111.742 111.862 111.907 111.989 112.072 112.129 112.204 112.244 112.314 112.362 112.409 112.402 112.434 112.442 112.424 112.397 112.422 112.347 112.309 112.274 112.254 112.234 112.227 112.234 112.182 112.139 112.082 112.089 112.037 111.989 111.967 111.972 111.944 111.929 111.862 111.869 111.822 111.732 111.629 111.577 112.039 112.369 111.277 111.172 111.114 111.084 111.027 110.967 110.914 110.877 110.812 110.757 110.697 110.599 110.502 110.409 110.339 110.264 110.194 110.094 110.014 109.909 109.807 109.709 109.597 109.499 109.427 109.352 109.249 109.137 109.027 108.927 108.837 108.717 108.627 108.519 108.407 108.252 108.117 107.987 107.859 107.729 107.604 107.492 107.332 107.219 107.087 106.917 106.767 106.634 106.479 106.312 106.117 105.949 105.809 105.674 105.517 105.352 105.209 105.067 104.914 104.794 104.669 104.527 104.372 104.227 104.057 103.909 103.729 103.557 103.379 103.194 103.042 102.897 102.754 102.612 102.482 102.322 102.179 102.029 101.879 101.729 101.577 101.452 101.359 101.224 101.049 100.852 100.612 100.384 100.182 99.984 99.802 99.639 99.504 99.409 99.319 99.199 99.087 99.009 98.864 98.697 98.492 98.267 98.049 97.834 97.634 97.402 97.182 96.937 96.719 96.459 96.224 95.994 95.782 95.574 95.379 95.167 94.969 94.777 94.542 94.307 93.989 93.604 93.237 92.874 92.532 92.157 91.759 91.437 91.099 90.752 90.434 90.189 89.927 89.639 89.389 89.082 88.797 88.512 88.197 87.902 87.642 87.334 87.057 86.672 86.424 86.214 85.884 85.552 86.124 83.972 83.474 83.384 83.294 84.077 89.309 89.962 88.292 84.194 83.972 83.924 83.902 83.827 83.864 84.034 83.637 83.607 83.617 83.999 84.884 84.834 85.074 84.652 84.099 83.887 84.072 84.514 84.637 84.679 84.769 84.814 84.899 84.924 84.944 84.979 85.061 85.854 85.739 85.841 86.071 86.184 86.301 86.534 86.834 87.144 87.411 87.669 87.896 88.154 88.379 88.614 88.811 88.974 89.216 89.596 90.774 90.164 90.471 90.769 91.049 91.304 91.541 91.756 92.054 92.329 92.609 92.851 93.149 93.399 93.649 93.906 94.114 94.366 94.601 94.816 95.039 95.284 95.481 95.704 95.914 96.096 96.306 96.494 96.679 96.849 97.021 97.189 97.341 97.526 97.679 97.826 98.014 98.189 98.329 98.474 98.639 98.799 98.949 99.086 99.241 99.334 99.509 99.631 99.751 99.876 100.011 100.111 100.219 100.346 100.441 100.564 100.694 100.819 100.929 101.046 101.161 101.264 101.381 101.486 101.591 101.676 101.776 101.876 101.961 102.069 102.151 102.244
81.112 81.524 81.934 82.327 82.709 83.057 83.392 83.769 84.112 84.437 84.739 85.109 85.442 85.827 86.184 86.514 86.924 87.337 87.744 88.109 88.482 88.919 89.392 89.807 90.252 90.712 91.157 91.632 92.139 92.659 93.222 93.769 94.292 94.882 95.517 96.124 96.737 97.357 97.982 98.617 99.314 100.032 100.737 101.472 102.137 102.777 104.114 105.324 105.334 105.409 105.709 105.989 106.264 106.514 106.752 107.069 107.304 107.544 107.814 108.082 108.302 108.494 108.692 108.879 109.087 109.262 109.414 109.582 109.704 109.842 109.952 110.074 110.187 110.294 110.409 110.532 110.639 110.752 110.857 110.967 111.082 111.212 111.304 111.412 111.469 111.589 111.699 111.784 111.884 111.944 112.032 112.089 112.207 112.239 112.312 112.344 112.437 112.477 112.514 112.549 112.564 112.559 112.572 112.542 112.522 112.507 112.457 112.429 112.404 112.359 112.347 112.329 112.317 112.267 112.209 112.184 112.144 112.097 112.079 112.034 112.039 112.029 111.994 111.927 111.897 111.847 111.774 111.662 111.619 112.032 112.109 111.262 111.197 111.137 111.094 111.057 110.992 110.934 110.884 110.814 110.772 110.709 110.629 110.514 110.452 110.352 110.297 110.217 110.114 110.029 109.944 109.862 109.737 109.622 109.547 109.457 109.372 109.274 109.167 109.072 108.962 108.864 108.762 108.654 108.529 108.409 108.282 108.152 108.017 107.869 107.744 107.624 107.499 107.372 107.244 107.099 106.944 106.767 106.614 106.467 106.277 106.094 105.952 105.807 105.654 105.507 105.374 105.229 105.082 104.914 104.824 104.702 104.559 104.437 104.292 104.142 103.979 103.802 103.649 103.469 103.299 103.134 102.974 102.844 102.709 102.577 102.414 102.287 102.137 101.984 101.822 101.689 101.564 101.452 101.312 101.167 100.962 100.714 100.479 100.287 100.062 99.897 99.724 99.604 99.497 99.414 99.327 99.239 99.147 99.037 98.879 98.702 98.484 98.254 98.017 97.824 97.612 97.359 97.077 96.837 96.574 96.347 96.107 95.897 95.669 95.467 95.237 95.024 94.814 94.589 94.327 94.034 93.622 93.202 92.837 92.477 92.099 91.724 91.409 91.067 90.747 90.434 90.177 89.942 89.637 89.354 89.079 88.799 88.497 88.167 87.857 87.539 87.277 86.982 86.669 86.404 86.127 85.957 85.622 85.842 84.167 83.287 83.249 83.669 84.864 87.719 87.989 87.042 84.522 83.834 83.772 83.734 83.714 83.657 83.597 83.549 83.487 83.472 83.477 83.467 83.452 83.434 83.669 83.552 83.542 83.537 83.982 83.989 84.224 84.369 84.334 84.177 84.432 84.824 84.644 84.801 85.484 85.364 85.941 85.826 85.659 85.796 86.211 86.454 86.734 87.001 87.319 87.594 87.806 88.006 88.224 88.421 88.624 88.834 89.211 90.401 89.926 90.126 90.459 90.756 91.021 91.241 91.471 91.779 92.074 92.349 92.624 92.871 93.124 93.406 93.676 93.889 94.164 94.386 94.626 94.851 95.079 95.281 95.509 95.744 95.949 96.144 96.339 96.519 96.694 96.841 97.041 97.171 97.364 97.536 97.709 97.856 98.029 98.189 98.339 98.486 98.659 98.804 98.944 99.089 99.236 99.371 99.506 99.631 99.749 99.856 100.009 100.116 100.231 100.361 100.469 100.606 100.729 100.824 100.944 101.064 101.179 101.281 101.371 101.489 101.589 101.684 101.789 101.881 101.966 102.074 102.154
81.297 81.712 82.159 82.557 82.924 83.277 83.649 84.022 84.382 84.712 85.032 85.392 85.762 86.114 86.514 86.854 87.247 87.692 88.097 88.504 88.924 89.397 89.817 90.244 90.722 91.197 91.667 92.154 92.639 93.182 93.764 94.319 94.899 95.469 96.109 96.759 97.372 97.972 98.634 99.287 99.984 100.709 101.459 102.122 102.767 103.417 104.979 105.932 105.579 105.712 106.002 106.267 106.532 106.754 107.034 107.319 107.552 107.784 108.042 108.299 108.492 108.722 108.947 109.112 109.289 109.489 109.624 109.787 109.942 110.067 110.184 110.284 110.399 110.539 110.619 110.767 110.877 110.992 111.097 111.182 111.324 111.412 111.529 111.619 111.692 111.812 111.909 111.997 112.074 112.157 112.229 112.277 112.369 112.432 112.464 112.509 112.602 112.639 112.674 112.707 112.722 112.714 112.712 112.699 112.672 112.632 112.582 112.527 112.484 112.462 112.442 112.444 112.412 112.329 112.304 112.267 112.224 112.177 112.139 112.104 112.107 112.074 112.017 111.967 111.967 111.902 111.809 111.707 111.682 112.099 111.834 111.269 111.219 111.179 111.112 111.062 111.014 110.969 110.907 110.854 110.794 110.732 110.652 110.557 110.459 110.399 110.297 110.247 110.144 110.062 109.964 109.879 109.762 109.664 109.594 109.497 109.409 109.317 109.189 109.099 108.994 108.897 108.814 108.664 108.562 108.442 108.319 108.187 108.057 107.942 107.802 107.652 107.534 107.427 107.299 107.134 106.969 106.802 106.649 106.474 106.332 106.182 106.009 105.869 105.732 105.562 105.452 105.319 105.162 105.029 104.909 104.787 104.659 104.539 104.394 104.257 104.104 103.934 103.762 103.592 103.417 103.247 103.087 102.952 102.804 102.674 102.539 102.424 102.264 102.122 101.957 101.819 101.707 101.589 101.449 101.312 101.122 100.889 100.667 100.427 100.224 100.032 99.859 99.732 99.652 99.582 99.504 99.432 99.357 99.237 99.099 98.924 98.694 98.469 98.264 98.062 97.822 97.522 97.272 97.027 96.799 96.514 96.277 96.054 95.812 95.567 95.304 95.072 94.882 94.627 94.387 94.042 93.624 93.162 92.784 92.437 92.079 91.709 91.389 91.052 90.749 90.422 90.127 89.874 89.599 89.327 89.049 88.767 88.492 88.147 87.782 87.487 87.169 86.872 86.569 86.304 86.099 85.694 85.427 85.307 85.482 83.234 83.009 83.199 85.392 85.927 85.527 84.114 83.779 83.619 83.652 83.674 83.669 83.599 83.559 83.487 83.424 83.409 83.407 83.374 83.344 83.332 83.454 83.444 83.444 83.437 83.479 83.527 83.602 83.654 83.609 83.597 83.647 83.704 83.752 83.796 83.851 83.946 85.251 86.164 85.646 85.549 84.884 86.239 86.516 86.734 86.979 87.164 87.389 87.589 87.754 87.959 88.161 88.379 88.831 90.181 89.549 89.811 90.154 90.441 90.729 90.981 91.221 91.504 91.801 92.084 92.369 92.664 92.921 93.191 93.446 93.724 93.959 94.196 94.424 94.671 94.904 95.121 95.346 95.561 95.786 95.986 96.161 96.354 96.539 96.699 96.874 97.056 97.231 97.376 97.546 97.736 97.889 98.064 98.231 98.386 98.531 98.689 98.841 98.974 99.134 99.266 99.396 99.516 99.654 99.789 99.876 100.024 100.131 100.249 100.384 100.511 100.614 100.736 100.839 100.961 101.074 101.194 101.309 101.386 101.509 101.576 101.674 101.774 101.891 101.959 102.066
81.502 81.927 82.359 82.764 83.127 83.499 83.907 84.252 84.634 84.964 85.302 85.682 86.054 86.444 86.782 87.207 87.599 88.032 88.454 88.899 89.409 89.867 90.322 90.782 91.227 91.702 92.182 92.717 93.244 93.774 94.349 94.944 95.504 96.139 96.772 97.442 98.024 98.617 99.292 99.947 100.664 101.407 102.099 102.729 103.387 104.332 106.137 106.177 105.704 106.002 106.254 106.524 106.762 107.004 107.294 107.542 107.754 107.994 108.269 108.489 108.712 108.922 109.137 109.317 109.477 109.672 109.807 109.979 110.119 110.282 110.379 110.502 110.629 110.747 110.849 110.999 111.092 111.197 111.314 111.424 111.534 111.647 111.737 111.822 111.914 112.012 112.112 112.194 112.269 112.359 112.422 112.482 112.557 112.612 112.639 112.714 112.777 112.794 112.844 112.867 112.869 112.877 112.874 112.837 112.804 112.794 112.709 112.657 112.632 112.584 112.547 112.519 112.494 112.444 112.384 112.337 112.299 112.267 112.217 112.179 112.142 112.147 112.059 112.004 111.999 111.939 111.842 111.757 111.704 112.242 111.832 111.322 111.252 111.212 111.139 111.107 111.072 111.002 110.944 110.874 110.844 110.764 110.664 110.572 110.487 110.407 110.344 110.269 110.184 110.104 110.024 109.912 109.822 109.717 109.642 109.562 109.469 109.372 109.259 109.152 109.054 108.952 108.844 108.727 108.622 108.499 108.362 108.244 108.122 107.987 107.857 107.722 107.592 107.477 107.352 107.199 107.044 106.897 106.732 106.587 106.432 106.267 106.107 106.004 105.847 105.674 105.577 105.469 105.324 105.197 105.044 104.932 104.824 104.667 104.542 104.417 104.274 104.109 103.932 103.744 103.579 103.437 103.279 103.134 103.009 102.854 102.729 102.574 102.437 102.299 102.137 101.994 101.877 101.772 101.644 101.512 101.317 101.094 100.862 100.627 100.389 100.207 100.024 99.904 99.829 99.774 99.707 99.639 99.534 99.434 99.307 99.134 98.939 98.704 98.499 98.269 98.024 97.742 97.507 97.279 97.027 96.747 96.464 96.217 95.969 95.692 95.434 95.149 94.957 94.747 94.437 94.044 93.619 93.169 92.797 92.439 92.082 91.707 91.379 91.047 90.712 90.404 90.107 89.842 89.579 89.304 89.012 88.744 88.447 88.109 87.742 87.417 87.047 86.732 86.444 86.179 85.889 85.512 85.197 85.074 84.792 83.674 82.902 82.904 83.127 83.084 83.252 83.324 83.387 83.459 83.634 83.762 83.684 83.549 83.472 83.349 83.332 83.337 83.519 85.212 86.849 86.322 88.454 87.512 83.682 83.374 83.404 83.462 83.484 83.479 83.499 83.547 83.592 83.637 83.694 83.744 83.809 84.366 85.859 86.716 85.489 86.321 85.141 86.099 86.371 86.574 86.704 86.819 86.939 87.059 87.219 87.401 87.629 87.861 88.456 89.909 89.279 89.499 89.834 90.161 90.469 90.701 90.946 91.234 91.566 91.859 92.141 92.424 92.691 92.984 93.254 93.514 93.751 93.999 94.241 94.484 94.746 94.969 95.206 95.401 95.636 95.846 96.039 96.236 96.416 96.604 96.771 96.931 97.114 97.256 97.434 97.621 97.781 97.924 98.089 98.249 98.414 98.561 98.706 98.864 98.999 99.154 99.281 99.431 99.549 99.681 99.799 99.909 100.046 100.159 100.289 100.414 100.536 100.651 100.749 100.881 100.989 101.094 101.216 101.309 101.406 101.534 101.619 101.699 101.806 101.894 102.001
81.707 82.172 82.582 82.949 83.319 83.704 84.099 84.489 84.852 85.204 85.562 85.939 86.334 86.697 87.092 87.514 87.952 88.407 88.867 89.344 89.837 90.359 90.829 91.352 91.814 92.264 92.757 93.337 93.877 94.432 95.014 95.604 96.209 96.847 97.512 98.117 98.717 99.292 99.954 100.614 101.329 102.084 102.697 103.312 104.202 106.004 106.404 105.839 105.969 106.249 106.497 106.749 106.957 107.244 107.517 107.717 107.937 108.182 108.422 108.689 108.904 109.112 109.319 109.514 109.697 109.847 109.999 110.172 110.337 110.469 110.587 110.732 110.842 110.964 111.069 111.192 111.297 111.422 111.529 111.642 111.757 111.849 111.947 112.037 112.132 112.212 112.307 112.392 112.477 112.532 112.607 112.674 112.737 112.769 112.822 112.887 112.934 112.974 113.027 113.032 113.052 113.049 113.029 112.987 112.954 112.924 112.862 112.789 112.732 112.709 112.662 112.664 112.619 112.537 112.464 112.424 112.379 112.342 112.272 112.239 112.229 112.199 112.134 112.077 112.059 111.997 111.879 111.804 111.774 112.284 112.019 111.344 111.309 111.252 111.192 111.152 111.117 111.062 110.999 110.934 110.879 110.799 110.714 110.612 110.532 110.462 110.387 110.317 110.252 110.169 110.077 109.994 109.877 109.769 109.692 109.612 109.532 109.434 109.349 109.239 109.137 109.019 108.919 108.807 108.697 108.579 108.462 108.324 108.199 108.067 107.942 107.804 107.684 107.547 107.409 107.294 107.144 106.984 106.829 106.702 106.577 106.409 106.267 106.157 106.007 105.877 105.759 105.614 105.509 105.374 105.262 105.122 105.027 104.884 104.759 104.629 104.487 104.312 104.152 103.977 103.812 103.637 103.487 103.334 103.212 103.057 102.929 102.772 102.637 102.482 102.299 102.157 102.024 101.944 101.824 101.684 101.507 101.302 101.049 100.799 100.582 100.389 100.212 100.094 100.017 99.939 99.887 99.824 99.752 99.677 99.544 99.352 99.162 98.957 98.729 98.517 98.252 98.019 97.787 97.559 97.302 96.994 96.722 96.452 96.159 95.889 95.617 95.354 95.087 94.872 94.517 94.074 93.659 93.244 92.854 92.507 92.134 91.737 91.394 91.054 90.717 90.424 90.117 89.842 89.594 89.319 89.007 88.709 88.414 88.089 87.699 87.332 86.967 86.614 86.289 86.044 85.777 85.414 85.199 84.897 84.964 83.392 82.712 82.819 82.787 82.889 83.072 83.617 83.472 83.362 83.639 83.414 83.387 83.357 83.342 83.224 83.377 86.097 88.329 89.002 89.419 89.819 90.227 89.809 83.559 83.322 83.344 83.387 83.414 83.444 83.474 83.519 83.559 83.607 83.649 83.721 83.774 84.419 86.544 86.709 85.949 86.166 84.781 85.944 86.181 86.354 86.466 86.566 86.651 86.721 86.796 86.934 87.156 87.381 88.386 89.464 88.901 89.214 89.559 89.881 90.174 90.456 90.694 91.006 91.314 91.624 91.911 92.201 92.474 92.761 93.059 93.304 93.564 93.806 94.056 94.306 94.551 94.789 95.021 95.249 95.469 95.676 95.879 96.059 96.271 96.434 96.629 96.809 96.974 97.141 97.316 97.484 97.654 97.816 97.974 98.141 98.301 98.459 98.611 98.781 98.936 99.071 99.196 99.319 99.449 99.574 99.686 99.829 99.946 100.064 100.184 100.314 100.441 100.556 100.676 100.791 100.919 101.031 101.121 101.204 101.349 101.441 101.524 101.631 101.726 101.824 101.929
81.934 82.404 82.859 83.259 83.639 83.989 84.329 84.722 85.097 85.459 85.839 86.199 86.604 86.987 87.414 87.832 88.277 88.779 89.272 89.777 90.307 90.852 91.367 91.892 92.389 92.899 93.432 93.999 94.559 95.109 95.714 96.297 96.947 97.552 98.189 98.802 99.407 99.999 100.632 101.354 102.004 102.642 103.217 104.104 105.882 106.367 105.907 105.914 106.212 106.469 106.719 106.942 107.164 107.457 107.682 107.902 108.142 108.369 108.627 108.869 109.084 109.314 109.522 109.679 109.862 110.027 110.197 110.357 110.502 110.639 110.762 110.922 111.034 111.144 111.267 111.384 111.507 111.639 111.737 111.839 111.952 112.067 112.172 112.252 112.329 112.419 112.494 112.592 112.662 112.722 112.807 112.874 112.917 112.954 113.004 113.067 113.112 113.134 113.172 113.182 113.204 113.197 113.164 113.142 113.112 113.062 113.009 112.929 112.889 112.837 112.787 112.757 112.707 112.629 112.579 112.507 112.462 112.414 112.337 112.334 112.294 112.259 112.172 112.107 112.124 112.062 111.934 111.847 111.892 112.489 111.807 111.367 111.339 111.299 111.244 111.192 111.149 111.099 111.049 110.979 110.932 110.849 110.744 110.669 110.567 110.517 110.442 110.402 110.309 110.227 110.144 110.049 109.952 109.839 109.774 109.704 109.617 109.519 109.429 109.322 109.222 109.109 109.012 108.897 108.807 108.674 108.567 108.419 108.289 108.149 108.024 107.907 107.767 107.657 107.532 107.392 107.242 107.117 106.974 106.864 106.737 106.577 106.464 106.349 106.212 106.074 105.939 105.839 105.709 105.579 105.444 105.337 105.232 105.112 104.987 104.832 104.689 104.534 104.357 104.202 104.032 103.854 103.699 103.562 103.417 103.287 103.137 102.994 102.819 102.674 102.492 102.362 102.232 102.134 102.037 101.867 101.707 101.489 101.277 101.027 100.817 100.582 100.397 100.297 100.204 100.157 100.087 100.012 99.982 99.897 99.762 99.607 99.422 99.227 99.034 98.742 98.557 98.349 98.132 97.902 97.622 97.304 97.024 96.742 96.439 96.159 95.859 95.592 95.339 95.022 94.642 94.194 93.754 93.309 92.942 92.597 92.242 91.859 91.489 91.127 90.812 90.477 90.187 89.899 89.617 89.332 89.022 88.717 88.397 88.052 87.657 87.294 86.942 86.564 86.192 85.934 85.689 85.289 84.922 84.734 84.939 83.394 82.614 82.789 82.622 82.677 82.832 83.077 83.182 83.224 83.267 83.332 83.329 83.292 83.254 83.294 83.112 88.762 90.104 90.314 90.454 90.247 89.882 89.464 85.532 83.222 83.272 83.302 83.364 83.387 83.439 83.487 83.524 83.564 83.607 83.664 83.706 84.466 86.674 86.621 85.806 85.671 84.804 85.861 86.059 86.209 86.296 86.384 86.436 86.511 86.626 86.744 86.889 87.059 88.056 88.944 88.574 88.914 89.261 89.619 89.921 90.214 90.436 90.734 91.084 91.374 91.701 91.979 92.264 92.539 92.824 93.091 93.361 93.646 93.896 94.149 94.389 94.646 94.891 95.094 95.329 95.541 95.754 95.954 96.151 96.336 96.506 96.694 96.861 97.021 97.209 97.369 97.531 97.694 97.866 98.036 98.166 98.371 98.516 98.669 98.809 98.976 99.136 99.236 99.386 99.511 99.621 99.744 99.859 99.984 100.134 100.246 100.346 100.481 100.594 100.701 100.814 100.919 101.041 101.139 101.276 101.366 101.479 101.556 101.636 101.761 101.844
82.212 82.677 83.092 83.544 83.964 84.287 84.632 84.987 85.372 85.727 86.097 86.487 86.874 87.287 87.692 88.127 88.582 89.112 89.657 90.249 90.792 91.334 91.859 92.444 92.984 93.542 94.119 94.697 95.277 95.834 96.417 97.059 97.677 98.254 98.892 99.504 100.094 100.747 101.347 102.009 102.659 103.199 103.994 105.479 106.267 106.002 105.867 106.149 106.397 106.672 106.909 107.122 107.377 107.622 107.859 108.084 108.324 108.562 108.814 109.077 109.274 109.492 109.687 109.854 110.014 110.207 110.374 110.517 110.689 110.832 110.969 111.107 111.247 111.337 111.459 111.602 111.734 111.829 111.962 112.044 112.162 112.274 112.374 112.442 112.512 112.627 112.714 112.762 112.852 112.907 112.984 113.047 113.104 113.152 113.179 113.239 113.282 113.307 113.349 113.357 113.354 113.359 113.319 113.292 113.267 113.199 113.134 113.064 113.002 112.954 112.912 112.877 112.787 112.732 112.644 112.602 112.547 112.487 112.424 112.399 112.362 112.304 112.232 112.174 112.177 112.087 111.987 111.902 111.944 112.544 111.754 111.419 111.407 111.357 111.319 111.254 111.217 111.169 111.107 111.047 110.999 110.907 110.819 110.729 110.647 110.597 110.534 110.464 110.374 110.302 110.214 110.132 110.032 109.967 109.897 109.802 109.702 109.632 109.557 109.434 109.327 109.212 109.122 109.012 108.907 108.797 108.687 108.537 108.412 108.294 108.159 108.027 107.919 107.792 107.647 107.502 107.367 107.254 107.124 107.014 106.887 106.752 106.607 106.502 106.382 106.272 106.134 106.019 105.897 105.774 105.654 105.547 105.447 105.312 105.187 105.069 104.927 104.754 104.579 104.429 104.257 104.079 103.922 103.777 103.642 103.489 103.349 103.204 103.042 102.897 102.717 102.557 102.442 102.342 102.254 102.099 101.927 101.707 101.497 101.264 101.039 100.814 100.629 100.512 100.417 100.362 100.312 100.237 100.209 100.127 100.019 99.874 99.732 99.534 99.302 99.092 98.949 98.724 98.522 98.254 97.974 97.669 97.372 97.067 96.787 96.489 96.187 95.877 95.574 95.262 94.777 94.317 93.879 93.462 93.069 92.719 92.389 92.039 91.659 91.429 90.937 90.602 90.294 90.019 89.719 89.424 89.104 88.747 88.437 88.074 87.699 87.272 86.889 86.534 86.242 85.974 85.639 85.177 84.784 84.542 84.714 82.977 82.314 82.377 82.402 82.437 82.609 83.137 83.282 83.197 83.217 83.247 83.252 83.209 83.197 83.512 83.099 88.207 89.994 89.467 88.959 87.247 86.389 85.367 83.294 83.112 83.177 83.249 83.317 83.369 83.389 83.449 83.517 83.514 83.584 83.649 83.684 84.136 85.866 86.374 85.601 85.749 84.769 85.751 85.884 86.004 86.136 86.134 86.174 86.341 86.489 86.616 86.751 87.026 87.899 88.426 88.271 88.644 88.999 89.336 89.669 89.941 90.204 90.526 90.861 91.209 91.499 91.784 92.066 92.349 92.651 92.931 93.186 93.464 93.729 93.969 94.219 94.476 94.719 94.954 95.196 95.409 95.624 95.824 96.016 96.221 96.409 96.566 96.736 96.934 97.101 97.269 97.444 97.619 97.766 97.946 98.109 98.249 98.424 98.581 98.726 98.871 99.009 99.151 99.279 99.404 99.521 99.654 99.766 99.916 100.034 100.154 100.284 100.409 100.539 100.641 100.746 100.861 100.981 101.106 101.209 101.304 101.401 101.496 101.589 101.706 101.789
82.472 82.929 83.352 83.787 84.197 84.584 84.932 85.289 85.634 85.989 86.369 86.769 87.167 87.577 87.964 88.422 88.907 89.457 90.047 90.642 91.217 91.814 92.367 92.977 93.552 94.169 94.752 95.337 95.937 96.519 97.149 97.787 98.374 99.019 99.567 100.207 100.822 101.407 101.984 102.607 103.167 104.899 105.612 106.187 105.759 105.789 106.079 106.359 106.572 106.864 107.077 107.307 107.547 107.797 108.027 108.279 108.527 108.757 108.999 109.232 109.447 109.652 109.844 110.044 110.207 110.344 110.539 110.707 110.874 111.004 111.162 111.267 111.387 111.544 111.662 111.774 111.897 112.022 112.139 112.244 112.339 112.449 112.562 112.637 112.719 112.799 112.884 112.944 113.017 113.109 113.152 113.207 113.262 113.314 113.349 113.387 113.439 113.482 113.522 113.502 113.507 113.487 113.452 113.449 113.409 113.347 113.254 113.204 113.132 113.087 113.029 112.974 112.894 112.807 112.739 112.674 112.612 112.554 112.494 112.464 112.422 112.397 112.302 112.259 112.224 112.174 112.047 111.967 112.009 112.612 111.749 111.487 111.472 111.402 111.367 111.322 111.272 111.227 111.172 111.129 111.059 110.982 110.899 110.799 110.732 110.657 110.629 110.554 110.482 110.382 110.317 110.224 110.154 110.052 109.982 109.919 109.837 109.762 109.664 109.567 109.447 109.367 109.259 109.139 109.024 108.917 108.787 108.672 108.542 108.397 108.302 108.162 108.029 107.924 107.767 107.649 107.522 107.399 107.312 107.187 107.067 106.927 106.799 106.697 106.579 106.467 106.337 106.209 106.094 105.987 105.879 105.779 105.672 105.544 105.434 105.307 105.167 105.002 104.812 104.664 104.492 104.307 104.167 104.022 103.874 103.732 103.592 103.437 103.262 103.114 102.944 102.779 102.634 102.562 102.449 102.339 102.159 101.972 101.762 101.512 101.277 101.059 100.882 100.739 100.672 100.624 100.554 100.497 100.449 100.377 100.297 100.182 100.027 99.852 99.659 99.517 99.352 99.147 98.917 98.639 98.357 98.079 97.764 97.459 97.187 96.829 96.534 96.219 95.869 95.509 95.097 94.554 94.109 93.649 93.279 92.894 92.547 92.177 91.889 91.512 91.117 90.807 90.374 90.124 89.864 89.512 89.224 88.857 88.499 88.104 87.682 87.332 86.979 86.614 86.229 85.872 85.522 85.052 84.614 84.419 84.617 82.832 82.119 82.134 82.162 82.219 82.259 82.609 83.257 83.139 83.147 83.179 83.169 83.142 83.069 83.467 83.414 85.909 86.787 85.419 83.589 82.809 82.859 82.892 82.952 83.014 83.449 83.712 83.209 83.694 83.789 83.432 83.477 83.514 83.557 83.594 83.691 83.709 85.011 85.459 84.949 84.806 84.804 85.666 85.656 86.034 86.081 85.784 85.784 86.354 86.784 86.851 86.946 87.179 87.509 87.406 88.011 88.366 88.749 89.109 89.416 89.706 89.979 90.306 90.634 90.939 91.251 91.544 91.831 92.139 92.451 92.729 93.004 93.271 93.561 93.794 94.069 94.326 94.564 94.819 95.071 95.251 95.509 95.716 95.909 96.114 96.294 96.449 96.639 96.796 96.974 97.174 97.349 97.494 97.659 97.829 97.989 98.166 98.344 98.476 98.629 98.784 98.929 99.074 99.204 99.321 99.449 99.571 99.711 99.811 99.964 100.089 100.211 100.316 100.439 100.571 100.701 100.811 100.919 101.039 101.131 101.256 101.351 101.446 101.539 101.639 101.714
82.799 83.219 83.647 84.102 84.494 84.874 85.222 85.577 85.929 86.289 86.664 87.072 87.472 87.874 88.274 88.729 89.242 89.809 90.404 91.024 91.624 92.249 92.844 93.444 94.029 94.714 95.362 95.969 96.564 97.137 97.797 98.412 99.084 99.644 100.259 100.872 101.464 102.017 102.574 103.064 104.199 107.559 106.622 105.627 105.684 105.989 106.227 106.507 106.782 107.002 107.222 107.497 107.727 107.944 108.197 108.454 108.692 108.957 109.164 109.399 109.604 109.797 109.997 110.192 110.362 110.532 110.699 110.867 111.017 111.177 111.309 111.447 111.582 111.727 111.859 111.969 112.102 112.217 112.337 112.437 112.537 112.657 112.752 112.834 112.904 112.987 113.062 113.144 113.192 113.267 113.339 113.372 113.434 113.487 113.527 113.579 113.597 113.624 113.639 113.654 113.657 113.619 113.597 113.594 113.547 113.492 113.377 113.332 113.262 113.174 113.104 113.084 112.972 112.889 112.814 112.752 112.652 112.614 112.562 112.512 112.479 112.429 112.347 112.302 112.252 112.207 112.082 112.024 112.144 112.799 111.862 111.559 111.524 111.474 111.412 111.379 111.337 111.299 111.267 111.204 111.129 111.047 110.964 110.897 110.837 110.762 110.717 110.634 110.572 110.472 110.394 110.297 110.232 110.157 110.089 110.039 109.974 109.897 109.787 109.714 109.609 109.512 109.392 109.252 109.159 109.062 108.942 108.802 108.669 108.564 108.427 108.294 108.187 108.062 107.927 107.809 107.674 107.577 107.477 107.384 107.279 107.137 107.017 106.912 106.804 106.687 106.562 106.442 106.319 106.209 106.102 106.009 105.902 105.797 105.679 105.552 105.409 105.262 105.082 104.912 104.749 104.599 104.437 104.277 104.149 104.007 103.844 103.682 103.529 103.374 103.209 103.032 102.909 102.817 102.712 102.582 102.412 102.227 102.039 101.809 101.567 101.359 101.187 101.057 100.972 100.909 100.847 100.804 100.764 100.689 100.589 100.487 100.364 100.149 100.047 99.902 99.724 99.502 99.284 99.012 98.742 98.454 98.157 97.842 97.507 97.209 96.912 96.599 96.254 95.867 95.534 95.059 94.634 94.292 93.989 93.499 93.129 92.944 92.744 92.337 91.959 91.629 91.299 91.017 90.554 90.409 89.692 89.409 88.812 88.437 88.289 87.552 87.474 86.929 86.567 86.109 85.599 85.054 84.789 85.269 84.402 82.642 81.894 81.902 81.952 81.987 82.049 82.089 82.999 83.087 83.194 83.454 82.997 83.112 82.779 82.672 82.732 82.629 82.667 82.612 82.592 82.632 82.702 82.824 82.882 83.137 86.309 86.542 86.347 86.564 86.339 86.909 86.332 86.149 85.814 86.174 85.954 85.916 86.134 85.506 85.891 85.581 85.234 85.084 88.476 92.216 91.371 87.134 85.464 85.579 85.729 85.839 85.991 86.226 86.594 87.086 87.784 88.124 88.509 88.889 89.209 89.511 89.749 90.061 90.414 90.756 91.081 91.369 91.696 91.984 92.259 92.536 92.829 93.129 93.376 93.651 93.921 94.166 94.464 94.699 94.941 95.179 95.386 95.604 95.799 96.009 96.194 96.364 96.556 96.729 96.879 97.076 97.246 97.406 97.609 97.766 97.931 98.074 98.246 98.404 98.581 98.711 98.861 98.994 99.119 99.274 99.389 99.509 99.656 99.781 99.901 100.026 100.149 100.259 100.356 100.494 100.606 100.714 100.854 100.954 101.061 101.184 101.266 101.404 101.491 101.559 101.671
83.057 83.507 83.957 84.437 84.814 85.187 85.532 85.884 86.244 86.612 86.982 87.377 87.777 88.162 88.559 89.039 89.589 90.169 90.759 91.407 92.039 92.679 93.287 93.924 94.592 95.229 95.884 96.529 97.134 97.714 98.367 98.994 99.604 100.242 100.882 101.452 101.999 102.584 103.059 104.459 105.507 105.657 105.474 105.594 105.869 106.144 106.399 106.689 106.902 107.102 107.417 107.654 107.877 108.142 108.377 108.639 108.867 109.114 109.339 109.557 109.757 109.967 110.149 110.349 110.512 110.679 110.867 111.034 111.189 111.327 111.502 111.627 111.767 111.909 112.019 112.132 112.292 112.384 112.514 112.624 112.729 112.847 112.924 113.017 113.107 113.192 113.234 113.299 113.387 113.457 113.512 113.549 113.599 113.647 113.694 113.742 113.764 113.752 113.774 113.792 113.787 113.762 113.732 113.724 113.684 113.627 113.524 113.447 113.354 113.274 113.229 113.159 113.047 112.964 112.892 112.832 112.732 112.687 112.612 112.584 112.534 112.482 112.384 112.334 112.329 112.252 112.144 112.059 112.329 112.787 111.847 111.602 111.574 111.524 111.487 111.432 111.427 111.374 111.324 111.262 111.219 111.132 111.054 110.977 110.919 110.862 110.804 110.747 110.659 110.592 110.522 110.419 110.359 110.279 110.212 110.174 110.107 110.027 109.912 109.824 109.772 109.654 109.529 109.414 109.324 109.209 109.077 108.952 108.832 108.717 108.594 108.454 108.342 108.222 108.114 107.964 107.852 107.767 107.669 107.594 107.477 107.364 107.247 107.149 107.032 106.924 106.807 106.689 106.567 106.454 106.347 106.287 106.174 106.054 105.962 105.844 105.684 105.529 105.379 105.224 105.074 104.912 104.757 104.602 104.457 104.309 104.149 103.987 103.814 103.647 103.487 103.334 103.197 103.082 102.989 102.882 102.729 102.534 102.367 102.142 101.914 101.742 101.564 101.432 101.332 101.257 101.214 101.159 101.097 101.017 100.937 100.834 100.642 100.499 100.369 100.239 100.062 99.842 99.602 99.354 99.082 98.784 98.479 98.152 97.847 97.587 97.294 96.959 96.674 96.324 95.962 95.839 95.419 94.909 94.282 93.792 93.359 93.262 93.172 92.222 91.727 91.929 96.659 91.614 90.522 90.144 89.742 92.399 93.057 92.497 88.162 87.709 88.989 87.879 87.329 86.542 86.017 85.609 85.807 85.302 83.687 82.407 81.662 81.682 81.744 81.784 81.837 81.852 82.752 83.019 82.652 82.492 82.412 82.419 82.424 82.402 82.427 82.497 82.609 82.534 82.494 82.539 82.599 82.742 82.804 82.939 85.582 86.822 86.812 86.834 86.819 86.809 86.854 86.897 86.879 86.909 86.931 86.954 86.959 86.981 86.726 87.006 83.606 83.189 88.391 93.761 93.759 87.506 85.374 85.514 85.601 85.764 85.939 86.174 86.941 87.381 87.601 87.941 88.301 88.686 88.994 89.289 89.529 89.871 90.236 90.561 90.871 91.196 91.504 91.806 92.114 92.424 92.696 92.981 93.259 93.549 93.806 94.069 94.324 94.574 94.819 95.054 95.306 95.516 95.706 95.894 96.096 96.284 96.451 96.621 96.811 96.974 97.144 97.331 97.504 97.654 97.846 98.026 98.146 98.309 98.479 98.614 98.774 98.931 99.054 99.171 99.299 99.424 99.551 99.676 99.814 99.951 100.066 100.176 100.306 100.419 100.536 100.666 100.781 100.899 101.009 101.134 101.214 101.316 101.421 101.519 101.604
83.364 83.807 84.309 84.734 85.147 85.517 85.849 86.207 86.552 86.917 87.309 87.697 88.084 88.454 88.889 89.384 89.922 90.509 91.147 91.767 92.429 93.057 93.704 94.349 95.067 95.699 96.312 96.962 97.617 98.237 98.864 99.499 100.112 100.767 101.399 101.907 102.462 103.057 104.207 105.347 105.312 105.182 105.479 105.749 106.029 106.259 106.552 106.792 107.012 107.312 107.567 107.827 108.027 108.277 108.562 108.804 109.027 109.272 109.484 109.709 109.929 110.112 110.329 110.492 110.687 110.857 111.047 111.184 111.369 111.509 111.674 111.797 111.944 112.084 112.204 112.337 112.474 112.584 112.717 112.797 112.909 113.032 113.107 113.194 113.274 113.337 113.404 113.497 113.549 113.642 113.674 113.704 113.767 113.794 113.852 113.864 113.897 113.889 113.922 113.922 113.912 113.879 113.862 113.817 113.769 113.727 113.639 113.539 113.449 113.379 113.294 113.224 113.107 113.032 112.962 112.869 112.792 112.727 112.684 112.609 112.572 112.512 112.437 112.379 112.367 112.294 112.204 112.122 112.357 112.919 111.842 111.634 111.652 111.602 111.554 111.522 111.507 111.449 111.399 111.347 111.284 111.204 111.137 111.062 110.994 110.932 110.892 110.842 110.764 110.679 110.632 110.534 110.454 110.407 110.334 110.292 110.222 110.142 110.069 109.982 109.887 109.792 109.687 109.572 109.467 109.379 109.257 109.144 108.987 108.889 108.764 108.634 108.532 108.404 108.292 108.167 108.074 107.982 107.894 107.814 107.729 107.632 107.519 107.414 107.309 107.192 107.074 106.952 106.864 106.759 106.647 106.539 106.447 106.352 106.247 106.127 105.989 105.859 105.724 105.552 105.399 105.244 105.082 104.949 104.794 104.654 104.497 104.334 104.174 103.987 103.832 103.672 103.537 103.412 103.319 103.202 103.079 102.909 102.739 102.547 102.327 102.139 101.972 101.832 101.762 101.699 101.629 101.552 101.482 101.402 101.297 101.182 100.987 100.879 100.724 100.539 100.369 100.174 99.929 99.694 99.404 99.089 98.817 98.512 98.212 97.912 97.634 97.327 97.044 96.747 96.349 96.062 95.657 94.979 94.627 93.997 93.367 95.227 93.982 95.737 98.194 96.719 96.177 92.119 91.517 92.909 96.267 95.342 97.779 98.649 93.007 87.204 87.179 86.717 86.324 86.084 85.672 85.554 85.492 84.444 83.224 81.882 81.392 81.449 81.489 81.574 81.642 81.677 82.322 81.959 82.079 82.149 82.277 82.272 82.297 82.929 83.269 83.687 82.347 82.389 82.672 82.457 82.537 82.677 82.739 82.929 86.124 86.442 86.449 86.434 86.437 86.459 86.489 86.537 86.549 86.544 86.559 86.584 86.591 86.634 86.639 86.359 83.436 82.844 87.759 92.436 92.039 86.469 85.309 85.461 85.521 85.639 85.781 85.976 86.931 87.579 87.444 87.719 88.116 88.476 88.821 89.109 89.359 89.696 90.044 90.396 90.689 91.001 91.326 91.624 91.921 92.234 92.526 92.829 93.106 93.356 93.646 93.939 94.196 94.441 94.721 94.951 95.154 95.399 95.621 95.799 96.004 96.189 96.371 96.541 96.731 96.896 97.071 97.249 97.414 97.581 97.736 97.891 98.061 98.231 98.384 98.546 98.686 98.819 98.986 99.106 99.229 99.371 99.496 99.616 99.749 99.871 99.999 100.121 100.234 100.366 100.471 100.599 100.731 100.854 100.941 101.064 101.184 101.294 101.376 101.456 101.544
83.667 84.154 84.614 85.042 85.424 85.824 86.174 86.524 86.877 87.252 87.637 87.997 88.359 88.754 89.229 89.732 90.312 90.877 91.499 92.122 92.772 93.449 94.104 94.797 95.464 96.132 96.722 97.369 98.012 98.667 99.317 99.899 100.577 101.239 101.802 102.327 102.797 104.464 105.264 105.064 105.062 105.352 105.629 105.887 106.184 106.439 106.694 106.937 107.209 107.452 107.727 107.959 108.202 108.452 108.709 108.954 109.194 109.429 109.659 109.869 110.072 110.262 110.479 110.652 110.844 111.019 111.179 111.354 111.502 111.667 111.839 111.952 112.104 112.239 112.379 112.507 112.612 112.729 112.864 112.972 113.084 113.189 113.264 113.359 113.447 113.512 113.597 113.672 113.699 113.804 113.824 113.867 113.907 113.939 113.977 114.009 114.034 114.019 114.029 114.049 114.034 114.012 113.959 113.902 113.864 113.794 113.744 113.642 113.564 113.454 113.397 113.299 113.187 113.097 113.009 112.927 112.862 112.777 112.722 112.667 112.644 112.557 112.469 112.417 112.409 112.337 112.237 112.159 112.407 112.862 111.882 111.682 111.704 111.654 111.607 111.577 111.569 111.502 111.447 111.384 111.349 111.284 111.204 111.147 111.089 111.029 110.984 110.914 110.864 110.814 110.744 110.637 110.574 110.512 110.482 110.414 110.372 110.307 110.217 110.142 110.044 109.964 109.844 109.734 109.642 109.554 109.429 109.314 109.197 109.084 108.967 108.842 108.732 108.634 108.519 108.412 108.319 108.222 108.142 108.102 108.012 107.907 107.822 107.699 107.602 107.489 107.374 107.257 107.149 107.054 106.959 106.854 106.754 106.667 106.577 106.447 106.332 106.192 106.049 105.887 105.747 105.609 105.472 105.327 105.194 105.054 104.899 104.732 104.569 104.402 104.224 104.064 103.929 103.819 103.714 103.574 103.449 103.292 103.162 102.972 102.777 102.594 102.434 102.314 102.209 102.134 102.052 101.974 101.899 101.787 101.667 101.504 101.372 101.224 101.052 100.872 100.689 100.472 100.224 99.957 99.709 99.429 99.147 98.842 98.537 98.237 97.949 97.652 97.364 97.074 96.802 96.399 96.207 96.067 94.712 94.199 94.929 93.782 97.999 97.092 93.089 93.222 94.797 101.254 93.029 95.494 101.904 103.607 98.689 90.474 88.514 87.614 86.852 88.444 86.094 85.949 86.677 85.269 84.564 84.067 82.999 81.652 81.152 81.157 81.202 81.382 81.487 81.522 81.552 81.614 81.867 82.089 82.704 83.402 83.649 84.492 84.649 83.889 83.274 81.769 82.154 82.367 82.447 82.722 83.349 83.419 85.797 86.202 86.267 86.114 86.087 86.084 86.129 86.154 86.182 86.206 86.206 86.244 86.254 86.269 86.269 85.886 83.364 82.946 88.504 92.344 91.699 86.754 85.181 85.354 85.439 85.496 85.651 85.869 86.639 87.549 87.294 87.539 87.924 88.291 88.641 88.969 89.196 89.516 89.856 90.184 90.521 90.831 91.164 91.489 91.814 92.106 92.404 92.686 92.966 93.249 93.539 93.816 94.066 94.321 94.591 94.814 95.041 95.291 95.489 95.696 95.901 96.064 96.259 96.441 96.626 96.776 96.984 97.151 97.319 97.504 97.686 97.824 97.984 98.154 98.309 98.476 98.609 98.759 98.891 99.046 99.156 99.291 99.416 99.551 99.674 99.779 99.924 100.056 100.169 100.296 100.431 100.539 100.656 100.776 100.896 101.014 101.096 101.229 101.321 101.406 101.489
83.957 84.459 84.922 85.337 85.754 86.119 86.469 86.834 87.202 87.539 87.942 88.292 88.652 89.072 89.552 90.087 90.627 91.194 91.787 92.434 93.149 93.839 94.492 95.144 95.832 96.452 97.077 97.744 98.414 99.057 99.704 100.312 100.992 101.579 102.172 102.669 104.137 105.227 104.799 104.947 105.234 105.529 105.754 106.059 106.347 106.599 106.814 107.097 107.369 107.617 107.842 108.117 108.374 108.634 108.892 109.142 109.379 109.582 109.819 110.029 110.227 110.422 110.614 110.799 110.997 111.149 111.342 111.519 111.667 111.842 111.982 112.117 112.257 112.404 112.527 112.674 112.779 112.929 113.022 113.129 113.262 113.342 113.442 113.522 113.624 113.667 113.739 113.814 113.877 113.914 113.967 113.992 114.044 114.087 114.107 114.144 114.134 114.127 114.134 114.137 114.144 114.102 114.064 114.007 113.932 113.879 113.829 113.729 113.647 113.537 113.474 113.359 113.217 113.157 113.067 112.977 112.912 112.837 112.772 112.717 112.674 112.579 112.497 112.457 112.457 112.392 112.259 112.162 112.442 112.907 111.894 111.734 111.752 111.722 111.679 111.649 111.619 111.554 111.494 111.464 111.409 111.344 111.267 111.214 111.147 111.107 111.092 111.034 110.982 110.897 110.827 110.747 110.689 110.627 110.592 110.544 110.522 110.444 110.384 110.277 110.229 110.122 110.002 109.909 109.817 109.744 109.642 109.537 109.412 109.282 109.192 109.082 108.974 108.864 108.774 108.684 108.582 108.489 108.442 108.379 108.319 108.214 108.129 108.029 107.919 107.827 107.697 107.579 107.474 107.397 107.287 107.209 107.122 107.009 106.914 106.807 106.707 106.577 106.452 106.327 106.167 106.014 105.882 105.764 105.647 105.507 105.364 105.182 105.019 104.852 104.679 104.534 104.374 104.257 104.147 104.037 103.904 103.747 103.599 103.457 103.269 103.099 102.932 102.799 102.689 102.602 102.502 102.399 102.299 102.182 102.024 101.909 101.734 101.572 101.372 101.194 101.009 100.784 100.547 100.292 100.012 99.737 99.447 99.139 98.847 98.517 98.237 97.934 97.639 97.374 97.114 96.769 96.537 96.664 95.459 94.607 94.602 98.114 100.422 93.277 93.249 97.302 96.079 104.414 91.532 96.267 100.934 98.284 95.317 91.817 88.747 87.959 86.739 87.629 88.734 90.547 88.064 85.112 84.579 84.314 82.782 81.229 80.892 80.897 80.982 81.254 81.387 81.424 81.477 82.262 83.152 83.924 84.559 84.657 84.807 84.929 84.774 84.502 84.712 81.524 82.109 82.179 82.167 82.314 82.887 82.614 83.447 83.189 84.002 84.132 84.652 85.799 84.797 85.464 85.964 85.979 85.811 85.876 85.794 85.979 85.934 85.841 82.941 82.859 87.699 93.001 93.094 88.471 85.069 85.206 85.316 85.421 85.594 85.839 86.279 86.911 87.089 87.396 87.769 88.116 88.484 88.811 89.071 89.366 89.719 90.044 90.349 90.694 91.019 91.314 91.624 91.941 92.261 92.566 92.839 93.119 93.391 93.671 93.931 94.219 94.476 94.714 94.949 95.199 95.401 95.604 95.796 95.994 96.179 96.354 96.544 96.719 96.879 97.051 97.244 97.414 97.561 97.746 97.886 98.059 98.246 98.396 98.546 98.706 98.851 98.984 99.111 99.246 99.376 99.496 99.626 99.759 99.879 99.994 100.139 100.239 100.354 100.489 100.609 100.736 100.844 100.969 101.079 101.189 101.264 101.364 101.444
84.292 84.762 85.209 85.637 86.047 86.404 86.747 87.102 87.462 87.834 88.202 88.564 88.964 89.399 89.877 90.402 90.967 91.532 92.134 92.784 93.474 94.137 94.829 95.459 96.119 96.797 97.462 98.142 98.809 99.482 100.069 100.754 101.342 101.917 102.507 103.764 105.024 104.847 104.807 105.084 105.387 105.672 105.934 106.222 106.469 106.697 106.999 107.269 107.519 107.764 107.987 108.274 108.547 108.794 109.077 109.297 109.542 109.752 109.962 110.162 110.367 110.579 110.777 110.949 111.129 111.302 111.484 111.677 111.812 111.972 112.134 112.272 112.402 112.524 112.689 112.832 112.937 113.092 113.212 113.299 113.394 113.489 113.582 113.669 113.772 113.822 113.882 113.939 114.032 114.069 114.092 114.127 114.172 114.209 114.229 114.229 114.232 114.214 114.219 114.204 114.227 114.174 114.124 114.104 114.009 113.947 113.877 113.797 113.697 113.589 113.507 113.394 113.272 113.189 113.099 113.044 112.932 112.897 112.804 112.772 112.709 112.634 112.559 112.499 112.482 112.432 112.304 112.194 112.544 112.922 111.927 111.779 111.794 111.764 111.724 111.689 111.652 111.607 111.554 111.532 111.482 111.412 111.349 111.302 111.249 111.222 111.184 111.114 111.069 111.017 110.934 110.889 110.809 110.769 110.734 110.699 110.659 110.604 110.524 110.449 110.372 110.294 110.199 110.109 110.019 109.934 109.832 109.732 109.642 109.512 109.422 109.319 109.234 109.142 109.039 108.939 108.862 108.794 108.742 108.669 108.632 108.532 108.459 108.357 108.244 108.137 108.037 107.934 107.827 107.744 107.674 107.567 107.487 107.402 107.314 107.244 107.127 107.007 106.884 106.734 106.614 106.477 106.339 106.222 106.104 105.977 105.839 105.664 105.499 105.337 105.172 105.017 104.844 104.714 104.587 104.469 104.342 104.174 104.047 103.912 103.762 103.574 103.439 103.267 103.157 103.054 102.954 102.847 102.714 102.557 102.414 102.254 102.079 101.917 101.734 101.524 101.307 101.097 100.889 100.619 100.334 100.044 99.754 99.459 99.144 98.837 98.512 98.197 97.912 97.637 97.347 97.054 96.742 96.572 96.939 95.199 94.822 98.542 96.184 94.179 95.739 92.749 95.837 98.952 94.549 101.257 94.214 94.747 95.562 95.517 89.172 89.624 86.699 89.257 92.584 93.699 90.989 85.137 84.862 84.732 82.672 80.814 80.672 80.687 80.827 81.657 81.349 81.379 81.379 83.569 84.699 84.827 84.624 84.232 85.202 85.327 85.457 85.574 84.529 82.259 81.819 81.862 81.799 81.932 81.907 81.082 81.467 82.254 82.712 82.929 83.107 82.859 82.772 82.864 83.072 83.131 83.174 83.264 83.249 83.656 83.464 83.271 82.901 83.139 89.269 92.344 92.956 89.736 84.946 85.036 85.194 85.329 85.556 85.796 86.164 86.626 86.959 87.254 87.589 87.974 88.326 88.686 88.964 89.241 89.561 89.886 90.206 90.539 90.849 91.191 91.516 91.811 92.114 92.411 92.716 92.986 93.254 93.536 93.816 94.074 94.331 94.599 94.829 95.064 95.299 95.516 95.699 95.891 96.086 96.271 96.456 96.641 96.824 97.001 97.174 97.346 97.506 97.674 97.844 98.019 98.171 98.331 98.481 98.601 98.774 98.921 99.044 99.176 99.314 99.436 99.564 99.724 99.829 99.941 100.056 100.221 100.326 100.441 100.574 100.701 100.804 100.939 101.021 101.134 101.229 101.331 101.401
84.584 85.054 85.474 85.894 86.299 86.657 86.999 87.344 87.702 88.092 88.472 88.847 89.232 89.687 90.194 90.719 91.267 91.849 92.484 93.122 93.782 94.467 95.177 95.844 96.487 97.192 97.869 98.539 99.222 99.867 100.477 101.104 101.737 102.287 102.912 104.754 104.624 104.654 104.962 105.217 105.529 105.799 106.052 106.319 106.567 106.844 107.127 107.394 107.649 107.917 108.167 108.442 108.704 108.969 109.222 109.452 109.674 109.894 110.124 110.307 110.482 110.704 110.894 111.104 111.279 111.437 111.617 111.802 111.964 112.122 112.262 112.409 112.559 112.709 112.839 112.984 113.094 113.197 113.332 113.437 113.542 113.649 113.709 113.822 113.907 113.964 114.012 114.082 114.159 114.197 114.219 114.242 114.294 114.314 114.349 114.329 114.344 114.334 114.324 114.282 114.252 114.249 114.184 114.164 114.077 114.012 113.919 113.854 113.732 113.639 113.547 113.427 113.287 113.239 113.142 113.064 112.977 112.892 112.842 112.792 112.742 112.682 112.584 112.524 112.532 112.487 112.347 112.267 112.582 112.989 112.059 111.844 111.847 111.799 111.764 111.709 111.679 111.662 111.629 111.599 111.544 111.499 111.439 111.379 111.349 111.299 111.259 111.207 111.164 111.127 111.057 110.999 110.919 110.884 110.862 110.852 110.782 110.742 110.672 110.609 110.529 110.484 110.384 110.294 110.199 110.132 110.032 109.954 109.847 109.737 109.664 109.572 109.482 109.394 109.312 109.214 109.139 109.087 109.042 108.997 108.927 108.852 108.769 108.692 108.589 108.502 108.387 108.272 108.164 108.112 108.054 107.969 107.882 107.807 107.739 107.649 107.569 107.427 107.329 107.204 107.059 106.947 106.799 106.692 106.564 106.439 106.314 106.167 105.989 105.814 105.672 105.497 105.344 105.174 105.037 104.917 104.759 104.594 104.467 104.357 104.214 104.037 103.877 103.732 103.589 103.462 103.359 103.242 103.107 102.929 102.777 102.599 102.429 102.227 102.024 101.834 101.672 101.472 101.204 100.922 100.642 100.362 100.059 99.757 99.444 99.124 98.787 98.462 98.144 97.859 97.569 97.299 97.009 96.819 98.144 96.067 95.119 94.454 94.144 93.769 94.357 93.152 93.884 94.807 99.877 99.579 96.914 97.182 95.759 94.604 87.882 101.507 87.114 91.449 94.809 86.899 88.392 85.362 91.179 84.654 82.802 80.554 80.442 80.487 81.667 82.072 81.274 81.292 81.259 83.247 85.089 85.204 85.339 85.464 85.592 85.712 85.864 86.034 86.257 84.232 81.559 81.532 81.459 81.609 81.222 80.294 80.804 81.579 82.469 82.889 83.337 82.862 82.827 83.037 83.059 82.966 82.984 83.014 82.966 83.054 82.974 82.861 82.789 82.746 90.399 93.464 93.576 90.604 85.344 84.934 85.084 85.196 85.474 85.709 86.004 86.394 86.796 87.091 87.439 87.824 88.194 88.536 88.851 89.119 89.419 89.749 90.094 90.401 90.731 91.041 91.359 91.661 91.979 92.291 92.584 92.869 93.146 93.421 93.699 93.994 94.269 94.516 94.764 95.004 95.239 95.449 95.654 95.846 96.014 96.219 96.396 96.569 96.769 96.956 97.139 97.299 97.459 97.626 97.809 97.981 98.126 98.281 98.436 98.576 98.731 98.876 99.034 99.161 99.291 99.409 99.529 99.651 99.779 99.906 100.029 100.154 100.289 100.394 100.554 100.656 100.791 100.894 101.006 101.119 101.224 101.289 101.381
84.819 85.277 85.722 86.127 86.469 86.839 87.209 87.554 87.947 88.322 88.707 89.092 89.517 89.987 90.427 90.992 91.567 92.172 92.834 93.444 94.104 94.834 95.547 96.194 96.869 97.577 98.282 98.952 99.632 100.267 100.904 101.512 102.127 102.704 104.124 104.852 104.532 104.802 105.087 105.377 105.659 105.922 106.197 106.419 106.699 106.977 107.217 107.522 107.777 108.022 108.312 108.604 108.849 109.087 109.349 109.587 109.824 110.042 110.237 110.424 110.649 110.834 111.027 111.242 111.407 111.594 111.757 111.914 112.112 112.277 112.402 112.554 112.692 112.844 112.979 113.127 113.209 113.337 113.457 113.577 113.692 113.759 113.829 113.942 114.009 114.087 114.147 114.199 114.284 114.307 114.332 114.347 114.379 114.402 114.427 114.427 114.422 114.422 114.394 114.364 114.327 114.289 114.247 114.197 114.127 114.049 113.942 113.857 113.764 113.662 113.587 113.449 113.319 113.244 113.177 113.087 112.999 112.932 112.869 112.832 112.769 112.699 112.617 112.572 112.547 112.472 112.359 112.289 112.564 112.942 111.944 111.862 111.889 111.862 111.789 111.769 111.762 111.719 111.674 111.649 111.602 111.542 111.479 111.444 111.402 111.347 111.342 111.314 111.254 111.204 111.137 111.084 111.039 110.992 110.959 110.964 110.924 110.879 110.822 110.767 110.699 110.642 110.564 110.494 110.397 110.347 110.277 110.187 110.064 109.979 109.914 109.834 109.752 109.679 109.594 109.492 109.402 109.352 109.327 109.289 109.229 109.137 109.107 109.022 108.947 108.849 108.729 108.657 108.574 108.534 108.454 108.399 108.299 108.259 108.174 108.107 108.002 107.899 107.762 107.634 107.539 107.397 107.269 107.157 107.019 106.922 106.789 106.642 106.462 106.307 106.119 105.967 105.779 105.622 105.479 105.347 105.169 105.029 104.904 104.772 104.627 104.482 104.307 104.149 103.984 103.852 103.734 103.612 103.447 103.299 103.127 102.937 102.762 102.542 102.354 102.179 101.992 101.787 101.524 101.242 100.957 100.692 100.382 100.089 99.807 99.462 99.132 98.807 98.457 98.109 97.822 97.532 97.269 97.037 97.044 96.202 95.247 94.837 94.332 94.044 93.639 93.077 95.184 97.754 102.014 95.437 90.557 95.087 95.844 95.614 93.914 91.534 88.337 98.182 93.282 86.867 88.847 87.389 89.357 87.372 82.514 80.352 80.247 80.299 81.639 81.847 81.192 81.202 81.199 81.487 84.794 85.582 85.742 85.887 86.074 86.277 86.544 86.809 87.057 86.614 81.289 81.284 81.127 81.092 81.034 80.112 80.467 81.307 82.067 83.027 83.749 83.159 83.632 83.674 83.619 83.264 83.504 83.049 83.416 83.706 83.021 82.846 82.711 82.954 90.271 92.666 92.801 90.229 84.719 84.731 84.934 85.086 85.394 85.626 85.914 86.229 86.616 86.969 87.274 87.676 88.064 88.411 88.739 89.016 89.319 89.641 89.971 90.296 90.629 90.926 91.256 91.584 91.894 92.189 92.466 92.769 93.074 93.356 93.624 93.906 94.199 94.446 94.676 94.919 95.151 95.376 95.564 95.796 95.971 96.171 96.369 96.571 96.724 96.924 97.076 97.256 97.431 97.584 97.756 97.911 98.074 98.219 98.399 98.551 98.691 98.846 98.989 99.116 99.256 99.374 99.529 99.659 99.756 99.894 100.006 100.136 100.264 100.394 100.516 100.654 100.759 100.871 100.984 101.109 101.201 101.291 101.389
84.964 85.422 85.892 86.274 86.649 87.022 87.344 87.722 88.102 88.482 88.887 89.302 89.754 90.229 90.714 91.267 91.882 92.504 93.164 93.814 94.489 95.217 95.934 96.572 97.272 97.989 98.682 99.382 100.052 100.727 101.349 101.954 102.462 103.827 104.542 104.399 104.652 104.967 105.242 105.529 105.814 106.032 106.274 106.539 106.832 107.099 107.342 107.607 107.902 108.169 108.439 108.732 108.972 109.224 109.494 109.714 109.939 110.139 110.352 110.564 110.744 110.964 111.182 111.342 111.532 111.729 111.887 112.067 112.239 112.377 112.542 112.687 112.839 112.989 113.087 113.224 113.349 113.469 113.602 113.687 113.774 113.864 113.949 114.042 114.124 114.194 114.234 114.289 114.357 114.394 114.422 114.449 114.484 114.487 114.502 114.497 114.489 114.462 114.452 114.409 114.389 114.324 114.297 114.229 114.159 114.092 113.989 113.907 113.814 113.704 113.629 113.482 113.382 113.289 113.189 113.117 113.037 112.967 112.907 112.859 112.817 112.724 112.639 112.617 112.594 112.522 112.402 112.332 112.582 112.967 111.979 111.867 111.902 111.889 111.852 111.814 111.794 111.757 111.689 111.667 111.644 111.602 111.557 111.517 111.459 111.419 111.394 111.357 111.319 111.272 111.227 111.184 111.127 111.107 111.097 111.077 111.042 111.002 110.957 110.902 110.864 110.794 110.739 110.674 110.597 110.552 110.487 110.419 110.314 110.219 110.172 110.089 110.002 109.927 109.874 109.792 109.707 109.669 109.619 109.587 109.547 109.492 109.422 109.352 109.267 109.177 109.122 109.052 108.977 108.924 108.867 108.819 108.737 108.672 108.592 108.517 108.409 108.344 108.199 108.072 107.959 107.842 107.712 107.594 107.469 107.359 107.219 107.079 106.909 106.739 106.582 106.404 106.224 106.059 105.924 105.759 105.589 105.447 105.309 105.179 105.034 104.877 104.707 104.562 104.397 104.234 104.104 103.957 103.824 103.674 103.489 103.287 103.092 102.879 102.687 102.499 102.307 102.089 101.847 101.577 101.297 101.019 100.729 100.442 100.187 99.859 99.492 99.154 98.772 98.392 98.069 97.759 97.467 97.197 97.202 98.454 96.807 95.039 94.799 100.349 94.914 100.102 99.912 100.597 100.259 93.094 97.224 92.709 95.074 91.229 99.967 87.809 87.422 90.959 86.902 85.597 98.542 96.037 85.872 87.274 82.959 80.077 80.037 80.084 81.649 81.657 81.079 81.129 81.139 81.464 83.462 86.087 86.329 86.557 86.827 87.069 87.289 87.462 87.412 86.939 81.939 81.027 80.777 80.712 80.707 80.112 80.187 80.904 81.637 82.234 82.587 82.887 83.499 82.872 83.127 83.129 83.096 83.169 83.316 83.896 83.291 83.179 82.666 82.514 88.004 91.529 90.974 85.791 84.511 84.586 84.769 84.991 85.279 85.556 85.831 86.126 86.471 86.876 87.129 87.524 87.926 88.306 88.659 88.959 89.239 89.536 89.871 90.199 90.514 90.854 91.186 91.509 91.799 92.104 92.401 92.709 92.984 93.256 93.576 93.849 94.116 94.376 94.621 94.856 95.091 95.334 95.531 95.716 95.924 96.121 96.306 96.486 96.684 96.881 97.041 97.224 97.384 97.549 97.726 97.884 98.064 98.226 98.384 98.549 98.671 98.834 98.974 99.089 99.239 99.366 99.496 99.619 99.769 99.909 100.016 100.131 100.269 100.401 100.526 100.666 100.769 100.899 100.996 101.099 101.214 101.306 101.381
85.094 85.542 86.004 86.399 86.772 87.124 87.499 87.847 88.239 88.634 89.044 89.509 89.989 90.484 91.022 91.582 92.207 92.842 93.489 94.147 94.869 95.582 96.284 96.987 97.682 98.399 99.129 99.814 100.482 101.129 101.764 102.264 103.334 104.757 104.332 104.507 104.802 105.109 105.397 105.652 105.917 106.129 106.399 106.664 106.927 107.172 107.467 107.734 108.022 108.309 108.577 108.852 109.084 109.334 109.574 109.827 110.032 110.224 110.447 110.684 110.867 111.082 111.262 111.452 111.654 111.812 111.997 112.184 112.339 112.504 112.644 112.797 112.952 113.077 113.217 113.342 113.457 113.582 113.682 113.782 113.897 113.922 114.044 114.109 114.204 114.257 114.337 114.364 114.422 114.467 114.487 114.532 114.544 114.529 114.529 114.544 114.554 114.512 114.514 114.469 114.419 114.389 114.342 114.252 114.182 114.119 114.012 113.904 113.799 113.729 113.664 113.529 113.417 113.322 113.239 113.154 113.062 113.002 112.934 112.879 112.822 112.772 112.672 112.632 112.629 112.564 112.442 112.349 112.559 113.077 112.072 111.907 111.944 111.914 111.889 111.857 111.822 111.787 111.727 111.704 111.692 111.697 111.599 111.569 111.532 111.507 111.462 111.414 111.369 111.347 111.284 111.252 111.219 111.217 111.202 111.177 111.164 111.114 111.079 111.042 111.012 110.972 110.914 110.874 110.817 110.769 110.687 110.627 110.552 110.472 110.384 110.352 110.292 110.217 110.144 110.072 110.022 109.974 109.917 109.902 109.879 109.854 109.822 109.719 109.619 109.549 109.492 109.427 109.379 109.312 109.264 109.212 109.132 109.072 108.997 108.922 108.832 108.734 108.614 108.507 108.384 108.257 108.134 108.022 107.884 107.744 107.634 107.492 107.332 107.152 106.982 106.822 106.644 106.487 106.327 106.162 105.992 105.839 105.699 105.577 105.449 105.302 105.104 104.947 104.814 104.637 104.499 104.354 104.182 104.032 103.829 103.647 103.442 103.207 102.994 102.822 102.647 102.432 102.182 101.919 101.664 101.382 101.097 100.814 100.522 100.202 99.822 99.449 99.054 98.649 98.309 97.974 97.657 97.362 97.279 97.972 96.224 95.134 97.872 100.062 96.394 101.004 102.789 99.589 99.619 97.369 97.267 94.159 89.572 96.664 91.624 92.299 91.639 86.234 85.859 86.837 104.147 98.009 89.802 84.014 81.482 79.969 79.812 80.062 81.787 81.207 80.959 81.062 81.092 81.147 81.907 86.852 87.077 87.359 87.447 87.389 87.172 86.927 86.662 86.402 83.399 81.199 80.467 80.364 80.274 80.147 80.269 81.204 81.199 81.297 81.809 81.952 83.342 82.534 82.372 83.026 82.841 82.806 82.901 83.051 83.206 82.991 82.584 82.349 86.086 90.209 88.361 84.371 84.379 84.431 84.616 84.846 85.124 85.411 85.716 86.061 86.354 86.751 87.024 87.409 87.789 88.211 88.544 88.916 89.169 89.459 89.796 90.126 90.471 90.794 91.114 91.446 91.754 92.039 92.326 92.611 92.911 93.206 93.511 93.804 94.066 94.324 94.571 94.811 95.054 95.249 95.484 95.709 95.901 96.069 96.286 96.466 96.649 96.851 97.026 97.191 97.381 97.556 97.714 97.884 98.059 98.199 98.364 98.541 98.704 98.834 98.989 99.121 99.251 99.381 99.509 99.639 99.764 99.906 100.031 100.166 100.289 100.424 100.551 100.681 100.774 100.914 101.019 101.124 101.224 101.324 101.439
85.172 85.614 86.069 86.497 86.877 87.244 87.592 87.959 88.339 88.739 89.199 89.712 90.232 90.739 91.284 91.899 92.544 93.187 93.847 94.559 95.252 95.974 96.704 97.389 98.119 98.869 99.564 100.249 100.902 101.532 102.124 102.677 104.597 104.559 104.359 104.664 104.974 105.272 105.517 105.762 105.992 106.234 106.499 106.767 107.039 107.284 107.587 107.842 108.162 108.419 108.684 108.949 109.187 109.464 109.682 109.919 110.137 110.347 110.542 110.759 110.964 111.144 111.337 111.552 111.734 111.902 112.082 112.274 112.442 112.594 112.747 112.882 113.027 113.184 113.312 113.444 113.549 113.662 113.764 113.837 113.939 114.029 114.109 114.189 114.272 114.337 114.392 114.442 114.487 114.522 114.552 114.564 114.569 114.577 114.564 114.582 114.584 114.542 114.514 114.469 114.432 114.389 114.347 114.269 114.209 114.124 114.032 113.902 113.827 113.747 113.657 113.532 113.422 113.337 113.277 113.184 113.104 113.027 112.937 112.942 112.859 112.804 112.727 112.687 112.667 112.599 112.472 112.409 112.539 113.112 112.127 111.984 111.969 111.964 111.987 111.904 111.859 111.834 111.797 111.772 111.757 111.717 111.672 111.652 111.597 111.572 111.522 111.492 111.462 111.407 111.359 111.349 111.344 111.299 111.304 111.287 111.247 111.232 111.212 111.187 111.157 111.119 111.087 111.057 110.997 110.979 110.917 110.859 110.797 110.739 110.657 110.622 110.567 110.527 110.439 110.377 110.322 110.269 110.239 110.219 110.204 110.179 110.129 110.057 110.009 109.942 109.862 109.794 109.717 109.677 109.629 109.577 109.509 109.452 109.357 109.287 109.212 109.129 109.017 108.892 108.782 108.647 108.524 108.389 108.267 108.152 108.024 107.902 107.724 107.557 107.377 107.222 107.062 106.884 106.747 106.564 106.404 106.252 106.094 105.979 105.839 105.674 105.522 105.344 105.174 105.039 104.892 104.739 104.574 104.399 104.212 103.997 103.784 103.544 103.337 103.159 102.982 102.764 102.509 102.267 101.994 101.714 101.404 101.119 100.799 100.457 100.099 99.717 99.314 98.894 98.522 98.187 97.857 97.569 97.214 97.344 96.987 95.642 94.967 95.194 97.092 101.137 96.092 101.059 102.282 91.487 98.687 99.247 96.729 91.664 92.237 106.587 94.022 86.539 87.442 86.572 99.367 98.899 91.184 82.969 80.857 79.652 79.724 79.757 81.342 80.887 80.907 80.994 81.017 81.067 81.702 86.184 87.392 87.149 86.889 86.667 86.399 86.149 85.959 85.799 83.794 81.159 80.452 80.237 80.154 80.252 80.307 80.704 80.559 80.747 80.882 80.932 81.294 81.539 81.724 82.114 82.336 83.349 82.349 82.594 82.756 82.831 82.446 83.131 90.126 92.056 89.019 84.279 84.169 84.261 84.421 84.654 84.919 85.211 85.556 85.929 86.254 86.626 87.011 87.276 87.691 88.089 88.496 88.849 89.114 89.394 89.731 90.081 90.441 90.746 91.064 91.376 91.699 91.991 92.304 92.589 92.891 93.221 93.466 93.739 94.006 94.289 94.534 94.759 95.041 95.269 95.454 95.654 95.886 96.076 96.256 96.479 96.656 96.831 97.016 97.204 97.356 97.546 97.724 97.891 98.076 98.244 98.411 98.564 98.716 98.854 99.031 99.146 99.284 99.424 99.531 99.684 99.826 99.949 100.069 100.199 100.336 100.464 100.599 100.711 100.824 100.936 101.051 101.169 101.259 101.361 101.486
85.264 85.697 86.119 86.527 86.942 87.339 87.724 88.084 88.472 88.927 89.404 89.942 90.462 91.004 91.604 92.227 92.902 93.549 94.222 94.919 95.622 96.324 97.059 97.772 98.544 99.274 99.987 100.684 101.324 101.972 102.432 103.679 104.742 104.324 104.534 104.812 105.127 105.387 105.629 105.837 106.092 106.354 106.609 106.849 107.134 107.434 107.709 107.999 108.269 108.534 108.792 109.054 109.307 109.557 109.779 110.022 110.227 110.429 110.602 110.854 111.044 111.232 111.412 111.634 111.817 112.002 112.159 112.344 112.517 112.679 112.827 112.947 113.104 113.229 113.362 113.489 113.607 113.744 113.817 113.909 113.994 114.062 114.137 114.222 114.267 114.359 114.434 114.459 114.502 114.512 114.549 114.579 114.579 114.562 114.567 114.557 114.549 114.547 114.517 114.462 114.419 114.392 114.327 114.257 114.174 114.109 114.009 113.939 113.844 113.739 113.657 113.514 113.414 113.367 113.292 113.214 113.147 113.079 113.019 112.982 112.919 112.837 112.774 112.742 112.682 112.612 112.489 112.444 112.617 113.317 112.467 112.154 112.069 112.069 112.057 111.982 111.934 111.889 111.857 111.804 111.777 111.744 111.694 111.659 111.642 111.619 111.599 111.549 111.519 111.484 111.434 111.429 111.387 111.382 111.384 111.364 111.357 111.334 111.322 111.309 111.294 111.232 111.179 111.189 111.179 111.132 111.104 111.039 111.014 110.977 110.907 110.879 110.812 110.784 110.734 110.664 110.612 110.559 110.514 110.507 110.512 110.502 110.487 110.417 110.359 110.284 110.217 110.147 110.077 110.017 109.959 109.927 109.887 109.814 109.707 109.639 109.569 109.469 109.392 109.272 109.149 109.034 108.897 108.749 108.637 108.519 108.394 108.252 108.107 107.942 107.774 107.597 107.449 107.297 107.139 106.974 106.804 106.634 106.494 106.369 106.229 106.094 105.939 105.762 105.579 105.429 105.284 105.144 104.984 104.782 104.577 104.349 104.142 103.897 103.689 103.482 103.287 103.084 102.867 102.602 102.314 102.034 101.694 101.384 101.067 100.717 100.374 99.957 99.544 99.139 98.729 98.362 98.027 97.782 97.492 97.312 96.582 97.357 102.082 97.984 104.642 103.759 94.847 99.739 95.177 94.987 95.959 103.214 94.489 91.697 92.854 91.052 92.502 86.179 86.422 85.799 88.322 88.307 84.159 82.132 80.307 79.407 79.477 79.594 81.349 80.834 80.789 80.872 80.914 80.977 81.082 84.792 86.632 86.377 86.157 85.929 85.784 85.649 85.537 85.294 85.252 81.514 80.419 79.927 79.954 79.907 80.024 80.097 80.039 80.042 80.124 80.252 80.339 80.599 80.832 81.344 81.454 82.129 81.596 81.789 82.134 82.249 82.101 85.574 90.184 92.631 91.614 85.494 83.946 84.034 84.201 84.394 84.681 85.006 85.426 85.811 86.146 86.499 86.921 87.174 87.566 87.999 88.429 88.784 89.076 89.374 89.679 90.051 90.374 90.689 91.019 91.344 91.676 91.974 92.281 92.576 92.869 93.171 93.449 93.741 94.016 94.271 94.566 94.789 95.031 95.271 95.484 95.686 95.891 96.099 96.304 96.494 96.681 96.864 97.044 97.216 97.409 97.609 97.799 97.951 98.124 98.276 98.454 98.621 98.774 98.919 99.059 99.201 99.331 99.466 99.624 99.741 99.869 99.979 100.099 100.261 100.381 100.499 100.646 100.749 100.866 100.986 101.089 101.206 101.314 101.414 101.514
85.369 85.777 86.212 86.597 87.029 87.449 87.827 88.224 88.627 89.109 89.629 90.169 90.719 91.297 91.909 92.577 93.254 93.919 94.599 95.264 96.007 96.709 97.429 98.172 98.939 99.669 100.369 101.077 101.727 102.312 103.152 104.664 104.432 104.404 104.682 104.967 105.257 105.497 105.704 105.967 106.227 106.469 106.704 106.959 107.287 107.572 107.827 108.137 108.402 108.647 108.907 109.149 109.422 109.654 109.889 110.094 110.277 110.502 110.707 110.912 111.112 111.314 111.512 111.694 111.892 112.074 112.259 112.429 112.577 112.732 112.877 112.999 113.159 113.279 113.394 113.524 113.652 113.739 113.834 113.902 113.999 114.082 114.147 114.222 114.269 114.349 114.404 114.439 114.474 114.497 114.537 114.547 114.564 114.539 114.522 114.522 114.502 114.504 114.434 114.407 114.349 114.327 114.277 114.199 114.134 114.064 113.962 113.884 113.797 113.739 113.632 113.502 113.412 113.359 113.284 113.194 113.142 113.077 113.032 112.999 112.937 112.869 112.782 112.742 112.729 112.637 112.524 112.487 112.514 113.287 113.487 113.277 113.347 113.172 112.434 112.047 112.469 112.717 112.519 112.367 112.137 112.109 112.069 111.929 111.854 111.939 111.839 111.792 111.697 111.634 111.594 111.544 111.664 111.522 111.444 111.434 111.419 111.412 111.504 111.462 111.527 111.439 111.389 111.399 111.362 111.377 111.347 111.462 111.404 111.422 111.657 111.489 111.649 111.464 111.562 111.584 111.569 111.577 111.572 111.764 111.769 111.872 111.567 110.707 110.654 110.609 110.544 110.454 110.399 110.359 110.297 110.259 110.219 110.154 110.084 109.984 109.887 109.817 109.722 109.634 109.497 109.382 109.259 109.122 108.987 108.872 108.754 108.632 108.477 108.284 108.124 107.982 107.824 107.667 107.507 107.354 107.187 107.022 106.867 106.747 106.634 106.479 106.327 106.157 105.979 105.827 105.672 105.524 105.357 105.154 104.952 104.712 104.479 104.227 104.009 103.807 103.602 103.409 103.172 102.904 102.604 102.287 101.974 101.634 101.304 100.967 100.624 100.224 99.772 99.339 98.934 98.547 98.204 97.857 97.602 97.409 97.034 95.827 96.787 99.772 101.352 104.887 97.977 93.259 97.952 99.699 93.007 93.407 93.899 96.234 90.499 87.652 87.252 89.337 94.722 90.994 84.894 84.294 84.114 83.479 80.234 79.389 79.467 79.789 81.064 80.607 80.674 80.767 80.807 80.894 80.944 82.654 85.932 85.772 85.627 85.504 85.374 84.534 85.144 84.569 84.419 82.779 80.937 79.772 79.697 79.704 79.864 81.097 81.272 81.262 81.454 80.882 80.672 80.169 80.057 80.656 79.881 80.199 80.514 80.899 81.391 81.684 81.616 87.051 93.254 94.121 93.164 86.049 83.711 83.756 83.946 84.194 84.469 84.841 85.259 85.681 86.019 86.391 86.776 87.121 87.479 87.894 88.316 88.706 89.061 89.364 89.669 90.006 90.356 90.706 91.031 91.349 91.709 92.024 92.309 92.616 92.924 93.239 93.496 93.749 94.066 94.321 94.564 94.831 95.054 95.284 95.526 95.736 95.931 96.124 96.351 96.526 96.726 96.929 97.126 97.291 97.474 97.644 97.834 98.011 98.184 98.349 98.509 98.659 98.819 98.979 99.114 99.269 99.416 99.541 99.664 99.789 99.936 100.059 100.166 100.311 100.421 100.554 100.699 100.814 100.914 101.026 101.141 101.269 101.381 101.459 101.559
85.462 85.897 86.284 86.697 87.129 87.559 87.964 88.349 88.809 89.307 89.842 90.384 90.979 91.577 92.229 92.894 93.604 94.299 94.992 95.679 96.377 97.104 97.839 98.587 99.304 100.014 100.754 101.437 102.077 102.607 104.152 104.687 104.269 104.552 104.834 105.117 105.399 105.624 105.852 106.109 106.327 106.574 106.849 107.104 107.409 107.697 107.974 108.269 108.497 108.742 109.012 109.249 109.502 109.722 109.939 110.179 110.362 110.587 110.769 110.997 111.157 111.379 111.564 111.779 111.957 112.117 112.287 112.452 112.597 112.767 112.909 113.059 113.187 113.307 113.444 113.544 113.672 113.744 113.839 113.919 113.997 114.082 114.134 114.199 114.252 114.307 114.362 114.414 114.429 114.454 114.469 114.474 114.482 114.457 114.467 114.439 114.429 114.397 114.354 114.304 114.279 114.224 114.187 114.142 114.047 113.989 113.902 113.807 113.734 113.674 113.554 113.467 113.412 113.324 113.272 113.197 113.127 113.072 113.014 112.979 112.929 112.879 112.802 112.779 112.734 112.657 112.574 112.534 112.542 112.544 112.732 112.552 112.657 112.724 112.347 112.262 112.639 112.879 112.927 112.984 113.057 113.064 112.949 112.787 112.824 112.854 112.989 112.852 112.744 112.679 112.774 112.822 112.954 112.797 112.727 112.687 112.789 112.689 112.574 112.709 112.859 112.849 112.819 112.732 112.737 112.799 112.597 112.684 112.674 112.652 112.542 112.487 112.507 112.377 112.419 112.274 112.252 112.172 112.157 111.987 112.014 111.847 112.334 111.247 110.959 110.944 110.857 110.769 110.709 110.647 110.609 110.564 110.522 110.464 110.382 110.299 110.227 110.154 110.057 109.954 109.852 109.709 109.584 109.449 109.324 109.204 109.092 108.964 108.812 108.644 108.477 108.332 108.182 108.007 107.849 107.689 107.544 107.372 107.239 107.109 106.984 106.832 106.687 106.514 106.334 106.202 106.022 105.877 105.722 105.499 105.297 105.052 104.804 104.562 104.322 104.124 103.892 103.699 103.459 103.187 102.867 102.547 102.217 101.872 101.527 101.179 100.827 100.457 100.007 99.549 99.104 98.727 98.352 98.012 97.694 97.432 97.864 95.974 97.022 96.079 103.862 101.584 96.134 99.369 94.199 93.762 91.597 90.904 91.054 91.132 88.622 90.552 92.854 92.762 98.199 88.177 84.392 83.534 82.587 80.932 79.784 79.052 79.232 79.492 80.762 80.517 80.562 80.624 80.687 80.759 80.822 81.602 85.477 84.779 85.257 84.827 84.702 84.042 84.739 84.602 84.394 82.227 80.644 79.694 79.607 79.564 80.087 83.399 83.317 83.599 83.559 83.494 83.514 83.522 83.429 83.411 83.361 83.146 83.344 83.249 82.986 81.141 81.184 85.971 93.666 93.861 93.079 85.194 83.486 83.526 83.741 84.001 84.276 84.674 85.129 85.544 85.954 86.311 86.666 87.076 87.379 87.831 88.254 88.679 89.044 89.356 89.664 89.996 90.336 90.696 91.051 91.384 91.696 92.011 92.346 92.649 92.956 93.269 93.536 93.804 94.084 94.374 94.629 94.871 95.111 95.354 95.569 95.764 96.009 96.161 96.366 96.571 96.786 96.976 97.144 97.329 97.521 97.716 97.889 98.096 98.251 98.406 98.584 98.759 98.929 99.061 99.206 99.326 99.479 99.611 99.749 99.854 99.974 100.116 100.234 100.379 100.514 100.644 100.744 100.876 101.006 101.121 101.231 101.324 101.421 101.534 101.631
85.599 86.024 86.427 86.842 87.259 87.664 88.087 88.519 89.034 89.559 90.097 90.622 91.237 91.892 92.564 93.252 93.957 94.637 95.319 96.002 96.747 97.457 98.204 98.939 99.652 100.354 101.079 101.749 102.349 103.329 104.857 104.319 104.407 104.694 104.969 105.264 105.517 105.707 105.957 106.199 106.459 106.697 106.954 107.252 107.544 107.812 108.074 108.364 108.599 108.857 109.097 109.347 109.557 109.772 110.007 110.199 110.397 110.622 110.822 111.017 111.244 111.432 111.614 111.824 111.989 112.157 112.334 112.494 112.644 112.792 112.942 113.079 113.214 113.314 113.452 113.557 113.662 113.742 113.834 113.922 113.972 114.044 114.092 114.162 114.207 114.254 114.294 114.322 114.354 114.359 114.377 114.394 114.372 114.344 114.347 114.334 114.319 114.277 114.252 114.212 114.167 114.119 114.062 114.002 113.959 113.887 113.787 113.704 113.632 113.574 113.484 113.377 113.312 113.274 113.214 113.142 113.084 113.039 112.984 112.964 112.904 112.864 112.799 112.774 112.744 112.684 112.589 112.602 112.579 112.452 112.409 112.399 112.427 112.459 112.427 112.424 112.319 112.274 112.239 112.232 112.199 112.162 112.184 112.182 112.167 112.157 112.144 112.109 112.114 112.137 112.204 112.174 112.287 112.357 112.392 112.419 112.437 112.442 112.482 112.522 112.512 112.529 112.354 112.322 112.332 112.282 112.174 112.122 112.079 112.059 112.074 112.079 112.057 112.062 112.064 112.024 112.024 112.002 111.957 111.829 111.717 111.642 112.034 112.179 111.247 111.219 111.137 111.042 110.987 110.934 110.907 110.867 110.812 110.752 110.679 110.614 110.537 110.449 110.372 110.252 110.164 110.019 109.894 109.767 109.637 109.554 109.404 109.287 109.149 108.979 108.837 108.657 108.497 108.329 108.184 108.029 107.887 107.737 107.574 107.447 107.312 107.172 107.012 106.897 106.709 106.532 106.389 106.244 106.074 105.869 105.634 105.387 105.104 104.852 104.644 104.409 104.202 103.992 103.732 103.429 103.124 102.822 102.449 102.112 101.752 101.392 101.047 100.629 100.187 99.717 99.264 98.872 98.497 98.142 97.814 97.572 97.342 96.287 95.882 95.689 95.217 94.514 94.009 96.862 92.964 93.079 93.474 91.177 90.582 91.764 88.952 91.392 94.289 86.719 87.179 85.142 83.997 82.567 81.762 80.314 79.289 78.784 78.802 79.539 80.594 80.399 80.447 80.487 80.587 80.647 80.737 80.879 84.244 84.409 84.854 84.729 84.597 83.957 82.332 82.024 81.294 81.462 81.569 79.549 79.497 79.504 79.547 84.254 83.947 84.069 84.039 84.027 83.967 83.937 83.972 83.909 83.439 83.731 83.821 83.746 83.469 80.724 80.771 83.264 91.191 92.174 91.716 85.634 83.256 83.286 83.564 83.836 84.134 84.496 84.979 85.441 85.851 86.221 86.611 87.024 87.336 87.764 88.204 88.631 89.001 89.374 89.666 89.999 90.376 90.729 91.061 91.429 91.759 92.064 92.379 92.704 92.994 93.264 93.534 93.851 94.154 94.409 94.664 94.919 95.159 95.391 95.611 95.826 96.026 96.241 96.464 96.659 96.844 97.039 97.226 97.439 97.606 97.794 97.971 98.146 98.329 98.511 98.659 98.826 98.994 99.136 99.286 99.461 99.584 99.714 99.839 99.971 100.094 100.231 100.359 100.474 100.599 100.721 100.859 100.976 101.079 101.211 101.311 101.446 101.546 101.629 101.744
85.754 86.202 86.599 87.022 87.444 87.839 88.259 88.727 89.267 89.829 90.362 90.927 91.542 92.237 92.887 93.577 94.317 94.972 95.667 96.354 97.059 97.802 98.522 99.232 99.919 100.639 101.344 102.014 102.607 104.349 104.567 104.267 104.549 104.817 105.124 105.429 105.632 105.829 106.097 106.354 106.584 106.862 107.112 107.404 107.672 107.952 108.212 108.462 108.689 108.942 109.147 109.407 109.647 109.837 110.049 110.267 110.467 110.672 110.852 111.057 111.272 111.472 111.659 111.834 112.004 112.187 112.344 112.497 112.662 112.814 112.967 113.087 113.232 113.327 113.419 113.579 113.654 113.727 113.807 113.904 113.967 113.999 114.054 114.087 114.137 114.182 114.224 114.239 114.252 114.247 114.294 114.279 114.257 114.247 114.249 114.222 114.217 114.174 114.119 114.072 114.047 113.974 113.929 113.887 113.837 113.747 113.674 113.564 113.502 113.457 113.362 113.287 113.247 113.192 113.147 113.062 113.029 112.982 112.954 112.932 112.882 112.827 112.769 112.787 112.754 112.682 112.624 112.622 112.622 112.579 112.467 112.484 112.482 112.492 112.492 112.439 112.389 112.329 112.297 112.264 112.219 112.202 112.157 112.114 112.122 112.102 112.084 112.119 112.159 112.207 112.094 112.129 112.129 112.124 112.119 112.134 112.154 112.172 112.187 112.229 112.247 112.227 112.224 112.192 112.217 112.199 112.209 112.194 112.207 112.209 112.194 112.187 112.174 112.162 112.164 112.154 112.144 112.142 112.079 111.984 111.937 111.854 112.157 112.684 111.582 111.492 111.409 111.317 111.269 111.219 111.177 111.154 111.102 111.067 110.984 110.922 110.827 110.759 110.657 110.557 110.437 110.314 110.184 110.082 109.924 109.822 109.702 109.574 109.427 109.249 109.082 108.942 108.804 108.634 108.497 108.337 108.197 108.047 107.897 107.764 107.599 107.499 107.334 107.172 106.984 106.849 106.692 106.582 106.419 106.207 105.947 105.667 105.392 105.142 104.912 104.694 104.464 104.224 103.969 103.664 103.344 103.039 102.662 102.312 101.959 101.594 101.204 100.794 100.319 99.824 99.409 99.009 98.607 98.242 97.902 97.739 97.924 96.892 96.179 95.992 95.557 101.604 97.314 94.212 93.179 92.954 92.532 91.174 91.749 91.889 89.444 88.764 88.677 91.052 88.844 89.562 83.522 82.419 81.152 80.237 78.974 78.657 78.622 80.112 80.362 80.254 80.299 80.402 80.469 80.557 80.654 80.717 83.162 84.569 83.907 82.684 81.012 80.767 81.564 82.269 82.569 82.824 81.577 79.452 79.452 79.407 79.729 83.739 84.642 84.617 83.557 83.222 84.509 84.054 84.437 84.376 84.059 84.344 84.324 84.274 83.519 80.516 80.371 80.326 85.589 90.124 88.736 84.051 83.071 83.129 83.386 83.719 84.001 84.339 84.814 85.331 85.781 86.161 86.546 86.939 87.341 87.701 88.141 88.536 88.964 89.374 89.699 90.034 90.381 90.764 91.156 91.461 91.814 92.139 92.474 92.774 93.064 93.366 93.636 93.924 94.216 94.486 94.741 94.986 95.239 95.476 95.704 95.924 96.126 96.349 96.529 96.749 96.954 97.144 97.349 97.534 97.711 97.911 98.116 98.284 98.454 98.641 98.806 98.961 99.114 99.276 99.416 99.544 99.679 99.804 99.939 100.086 100.196 100.331 100.451 100.574 100.729 100.811 100.956 101.084 101.214 101.346 101.449 101.549 101.666 101.751 101.849
85.902 86.389 86.789 87.209 87.627 88.034 88.499 88.977 89.514 90.092 90.652 91.229 91.889 92.542 93.202 93.854 94.604 95.292 95.959 96.644 97.372 98.094 98.819 99.519 100.209 100.892 101.569 102.212 103.077 104.592 104.504 104.409 104.654 104.962 105.272 105.527 105.747 105.989 106.224 106.487 106.717 107.004 107.287 107.559 107.794 108.054 108.312 108.547 108.772 109.014 109.232 109.457 109.689 109.869 110.112 110.302 110.497 110.714 110.912 111.079 111.307 111.479 111.664 111.842 112.017 112.189 112.344 112.527 112.684 112.819 112.944 113.089 113.202 113.309 113.432 113.552 113.632 113.709 113.774 113.844 113.904 113.917 113.977 114.002 114.052 114.097 114.124 114.144 114.129 114.134 114.142 114.137 114.122 114.107 114.094 114.092 114.052 114.007 113.954 113.917 113.864 113.837 113.787 113.732 113.667 113.582 113.514 113.434 113.407 113.344 113.239 113.174 113.124 113.079 113.039 112.989 112.932 112.917 112.882 112.872 112.814 112.752 112.762 112.772 112.744 112.697 112.622 112.654 112.887 113.622 112.622 112.612 112.579 112.584 112.619 112.722 112.542 112.489 112.432 112.392 112.349 112.307 112.284 112.249 112.257 112.239 112.207 112.222 112.317 112.217 112.227 112.234 112.272 112.259 112.269 112.289 112.307 112.297 112.327 112.347 112.367 112.372 112.382 112.397 112.347 112.367 112.387 112.409 112.394 112.407 112.407 112.409 112.407 112.384 112.389 112.399 112.387 112.389 112.309 112.279 112.192 112.159 112.284 113.229 111.899 111.784 111.662 111.612 111.537 111.487 111.444 111.404 111.362 111.324 111.257 111.184 111.122 111.027 110.937 110.832 110.719 110.602 110.469 110.342 110.194 110.097 109.994 109.849 109.702 109.534 109.354 109.197 109.057 108.934 108.769 108.637 108.489 108.317 108.152 108.007 107.884 107.757 107.592 107.437 107.237 107.104 106.977 106.882 106.742 106.519 106.224 105.952 105.667 105.387 105.149 104.937 104.682 104.432 104.159 103.872 103.554 103.222 102.862 102.487 102.132 101.744 101.359 100.909 100.407 99.952 99.527 99.107 98.704 98.312 97.979 97.749 98.107 97.047 96.302 98.982 102.627 100.927 98.164 93.727 93.359 93.052 92.234 92.622 93.379 89.609 89.014 88.499 86.977 86.402 85.447 88.099 88.202 86.222 80.749 79.957 78.907 78.592 78.459 80.234 79.997 80.012 80.077 80.214 80.394 80.487 80.547 80.667 81.012 81.239 80.967 81.482 82.302 82.609 82.842 83.092 83.377 83.629 82.177 79.289 79.324 79.367 80.192 85.234 83.957 84.957 84.514 85.074 84.299 84.994 84.947 84.926 84.901 84.871 84.824 84.771 83.959 80.036 79.871 79.924 85.406 88.504 85.986 82.924 82.854 82.914 83.234 83.564 83.869 84.241 84.731 85.249 85.686 86.061 86.479 86.866 87.329 87.634 88.094 88.526 88.969 89.389 89.741 90.074 90.401 90.796 91.181 91.531 91.851 92.184 92.501 92.824 93.129 93.431 93.739 94.014 94.299 94.569 94.824 95.096 95.314 95.584 95.826 96.029 96.264 96.476 96.656 96.859 97.056 97.291 97.454 97.649 97.856 98.024 98.204 98.376 98.574 98.739 98.926 99.076 99.234 99.376 99.531 99.666 99.799 99.936 100.059 100.186 100.306 100.459 100.584 100.701 100.809 100.949 101.081 101.199 101.331 101.454 101.581 101.704 101.799 101.899 102.006
86.054 86.544 86.977 87.422 87.817 88.237 88.704 89.212 89.729 90.314 90.907 91.564 92.212 92.777 93.342 94.127 94.864 95.592 96.277 96.944 97.642 98.359 99.089 99.744 100.454 101.167 101.814 102.372 103.464 104.734 104.347 104.514 104.794 105.132 105.372 105.627 105.862 106.134 106.332 106.604 106.849 107.149 107.432 107.679 107.962 108.182 108.434 108.637 108.889 109.102 109.327 109.532 109.757 109.944 110.139 110.339 110.532 110.739 110.917 111.124 111.314 111.504 111.674 111.837 112.024 112.177 112.329 112.507 112.669 112.784 112.934 113.054 113.184 113.294 113.402 113.502 113.582 113.669 113.734 113.777 113.822 113.882 113.884 113.912 113.932 113.952 113.954 113.989 113.992 113.989 113.994 113.989 113.959 113.954 113.922 113.932 113.884 113.854 113.784 113.759 113.692 113.647 113.604 113.562 113.482 113.419 113.354 113.282 113.262 113.209 113.119 113.042 113.007 112.959 112.917 112.899 112.864 112.834 112.834 112.804 112.757 112.737 112.762 112.744 112.737 112.667 112.657 112.624 113.462 113.422 112.679 112.762 112.747 112.707 112.717 112.684 112.634 112.594 112.559 112.564 112.489 112.482 112.419 112.422 112.407 112.389 112.377 112.359 112.382 112.369 112.374 112.382 112.424 112.414 112.432 112.454 112.462 112.469 112.507 112.514 112.552 112.562 112.537 112.554 112.572 112.572 112.594 112.614 112.607 112.609 112.569 112.594 112.602 112.612 112.569 112.572 112.549 112.539 112.529 112.444 112.442 112.414 112.412 113.489 112.399 112.074 111.952 111.874 111.814 111.779 111.722 111.687 111.644 111.577 111.509 111.432 111.359 111.277 111.197 111.099 110.974 110.857 110.729 110.582 110.457 110.337 110.229 110.102 109.969 109.799 109.617 109.449 109.317 109.172 109.032 108.879 108.704 108.572 108.407 108.252 108.114 107.977 107.837 107.664 107.477 107.342 107.232 107.089 106.939 106.732 106.454 106.184 105.887 105.602 105.359 105.149 104.892 104.632 104.339 104.054 103.744 103.404 103.027 102.647 102.292 101.894 101.467 101.004 100.497 100.039 99.562 99.152 98.754 98.364 98.024 97.769 97.849 96.814 96.577 98.307 99.674 95.204 97.272 97.454 93.417 92.749 91.834 95.032 91.054 89.499 90.677 87.977 86.939 86.137 85.274 86.262 85.117 85.354 82.397 80.387 78.539 78.522 78.769 80.317 79.699 79.704 79.772 80.037 80.289 80.619 80.667 81.229 81.724 82.257 82.614 82.867 83.109 83.367 83.644 83.892 84.149 84.302 83.914 79.419 79.217 79.309 79.509 85.427 85.477 85.417 85.459 85.487 85.459 85.467 85.429 85.429 85.429 85.411 85.371 84.336 82.414 79.489 79.566 79.684 82.576 87.459 83.979 82.749 82.631 82.716 83.034 83.376 83.716 84.154 84.631 85.186 85.631 86.036 86.414 86.794 87.274 87.656 88.031 88.519 88.966 89.389 89.791 90.094 90.451 90.836 91.221 91.609 91.954 92.306 92.604 92.936 93.226 93.536 93.839 94.126 94.404 94.656 94.921 95.176 95.434 95.689 95.904 96.156 96.381 96.589 96.799 97.011 97.216 97.399 97.599 97.784 97.971 98.166 98.354 98.516 98.719 98.869 99.046 99.199 99.371 99.519 99.654 99.789 99.936 100.069 100.206 100.341 100.481 100.599 100.736 100.859 100.976 101.096 101.229 101.369 101.504 101.631 101.744 101.856 101.959 102.079 102.176
86.184 86.679 87.147 87.604 88.009 88.449 88.934 89.422 89.959 90.507 91.134 91.834 92.454 92.954 93.514 94.344 95.094 95.824 96.544 97.224 97.914 98.614 99.342 100.012 100.699 101.379 102.027 102.579 104.359 104.412 104.364 104.637 104.952 105.227 105.494 105.702 105.967 106.214 106.462 106.747 107.007 107.299 107.572 107.819 108.074 108.302 108.514 108.729 108.974 109.187 109.412 109.609 109.807 110.014 110.207 110.394 110.599 110.764 110.957 111.149 111.324 111.509 111.682 111.854 112.012 112.189 112.342 112.497 112.624 112.772 112.897 113.042 113.137 113.239 113.342 113.447 113.509 113.574 113.632 113.682 113.729 113.752 113.782 113.784 113.794 113.822 113.842 113.847 113.847 113.837 113.842 113.822 113.819 113.799 113.749 113.744 113.704 113.657 113.607 113.564 113.509 113.462 113.422 113.374 113.314 113.234 113.204 113.144 113.122 113.069 112.982 112.929 112.872 112.864 112.812 112.792 112.777 112.749 112.769 112.722 112.712 112.714 112.729 112.724 112.699 112.642 112.642 112.632 113.502 112.914 112.774 112.762 112.732 112.747 112.754 112.702 112.652 112.649 112.589 112.567 112.559 112.539 112.492 112.474 112.499 112.474 112.617 112.459 112.454 112.454 112.444 112.489 112.494 112.504 112.507 112.514 112.574 112.599 112.617 112.602 112.649 112.664 112.652 112.657 112.694 112.684 112.704 112.742 112.732 112.727 112.719 112.729 112.727 112.717 112.707 112.689 112.674 112.649 112.637 112.604 112.592 112.617 112.574 113.477 113.102 112.354 112.222 112.137 112.074 112.024 111.964 111.927 111.879 111.837 111.754 111.674 111.572 111.494 111.407 111.317 111.194 111.082 110.959 110.827 110.687 110.544 110.422 110.302 110.159 110.019 109.849 109.649 109.537 109.402 109.232 109.087 108.929 108.762 108.594 108.437 108.302 108.184 108.014 107.852 107.689 107.512 107.382 107.247 107.079 106.849 106.602 106.349 106.037 105.749 105.524 105.282 105.057 104.792 104.494 104.199 103.884 103.537 103.187 102.799 102.397 102.009 101.557 101.082 100.592 100.099 99.637 99.214 98.789 98.377 98.047 97.772 97.734 96.887 97.329 101.774 100.544 94.917 94.384 93.899 93.712 94.629 94.619 91.814 92.012 89.499 89.379 88.192 86.614 85.984 85.492 85.369 84.452 84.419 82.124 80.202 79.647 78.164 78.979 80.009 79.422 79.352 79.609 80.204 81.197 81.819 82.342 82.627 82.869 83.109 83.367 83.634 83.877 84.192 84.309 84.364 84.224 83.974 83.702 80.119 79.139 79.232 80.689 84.897 84.734 84.947 84.967 85.014 84.602 84.142 85.114 85.149 85.176 83.829 85.259 85.119 84.244 79.454 79.471 79.496 82.224 86.934 85.274 82.461 82.391 82.506 82.834 83.174 83.521 84.059 84.554 85.089 85.574 85.956 86.319 86.681 87.174 87.689 88.009 88.486 88.936 89.394 89.821 90.146 90.504 90.864 91.319 91.694 92.019 92.369 92.699 93.011 93.349 93.659 93.946 94.234 94.494 94.799 95.054 95.299 95.591 95.814 96.054 96.291 96.519 96.764 96.929 97.159 97.354 97.544 97.741 97.941 98.121 98.306 98.471 98.691 98.866 99.029 99.204 99.376 99.521 99.661 99.826 99.959 100.094 100.241 100.366 100.469 100.619 100.766 100.891 100.994 101.126 101.256 101.401 101.544 101.669 101.809 101.934 102.034 102.151 102.284 102.371
86.282 86.792 87.259 87.732 88.167 88.639 89.109 89.612 90.122 90.722 91.389 92.009 92.607 93.129 93.794 94.599 95.349 96.067 96.767 97.449 98.164 98.894 99.592 100.267 100.932 101.602 102.227 103.267 104.652 104.389 104.439 104.749 105.029 105.344 105.574 105.804 106.039 106.299 106.534 106.832 107.127 107.402 107.649 107.919 108.159 108.399 108.599 108.819 109.057 109.264 109.472 109.679 109.862 110.052 110.254 110.437 110.649 110.794 110.997 111.169 111.352 111.532 111.722 111.877 112.024 112.179 112.332 112.462 112.607 112.742 112.887 113.004 113.074 113.189 113.272 113.354 113.412 113.487 113.514 113.554 113.612 113.637 113.652 113.674 113.674 113.669 113.699 113.692 113.692 113.689 113.669 113.662 113.652 113.619 113.574 113.567 113.509 113.464 113.417 113.384 113.359 113.299 113.254 113.189 113.152 113.049 113.002 112.974 112.962 112.902 112.819 112.804 112.767 112.744 112.722 112.709 112.679 112.662 112.687 112.659 112.652 112.707 112.717 112.697 112.669 112.639 112.639 112.954 113.784 112.834 112.822 112.839 112.814 112.804 112.807 112.772 112.742 112.687 112.664 112.654 112.637 112.602 112.587 112.564 112.534 112.527 112.519 112.502 112.527 112.534 112.539 112.534 112.569 112.564 112.564 112.614 112.642 112.659 112.674 112.694 112.739 112.734 112.752 112.762 112.834 112.824 112.799 112.842 112.862 112.852 112.859 112.837 112.887 112.907 112.844 112.832 112.829 112.837 112.842 112.787 112.817 112.792 112.777 113.404 113.572 112.602 112.439 112.362 112.322 112.262 112.217 112.149 112.092 112.024 111.957 111.872 111.784 111.709 111.617 111.514 111.382 111.274 111.127 111.007 110.874 110.732 110.577 110.444 110.309 110.169 110.007 109.844 109.764 109.652 109.484 109.262 109.114 108.927 108.764 108.564 108.457 108.319 108.147 107.977 107.812 107.637 107.467 107.324 107.134 106.939 106.684 106.412 106.117 105.842 105.624 105.384 105.159 104.872 104.607 104.297 103.984 103.642 103.272 102.889 102.492 102.092 101.622 101.159 100.639 100.127 99.684 99.252 98.794 98.419 98.052 97.752 99.392 98.502 101.214 100.792 101.582 95.789 94.474 93.944 93.569 93.694 92.359 91.417 90.499 90.852 93.832 88.559 86.832 86.667 84.987 90.864 84.857 82.877 82.679 81.539 83.347 78.142 79.047 79.884 79.297 79.264 80.534 82.309 82.657 82.902 83.144 83.409 83.652 83.922 84.152 84.312 84.342 84.182 83.947 83.692 83.419 83.149 82.879 81.397 79.049 79.147 80.002 84.357 84.384 84.424 84.454 83.404 83.387 84.419 84.512 84.624 84.011 84.694 84.706 84.744 81.454 79.421 79.409 79.446 81.804 87.156 83.649 82.144 82.124 82.269 82.634 82.999 83.396 83.899 84.429 84.959 85.456 85.881 86.254 86.664 87.091 87.641 88.049 88.491 88.949 89.391 89.836 90.226 90.584 90.944 91.349 91.756 92.129 92.491 92.796 93.164 93.476 93.766 94.059 94.354 94.649 94.891 95.164 95.441 95.696 95.944 96.211 96.456 96.671 96.886 97.106 97.324 97.511 97.724 97.899 98.081 98.284 98.469 98.641 98.836 99.019 99.181 99.356 99.519 99.684 99.814 99.984 100.101 100.271 100.394 100.546 100.684 100.799 100.926 101.066 101.206 101.321 101.459 101.591 101.741 101.881 102.019 102.139 102.249 102.381 102.476 102.591
86.302 86.859 87.354 87.822 88.309 88.804 89.282 89.769 90.307 90.932 91.557 92.097 92.742 93.359 94.067 94.862 95.589 96.307 97.029 97.717 98.409 99.134 99.827 100.529 101.199 101.862 102.389 103.477 104.637 104.307 104.534 104.839 105.152 105.412 105.662 105.892 106.147 106.379 106.647 106.929 107.252 107.499 107.752 108.009 108.259 108.454 108.682 108.887 109.104 109.349 109.549 109.754 109.942 110.112 110.319 110.482 110.704 110.864 111.039 111.237 111.392 111.557 111.714 111.864 112.022 112.169 112.307 112.469 112.604 112.702 112.822 112.959 113.039 113.109 113.194 113.259 113.317 113.359 113.407 113.447 113.489 113.487 113.509 113.527 113.504 113.504 113.512 113.522 113.547 113.517 113.507 113.479 113.464 113.452 113.422 113.359 113.319 113.284 113.247 113.194 113.162 113.094 113.062 113.012 112.942 112.887 112.849 112.804 112.804 112.747 112.704 112.672 112.627 112.619 112.612 112.584 112.587 112.604 112.629 112.572 112.592 112.622 112.682 112.689 112.652 112.657 112.674 113.684 113.477 112.819 112.869 112.887 112.869 112.832 112.857 112.772 112.764 112.727 112.747 112.717 112.679 112.672 112.657 112.624 112.604 112.594 112.572 112.574 112.562 112.574 112.599 112.594 112.602 112.602 112.642 112.679 112.727 112.734 112.742 112.769 112.799 112.817 112.832 112.864 112.887 112.917 112.917 112.964 112.962 112.992 113.029 113.039 113.014 113.017 112.997 113.002 112.984 112.984 113.009 112.972 112.952 112.914 112.877 113.272 114.062 112.874 112.657 112.562 112.507 112.429 112.372 112.317 112.264 112.199 112.129 112.037 111.962 111.849 111.767 111.664 111.524 111.402 111.299 111.179 111.034 110.874 110.734 110.572 110.442 110.312 110.139 109.969 109.799 109.729 109.637 109.384 109.232 109.082 108.904 108.719 108.549 108.424 108.247 108.072 107.884 107.704 107.539 107.362 107.197 106.964 106.717 106.457 106.199 105.944 105.699 105.469 105.227 104.949 104.657 104.362 104.029 103.717 103.334 102.977 102.584 102.124 101.657 101.202 100.689 100.177 99.712 99.262 98.794 98.404 98.029 97.724 97.874 101.117 106.609 105.849 101.632 95.644 94.837 94.254 94.962 93.329 93.412 92.067 90.689 89.537 88.414 87.574 86.547 85.652 86.367 96.272 88.549 85.187 93.064 89.542 82.737 77.957 79.079 79.537 79.199 79.197 79.814 83.167 83.427 83.682 83.917 84.194 84.319 84.312 84.139 83.419 83.629 83.379 83.127 82.884 82.629 82.357 82.097 80.442 78.957 79.079 81.434 82.884 83.424 83.894 83.912 83.982 83.904 83.417 84.069 84.101 84.136 84.174 84.196 84.236 81.791 79.364 79.384 79.386 81.701 84.959 83.416 81.814 81.816 82.029 82.416 82.866 83.266 83.729 84.279 84.869 85.364 85.781 86.206 86.589 87.051 87.569 88.094 88.466 88.961 89.424 89.881 90.279 90.654 91.046 91.421 91.814 92.216 92.599 92.929 93.276 93.584 93.916 94.191 94.499 94.789 95.076 95.329 95.571 95.864 96.086 96.329 96.576 96.811 97.049 97.256 97.484 97.676 97.861 98.074 98.269 98.464 98.654 98.849 99.021 99.196 99.369 99.541 99.691 99.844 99.989 100.144 100.294 100.424 100.579 100.694 100.844 100.996 101.146 101.269 101.391 101.534 101.659 101.809 101.964 102.096 102.249 102.381 102.491 102.604 102.741 102.859
86.394 86.937 87.462 87.919 88.437 88.977 89.434 89.924 90.487 91.112 91.659 92.279 92.927 93.537 94.314 95.064 95.817 96.517 97.249 97.959 98.659 99.342 100.084 100.754 101.417 102.099 102.682 104.307 104.437 104.324 104.644 104.964 105.252 105.512 105.732 105.974 106.262 106.502 106.752 107.042 107.317 107.589 107.844 108.097 108.332 108.532 108.754 108.982 109.174 109.367 109.604 109.799 109.977 110.174 110.367 110.519 110.714 110.897 111.049 111.239 111.399 111.577 111.734 111.864 112.004 112.159 112.302 112.444 112.569 112.699 112.782 112.889 112.967 113.042 113.127 113.204 113.249 113.274 113.309 113.304 113.337 113.377 113.372 113.374 113.367 113.354 113.367 113.352 113.367 113.339 113.344 113.324 113.287 113.254 113.217 113.179 113.132 113.109 113.044 113.024 112.964 112.919 112.872 112.814 112.749 112.727 112.682 112.664 112.654 112.589 112.554 112.524 112.524 112.492 112.482 112.474 112.494 112.544 112.512 112.502 112.537 112.607 112.639 112.657 112.629 112.639 112.937 113.897 113.019 112.874 112.912 112.969 112.944 112.889 112.852 112.807 112.812 112.764 112.797 112.747 112.732 112.702 112.677 112.639 112.647 112.624 112.617 112.599 112.612 112.617 112.607 112.637 112.617 112.652 112.709 112.707 112.754 112.764 112.824 112.847 112.872 112.919 112.942 112.999 113.004 113.034 113.062 113.117 113.102 113.152 113.142 113.167 113.179 113.162 113.172 113.144 113.117 113.134 113.119 113.149 113.062 113.072 113.022 113.079 114.324 113.277 112.884 112.742 112.662 112.604 112.517 112.487 112.427 112.354 112.262 112.162 112.074 111.989 111.884 111.779 111.664 111.542 111.419 111.294 111.147 111.002 110.842 110.682 110.547 110.409 110.262 110.057 109.834 109.762 109.694 109.542 109.354 109.189 109.002 108.827 108.649 108.482 108.302 108.127 107.947 107.754 107.577 107.407 107.224 106.997 106.764 106.489 106.242 105.987 105.772 105.532 105.244 105.004 104.704 104.404 104.052 103.737 103.377 103.032 102.609 102.132 101.674 101.182 100.672 100.164 99.707 99.249 98.812 98.394 98.037 97.744 97.932 100.237 103.644 110.392 100.082 98.387 94.917 93.982 95.184 93.404 93.044 92.694 90.869 89.539 88.594 87.482 86.729 85.767 84.902 85.824 86.959 84.447 81.742 81.419 83.384 78.562 78.867 79.454 79.119 79.129 79.144 81.249 84.202 84.364 84.334 84.102 83.884 83.629 83.364 82.082 82.697 82.579 82.342 81.517 80.769 79.004 78.684 78.774 78.879 79.009 80.647 82.967 82.962 83.277 83.329 83.462 83.487 83.497 83.537 83.586 83.616 83.631 83.666 83.714 81.059 79.341 79.374 79.586 81.291 85.539 81.486 81.444 81.554 81.831 82.201 82.641 83.076 83.614 84.149 84.746 85.246 85.709 86.131 86.556 87.016 87.481 88.021 88.504 88.956 89.421 89.916 90.351 90.751 91.099 91.486 91.911 92.319 92.689 93.046 93.419 93.729 94.056 94.359 94.634 94.911 95.211 95.459 95.726 95.976 96.266 96.519 96.741 96.999 97.211 97.464 97.654 97.876 98.071 98.239 98.461 98.651 98.864 99.029 99.216 99.391 99.546 99.714 99.896 100.026 100.211 100.354 100.506 100.621 100.794 100.934 101.079 101.214 101.341 101.499 101.626 101.771 101.926 102.049 102.196 102.339 102.481 102.639 102.769 102.889 103.009 103.151
86.409 87.002 87.519 88.027 88.554 89.069 89.544 90.069 90.672 91.267 91.797 92.439 93.127 93.744 94.489 95.289 96.022 96.749 97.477 98.207 98.884 99.587 100.307 100.989 101.674 102.294 102.849 104.534 104.242 104.424 104.739 105.052 105.317 105.577 105.809 106.052 106.337 106.584 106.837 107.132 107.392 107.659 107.929 108.134 108.377 108.592 108.812 109.004 109.229 109.439 109.647 109.817 110.009 110.214 110.394 110.574 110.754 110.919 111.064 111.257 111.409 111.577 111.719 111.882 112.002 112.164 112.299 112.437 112.557 112.664 112.754 112.839 112.917 112.989 113.059 113.107 113.132 113.187 113.197 113.194 113.209 113.227 113.234 113.227 113.217 113.202 113.212 113.207 113.182 113.174 113.172 113.132 113.102 113.074 113.027 112.992 112.942 112.897 112.864 112.822 112.774 112.742 112.689 112.632 112.604 112.567 112.529 112.519 112.529 112.474 112.414 112.399 112.397 112.379 112.377 112.364 112.417 112.439 112.434 112.434 112.497 112.572 112.599 112.602 112.612 112.639 113.112 113.612 112.874 112.919 112.957 112.999 112.999 112.962 112.922 112.892 112.867 112.849 112.839 112.817 112.809 112.759 112.757 112.729 112.704 112.674 112.682 112.649 112.667 112.652 112.674 112.667 112.684 112.712 112.754 112.787 112.782 112.822 112.864 112.929 112.947 113.014 113.062 113.062 113.094 113.152 113.187 113.184 113.202 113.199 113.257 113.289 113.274 113.284 113.287 113.277 113.269 113.262 113.232 113.264 113.209 113.149 113.067 113.099 113.984 113.829 113.032 112.882 112.799 112.759 112.672 112.599 112.547 112.459 112.379 112.279 112.184 112.092 111.979 111.877 111.772 111.639 111.512 111.397 111.237 111.072 110.924 110.777 110.634 110.469 110.317 110.134 109.937 109.902 109.792 109.619 109.429 109.237 109.087 108.914 108.744 108.552 108.347 108.187 107.979 107.777 107.619 107.422 107.229 107.019 106.784 106.519 106.272 106.037 105.792 105.534 105.262 104.994 104.699 104.397 104.067 103.749 103.409 103.019 102.589 102.127 101.664 101.184 100.677 100.157 99.684 99.244 98.797 98.394 98.039 97.774 98.449 99.594 98.062 106.007 103.869 94.852 94.584 93.829 93.412 92.864 91.682 90.932 90.442 89.482 88.654 87.402 86.474 85.484 84.852 84.102 84.734 83.607 84.297 80.994 77.547 77.549 78.499 79.334 79.054 79.037 79.077 81.229 84.099 83.859 83.589 83.352 83.112 82.832 82.579 82.177 81.752 80.564 79.619 78.662 78.627 78.587 78.582 78.617 78.902 78.964 79.017 79.132 79.409 79.819 79.469 80.367 80.477 80.484 81.047 81.024 80.644 81.394 81.576 80.789 79.391 79.311 79.354 79.836 81.474 84.646 81.046 81.114 81.269 81.591 82.026 82.444 82.921 83.456 84.014 84.654 85.206 85.626 86.029 86.469 86.966 87.441 87.979 88.551 88.964 89.424 89.944 90.381 90.816 91.186 91.576 91.969 92.406 92.806 93.199 93.491 93.871 94.171 94.486 94.779 95.056 95.366 95.654 95.929 96.186 96.434 96.664 96.909 97.171 97.394 97.649 97.864 98.041 98.256 98.456 98.649 98.876 99.066 99.221 99.409 99.559 99.764 99.929 100.089 100.249 100.406 100.549 100.696 100.864 100.994 101.146 101.306 101.469 101.604 101.744 101.876 102.034 102.184 102.339 102.481 102.649 102.774 102.901 103.056 103.199 103.326 103.436
